# .PCD v0.7 - Point Cloud Data file format
VERSION 0.7
FIELDS x y z intensity
SIZE 4 4 4 4
TYPE F F F F
COUNT 1 1 1 1
WIDTH 1158
HEIGHT 1
VIEWPOINT 0 0 0 1 0 0 0
POINTS 1158
DATA ascii
-8.4328022 -2.2595625 -2.0685778 345
-9.3688154 -2.5103667 -2.0616524 345
-10.536396 -2.8232188 -2.0551882 345
-12.08402 -3.1995056 -2.0537426 345.17001
-14.045238 -3.7187805 -2.0419478 345.17001
-15.767527 -4.1747937 -1.9074267 345.17001
-19.392647 -5.1346226 -1.8715867 345.17001
-4.475626 -1.1850188 -2.0613413 345.17001
-22.472376 -5.9500475 -1.0840895 345.17001
-4.7650805 -1.2616581 -2.0589294 345.17001
-22.440483 -5.9416032 -0.53895468 345.17001
-5.0966725 -1.3494542 -2.0587628 345.17001
-5.450346 -1.443097 -2.0521209 345.17001
-22.56032 -5.9733324 0.5418328 345.17001
-5.8777351 -1.5562575 -2.0545108 345.17001
-6.341527 -1.6790564 -2.0469952 345.17001
-30.197176 -7.9953556 2.1843543 345.17001
-6.9265666 -1.8339584 -2.054601 345.17001
-7.5954986 -2.0110724 -2.0569084 345.17001
-8.4319439 -2.2325394 -2.0667331 345.17001
-9.3686581 -2.4805548 -2.059989 345.17001
-10.539026 -2.7904351 -2.0540774 345.17001
-12.092907 -3.1657481 -2.0537426 345.32999
-14.053652 -3.6790428 -2.0416694 345.32999
-15.77528 -4.1297402 -1.9069622 345.32999
-19.403055 -5.0794392 -1.8712151 345.32999
-4.4877553 -1.1748294 -2.0654087 345.32999
-4.7685852 -1.2483466 -2.0589294 345.32999
-22.555635 -5.9047389 -0.54132217 345.32999
-5.100421 -1.3352164 -2.0587628 345.32999
-5.4561729 -1.4283471 -2.0528049 345.32999
-22.615599 -5.9204364 0.54276121 345.32999
-5.8838911 -1.5403175 -2.055151 345.32999
-6.3554258 -1.6637585 -2.049974 345.32999
-22.350418 -5.851016 1.6155599 345.32999
-6.9298015 -1.8141217 -2.0540495 345.32999
-7.6010852 -1.9898541 -2.0569084 345.32999
-8.4287319 -2.2065201 -2.0644276 345.32999
-9.3755484 -2.4543829 -2.059989 345.32999
-10.548678 -2.7614915 -2.0544477 345.32999
-12.09515 -3.1257663 -2.0524457 345.51001
-14.072811 -3.6368561 -2.0427828 345.51001
-15.79587 -4.0821486 -1.9078914 345.51001
-19.432413 -5.0219455 -1.8725157 345.51001
-22.623669 -5.8466663 -1.6339756 345.51001
-4.4949617 -1.1616392 -2.0670357 345.51001
-22.342875 -5.7740998 -1.0761703 345.51001
-4.7760568 -1.234283 -2.0604711 345.51001
-22.593433 -5.8388524 -0.54178637 345.51001
-5.1081977 -1.3201187 -2.0602179 345.51001
-5.4624529 -1.4116693 -2.053489 345.51001
-22.515999 -5.818841 0.53992951 345.51001
-5.8868666 -1.5213511 -2.0545108 345.51001
-6.3587728 -1.6433065 -2.0493782 345.51001
-22.235405 -5.7463264 1.6059335 345.51001
-6.9317436 -1.7913802 -2.052947 345.51001
-7.6110454 -1.966933 -2.0579212 345.51001
-8.4393911 -2.1810036 -2.0653498 345.51001
-9.385107 -2.4254062 -2.0604048 345.51001
-10.553496 -2.7273548 -2.0537071 345.51001
-12.106283 -3.0903537 -2.0527699 345.67999
-14.075864 -3.5931258 -2.0416694 345.67999
-15.788665 -4.0303502 -1.9055684 345.67999
-19.43951 -4.9622965 -1.8717725 345.67999
-22.403141 -5.7188182 -1.6168156 345.67999
-4.4966183 -1.1478454 -2.0662222 345.67999
-22.385073 -5.7142057 -1.0773815 345.67999
-4.7796984 -1.2201067 -2.0604711 345.67999
-5.1102872 -1.3044957 -2.0594902 345.67999
-5.4684381 -1.3959204 -2.054173 345.67999
-22.794704 -5.8187723 0.5461964 345.67999
-5.8895187 -1.5034091 -2.0538707 345.67999
-26.612762 -6.7934022 1.2808579 345.67999
-6.3580709 -1.6230158 -2.047591 345.67999
-22.262022 -5.6827946 1.6066312 345.67999
-6.9426165 -1.7722319 -2.054601 345.67999
-21.766464 -5.5562944 2.0958278 345.67999
-7.6130986 -1.9433849 -2.0569084 345.67999
-8.4420538 -2.1549911 -2.0644276 345.67999
-9.3865757 -2.3960979 -2.0591574 345.67999
-10.563447 -2.696516 -2.0540774 345.67999
-12.114866 -3.0565345 -2.0527699 345.84
-14.095445 -3.556227 -2.043061 345.84
-15.797932 -3.9857581 -1.905336 345.84
-19.472601 -4.9128633 -1.8736303 345.84
-22.674379 -5.7206597 -1.6352313 345.84
-4.4874053 -1.1321553 -2.0605278 345.84
-22.418377 -5.6560712 -1.07822 345.84
-4.7795076 -1.2058517 -2.0589294 345.84
-22.638321 -5.7115622 -0.54206491 345.84
-5.1139102 -1.29022 -2.0594902 345.84
-22.977968 -5.7972541 0 345.84
-5.4759593 -1.3815638 -2.055541 345.84
-22.882597 -5.7731924 0.54791403 345.84
-5.8936944 -1.4869566 -2.0538707 345.84
-22.637272 -5.7112975 1.0887479 345.84
-6.3625784 -1.6052544 -2.047591 345.84
-6.9400821 -1.7509563 -2.0523958 345.84
-22.044491 -5.5617414 2.1210945 345.84
-7.6147437 -1.9211708 -2.0558953 345.84
-8.4499254 -2.1318841 -2.0648887 345.84
-9.3894367 -2.3689191 -2.0583258 345.84
-10.570935 -2.6670067 -2.0540774 345.84
-12.121105 -3.0153906 -2.0521214 346.03
-14.101394 -3.5080309 -2.0422261 346.03
-15.803351 -3.9314301 -1.9044069 346.03
-19.461731 -4.8415322 -1.8710294 346.03
-21.825844 -5.4296575 -1.5727295 346.03
-4.492908 -1.1177094 -2.0613413 346.03
-22.613436 -5.6255879 -1.0866982 346.03
-4.7870622 -1.1908866 -2.0604711 346.03
-22.711466 -5.6499748 -0.5433647 346.03
-5.1145449 -1.2723551 -2.0580354 346.03
-5.4732156 -1.3615824 -2.0528049 346.03
-22.843407 -5.6827984 0.54652137 346.03
-5.8985929 -1.4674042 -2.0538707 346.03
-26.748762 -6.6543412 1.285423 346.03
-6.373425 -1.5855292 -2.0493782 346.03
-27.827806 -6.9227767 2.0052197 346.03
-6.9458504 -1.7279326 -2.0523958 346.03
-7.628583 -1.8977773 -2.0579212 346.03
-8.4512825 -2.102442 -2.0635054 346.03
-9.4010372 -2.3387141 -2.0591574 346.03
-10.570185 -2.6295652 -2.0522258 346.03
-12.134352 -2.9782372 -2.0527699 346.20999
-14.100804 -3.4608803 -2.040556 346.20999
-15.817554 -3.8822367 -1.9046391 346.20999
-19.509722 -4.7884369 -1.8741877 346.20999
-21.91061 -5.3777075 -1.5776124 346.20999
-4.496397 -1.1035889 -2.0613413 346.20999
-22.648458 -5.558804 -1.0875367 346.20999
-4.7871952 -1.174962 -2.0589294 346.20999
-22.894157 -5.6191077 -0.54731053 346.20999
-5.120326 -1.2567252 -2.0587628 346.20999
-59.542793 -14.614095 0 346.20999
-5.4756408 -1.3439331 -2.0521209 346.20999
-27.605034 -6.7753382 0.65992934 346.20999
-5.9031734 -1.4488661 -2.0538707 346.20999
-27.029528 -6.6340871 1.2979075 346.20999
-6.3765206 -1.5650437 -2.0487826 346.20999
-23.053806 -5.6582918 1.6599251 346.20999
-6.9531116 -1.7065613 -2.052947 346.20999
-7.6251121 -1.8714961 -2.0553887 346.20999
-8.4635162 -2.0772729 -2.0648887 346.20999
-9.4026384 -2.3077695 -2.05791 346.20999
-10.580302 -2.5968137 -2.0525961 346.20999
-12.134949 -2.9424796 -2.0514729 346.37
-14.110414 -3.42149 -2.040556 346.37
-15.836055 -3.8399231 -1.9055684 346.37
-19.519148 -4.7329984 -1.8738161 346.37
-4.5065641 -1.0927507 -2.0645952 346.37
-22.762913 -5.519546 -1.0922881 346.37
-4.7904577 -1.1615891 -2.0589294 346.37
-22.775682 -5.5226426 -0.54410744 346.37
-5.1238155 -1.2424216 -2.0587628 346.37
-53.888405 -13.066848 0 346.37
-5.4775462 -1.3281941 -2.0514369 346.37
-22.863125 -5.5438452 0.5461964 346.37
-5.905355 -1.4319292 -2.0532303 346.37
-22.883291 -5.5487351 1.0980645 346.37
-6.3790107 -1.5467811 -2.0481868 346.37
-22.82715 -5.5351224 1.642486 346.37
-6.9541135 -1.6862319 -2.0518444 346.37
-7.6303086 -1.8501955 -2.0553887 346.37
-8.4692841 -2.0536301 -2.0648887 346.37
-9.4109478 -2.2819645 -2.0583258 346.37
-10.587513 -2.5672579 -2.0525961 346.37
-12.137868 -2.9050837 -2.0505004 346.54001
-14.12243 -3.3800695 -2.0408344 346.54001
-15.849311 -3.7933822 -1.9058007 346.54001
-19.527294 -4.6736727 -1.8732587 346.54001
-21.989729 -5.2630329 -1.5811002 346.54001
-4.5097866 -1.0793746 -2.0645952 346.54001
-22.818048 -5.4612837 -1.0941515 346.54001
-4.7920885 -1.1469408 -2.0581586 346.54001
-22.893085 -5.4792428 -0.54652137 346.54001
-5.1274791 -1.2272135 -2.0587628 346.54001
-48.251236 -11.548475 0 346.54001
-5.4887738 -1.3136859 -2.054173 346.54001
-22.758911 -5.4471297 0.54331827 346.54001
-5.9077349 -1.4139603 -2.0525901 346.54001
-27.451994 -6.570374 1.3163545 346.54001
-6.3780017 -1.5265142 -2.0463996 346.54001
-22.977356 -5.4994121 1.6521124 346.54001
-6.9590859 -1.6655911 -2.0518444 346.54001
-29.503006 -7.0612645 2.8302314 346.54001
-7.633883 -1.8270974 -2.0548823 346.54001
-8.4696617 -2.0271332 -2.0635054 346.54001
-9.4157743 -2.2535763 -2.05791 346.54001
-10.596995 -2.5362902 -2.0529664 346.54001
-12.154618 -2.8687503 -2.0517972 346.72
-14.131051 -3.3352311 -2.040556 346.72
-15.865016 -3.7444839 -1.9062653 346.72
-19.547695 -4.6136751 -1.8738161 346.72
-4.5095987 -1.0643619 -2.0629683 346.72
-22.708708 -5.3597417 -1.0880957 346.72
-4.7992601 -1.1327283 -2.0597003 346.72
-22.896563 -5.4040799 -0.5461964 346.72
-5.1276827 -1.2102431 -2.057308 346.72
-36.514736 -8.6182604 0 346.72
-5.4892154 -1.2955725 -2.0528049 346.72
-22.404226 -5.287878 0.53445172 346.72
-5.9176803 -1.3966994 -2.0545108 346.72
-22.885649 -5.4015036 1.0965738 346.72
-6.3809075 -1.506031 -2.0458038 346.72
-22.714903 -5.3612041 1.6320225 346.72
-6.9661551 -1.6441621 -2.0523958 346.72
-29.70141 -7.01017 2.8471377 346.72
-7.6339359 -1.8017726 -2.0533628 346.72
-8.4722004 -1.999621 -2.0625832 346.72
-9.4361353 -2.2271304 -2.0608206 346.72
-10.59726 -2.5011804 -2.0514853 346.72
-12.158737 -2.8339012 -2.0511487 346.88
-14.138381 -3.2953072 -2.0402777 346.88
-15.871542 -3.699264 -1.9058007 346.88
-19.556623 -4.558166 -1.8734446 346.88
-22.605431 -5.2687674 -1.6230936 346.88
-4.5125532 -1.0517646 -2.0629683 346.88
-22.715803 -5.2944922 -1.087723 346.88
-4.79881 -1.118484 -2.0581586 346.88
-22.925196 -5.3432965 -0.54652137 346.88
-5.1364856 -1.1971879 -2.0594902 346.88
-5.4909816 -1.2798122 -2.0521209 346.88
-28.580065 -6.6613069 0.68132967 346.88
-5.9141765 -1.3784484 -2.05195 346.88
-23.056297 -5.3738532 1.1040273 346.88
-6.3888073 -1.489073 -2.0469952 346.88
-22.481075 -5.2397833 1.6141648 346.88
-6.9669747 -1.6238296 -2.0512931 346.88
-23.478033 -5.4721494 2.2490995 346.88
-7.6408219 -1.7808868 -2.0538692 346.88
-8.4777517 -1.9759544 -2.0625832 346.88
-9.4289818 -2.1976626 -2.05791 346.88
-10.606116 -2.4720237 -2.0518556 346.88
-12.158451 -2.7913578 -2.0495276 347.07001
-14.14537 -3.2475183 -2.039721 347.07001
-15.879849 -3.6457229 -1.905336 347.07001
-19.579395 -4.4950709 -1.8741877 347.07001
-22.19109 -5.0946684 -1.5921217 347.07001
-4.516016 -1.0367947 -2.0629683 347.07001
-22.651455 -5.2003593 -1.08381 347.07001
-4.8024926 -1.1025645 -2.0581586 347.07001
-22.94084 -5.2667971 -0.54647493 347.07001
-5.1349802 -1.1788975 -2.057308 347.07001
-36.709 -8.4277143 0 347.07001
-5.4933639 -1.2611759 -2.0514369 347.07001
-22.321133 -5.1245236 0.53171289 347.07001
-5.9224086 -1.3596766 -2.0532303 347.07001
-23.072042 -5.2969189 1.103934 347.07001
-6.3955708 -1.4683061 -2.047591 347.07001
-23.143915 -5.3134193 1.6604831 347.07001
-6.9704475 -1.6002872 -2.0507419 347.07001
-7.6466856 -1.7555392 -2.0538692 347.07001
-8.4785671 -1.9465239 -2.0611999 347.07001
-9.4343109 -2.1659451 -2.0574942 347.07001
-10.608509 -2.4355197 -2.0507445 347.07001
-12.168604 -2.7557065 -2.0498519 347.23999
-14.15108 -3.204659 -2.0391643 347.23999
-15.890596 -3.5985904 -1.905336 347.23999
-19.600416 -4.4387174 -1.8749309 347.23999
-23.420322 -5.3037748 -1.6791779 347.23999
-4.5244184 -1.0246015 -2.0654087 347.23999
-22.851891 -5.1750479 -1.0926609 347.23999
-4.8057427 -1.0883104 -2.0581586 347.23999
-22.997318 -5.2079811 -0.54744983 347.23999
-5.1439066 -1.164891 -2.0594902 347.23999
-29.159632 -6.6035013 0 347.23999
-5.5007477 -1.2457013 -2.0528049 347.23999
-22.381092 -5.0684304 0.53278059 347.23999
-5.9227204 -1.3412615 -2.05195 347.23999
-22.785643 -5.1600451 1.0894932 347.23999
-6.3943129 -1.4480585 -2.0458038 347.23999
-27.940546 -6.3274264 2.0032663 347.23999
-6.9770398 -1.5800231 -2.0512931 347.23999
-7.6499739 -1.7324159 -2.0533628 347.23999
-8.4824076 -1.9209291 -2.0607386 347.23999
-9.4426031 -2.1383755 -2.05791 347.23999
-10.613771 -2.4035988 -2.0503743 347.23999
-12.184431 -2.7213104 -2.0511487 347.41
-14.154728 -3.1613626 -2.0383291 347.41
-15.893449 -3.5496943 -1.9044069 347.41
-19.621273 -4.3822784 -1.875674 347.41
-25.889372 -5.7822161 -1.8549641 347.41
-4.5238724 -1.0103763 -2.0637817 347.41
-22.841797 -5.1015611 -1.0914497 347.41
-4.8089509 -1.0740466 -2.0581586 347.41
-22.958031 -5.1275206 -0.54614997 347.41
-5.1418853 -1.1484053 -2.057308 347.41
-29.19276 -6.5200057 0 347.41
-5.5025854 -1.2289652 -2.0521209 347.41
-28.925362 -6.4602838 0.68810719 347.41
-5.9303727 -1.3245085 -2.0532303 347.41
-22.62537 -5.0532236 1.0811082 347.41
-6.4060345 -1.4307444 -2.0481868 347.41
-23.14583 -5.1694646 1.6583904 347.41
-6.9835734 -1.559734 -2.0518444 347.41
-7.653192 -1.7092887 -2.0528562 347.41
-8.484271 -1.8949045 -2.0598164 347.41
-9.4450884 -2.1094966 -2.0570784 347.41
-10.617021 -2.3712397 -2.0496337 347.41
-12.186669 -2.6838729 -2.0501761 347.57999
-14.156308 -3.1176472 -2.0372159 347.57999
-15.907791 -3.5033765 -1.9048715 347.57999
-19.640022 -4.3253269 -1.8762313 347.57999
-23.242901 -5.1187892 -1.6642499 347.57999
-4.5286345 -0.99734223 -2.0645952 347.57999
-22.987556 -5.0625544 -1.0976919 347.57999
-4.817523 -1.0609642 -2.0604711 347.57999
-22.998528 -5.064971 -0.54675347 347.57999
-5.1489091 -1.1339453 -2.0587628 347.57999
-5.5043721 -1.2122291 -2.0514369 347.57999
-22.395153 -4.9320898 0.53240919 347.57999
-5.9342761 -1.3069071 -2.0532303 347.57999
-22.76123 -5.012711 1.0868845 347.57999
-6.4121161 -1.4121417 -2.0487826 347.57999
-23.059748 -5.0784535 1.6511357 347.57999
-6.9844155 -1.5381794 -2.0507419 347.57999
-7.6601195 -1.6869899 -2.0533628 347.57999
-8.4936571 -1.8705599 -2.0607386 347.57999
-9.4417534 -2.0793593 -2.0549991 347.57999
-10.616332 -2.3380373 -2.0481524 347.57999
-12.190722 -2.6468651 -2.0495276 347.75
-14.165497 -3.0756307 -2.0372159 347.75
-15.916175 -3.4557402 -1.9046391 347.75
-19.639149 -4.2640772 -1.8749309 347.75
-23.232639 -5.0443006 -1.6624362 347.75
-4.5262175 -0.98273814 -2.0621548 347.75
-23.053236 -5.0053482 -1.1001142 347.75
-4.813436 -1.0450994 -2.0573876 347.75
-23.132645 -5.0225892 -0.54958516 347.75
-5.1467891 -1.1174774 -2.0565803 347.75
-5.5097814 -1.1962907 -2.0521209 347.75
-22.497616 -4.8847113 0.53449816 347.75
-5.9325728 -1.2880878 -2.0513096 347.75
-28.057085 -6.0917902 1.3389008 347.75
-6.4125462 -1.3923002 -2.047591 347.75
-23.055218 -5.0057783 1.6497406 347.75
-6.9851913 -1.5166336 -2.0496395 347.75
-31.517603 -6.843142 3.0089555 347.75
-7.6594191 -1.6630229 -2.0518432 347.75
-8.4972677 -1.8449377 -2.0602775 347.75
-9.4478807 -2.0513361 -2.0549991 347.75
-10.627064 -2.3073616 -2.048893 347.75
-12.192277 -2.611572 -2.0485549 347.91
-14.170156 -3.0352316 -2.0366592 347.91
-15.927705 -3.4116964 -1.9048715 347.91
-19.654873 -4.210052 -1.8753024 347.91
-26.256838 -5.6241851 -1.8777047 347.91
-4.5307307 -0.9704774 -2.0629683 347.91
-23.010471 -4.9288173 -1.0974123 347.91
-4.8109221 -1.0304941 -2.0550752 347.91
-23.035139 -4.9341006 -0.54693913 347.91
-5.153533 -1.103881 -2.0580354 347.91
-90.508957 -19.386917 0 347.91
-5.5094252 -1.1801126 -2.0507529 347.91
-22.200306 -4.7552805 0.52711713 347.91
-5.9324412 -1.2707223 -2.0500293 347.91
-28.406084 -6.0845513 1.3547392 347.91
-6.4033413 -1.3715885 -2.0434208 347.91
-23.305162 -4.9919395 1.6666217 347.91
-6.9837594 -1.4959135 -2.0479856 347.91
-7.6640329 -1.6416273 -2.0518432 347.91
-8.4985809 -1.8203864 -2.0593553 347.91
-9.4554853 -2.0253544 -2.0554149 347.91
-10.625778 -2.2760296 -2.0474119 347.91
-12.208594 -2.5727544 -2.0498519 348.10001
-14.16464 -2.9849579 -2.0344324 348.10001
-15.942819 -3.3596787 -1.905336 348.10001
-19.674572 -4.1460824 -1.8758597 348.10001
-25.88294 -5.454391 -1.8496627 348.10001
-4.5339241 -0.95544761 -2.0629683 348.10001
-22.969997 -4.8405375 -1.0947106 348.10001
-4.8197303 -1.0156765 -2.0573876 348.10001
-23.383978 -4.9277768 -0.55483085 348.10001
-5.1516962 -1.0856327 -2.0558529 348.10001
-5.5114689 -1.1614487 -2.0500689 348.10001
-29.229971 -6.1597214 0.69353855 348.10001
-5.9403305 -1.251824 -2.0513096 348.10001
-28.365503 -5.9775491 1.351851 348.10001
-6.4190631 -1.3527088 -2.0469952 348.10001
-23.327444 -4.9158635 1.6670402 348.10001
-6.9943256 -1.4739356 -2.0496395 348.10001
-22.081039 -4.6532049 2.1053028 348.10001
-7.6637549 -1.6150066 -2.0503237 348.10001
-8.5026665 -1.7917929 -2.0588942 348.10001
-9.4602356 -1.9935843 -2.0549991 348.10001
-10.63519 -2.2411861 -2.0477822 348.10001
-12.218106 -2.5369208 -2.0501761 348.26999
-14.167617 -2.9417095 -2.0335975 348.26999
-15.958551 -3.3135724 -1.9060329 348.26999
-19.671188 -4.0844502 -1.8743734 348.26999
-25.914639 -5.380816 -1.8507788 348.26999
-4.5403166 -0.94273388 -2.0645952 348.26999
-23.127054 -4.8020129 -1.1015117 348.26999
-4.8281436 -1.0024972 -2.0597003 348.26999
-5.1512465 -1.0695851 -2.0543981 348.26999
-5.5185714 -1.1458549 -2.0514369 348.26999
-27.957991 -5.80509 0.6629467 348.26999
-5.9440188 -1.2341932 -2.0513096 348.26999
-22.74757 -4.723218 1.0834373 348.26999
-6.404355 -1.3297757 -2.0410378 348.26999
-27.668848 -5.7450533 1.9760613 348.26999
-7.0024328 -1.4539582 -2.0507419 348.26999
-22.047955 -4.5779524 2.1008439 348.26999
-7.6647243 -1.5914739 -2.0493107 348.26999
-8.5136614 -1.7677439 -2.0602775 348.26999
-9.4584475 -1.9639156 -2.0533359 348.26999
-10.645642 -2.2104201 -2.0485227 348.26999
-12.217846 -2.4990759 -2.0488791 348.44
-14.178224 -2.9000573 -2.0338757 348.44
-15.972205 -3.267004 -1.9064976 348.44
-19.677368 -4.0248694 -1.8738161 348.44
-4.5323539 -0.92706156 -2.0597143 348.44
-23.035507 -4.7117534 -1.0964807 348.44
-4.8274808 -0.98742777 -2.0581586 348.44
-23.009274 -4.7063875 -0.545268 348.44
-5.1580477 -1.055043 -2.0558529 348.44
-56.221947 -11.49981 0 348.44
-5.5127401 -1.1275929 -2.0480165 348.44
-30.829214 -6.305902 0.73058295 348.44
-5.9513674 -1.2173109 -2.0525901 348.44
-28.416134 -5.8123236 1.3525964 348.44
-6.4213657 -1.3134459 -2.045208 348.44
-23.997334 -4.9084883 1.7128005 348.44
-7.0029488 -1.4324046 -2.0496395 348.44
-7.6694126 -1.5687252 -2.0493107 348.44
-8.5055227 -1.7397457 -2.0570498 348.44
-9.4623156 -1.9354513 -2.0529201 348.44
-10.648302 -2.1780365 -2.0477822 348.44
-12.229506 -2.4614589 -2.0495276 348.62
-14.196972 -2.857455 -2.0352674 348.62
-15.988233 -3.2179856 -1.9071945 348.62
-19.697725 -3.9646032 -1.8745593 348.62
-28.272594 -5.6904855 -2.0166597 348.62
-4.5424085 -0.91426027 -2.0629683 348.62
-23.244091 -4.6783881 -1.1057042 348.62
-4.8287497 -0.97189277 -2.0573876 348.62
-5.1649895 -1.0395685 -2.057308 348.62
-56.198978 -11.311288 0 348.62
-5.5180979 -1.1106393 -2.0487006 348.62
-30.878275 -6.2149363 0.73127931 348.62
-5.9495897 -1.1974866 -2.0506694 348.62
-22.613438 -4.551455 1.0757045 348.62
-6.417974 -1.2917593 -2.042825 348.62
-30.545355 -6.1479287 2.1787736 348.62
-7.00176 -1.4092592 -2.0479856 348.62
-21.970089 -4.4219666 2.0908117 348.62
-7.6799936 -1.5457687 -2.0508301 348.62
-56.11071 -11.293523 6.6933002 348.62
-8.5166702 -1.7141683 -2.0584331 348.62
-9.4702673 -1.906101 -2.0533359 348.62
-10.658946 -2.1453488 -2.0485227 348.62
-12.232461 -2.4265301 -2.0488791 348.78
-14.206839 -2.8181837 -2.0355458 348.78
-15.995208 -3.1729391 -1.9069622 348.78
-19.706766 -3.9091938 -1.8743734 348.78
-28.621063 -5.6775064 -2.0403769 348.78
-4.5431519 -0.90121639 -2.0621548 348.78
-29.721933 -5.895884 -1.4130616 348.78
-4.8278246 -0.95768642 -2.055846 348.78
-5.160563 -1.0236911 -2.0543981 348.78
-56.302929 -11.168706 0 348.78
-5.5303955 -1.097054 -2.0521209 348.78
-5.9547691 -1.1812363 -2.0513096 348.78
-26.843216 -5.3248382 1.2761996 348.78
-6.4253016 -1.2745749 -2.0440166 348.78
-28.280546 -5.6099586 2.0161016 348.78
-7.0094395 -1.3904493 -2.049088 348.78
-7.6823821 -1.5239396 -2.0503237 348.78
-8.5137873 -1.688864 -2.0565886 348.78
-9.4736347 -1.879267 -2.0529201 348.78
-10.655256 -2.113663 -2.0466712 348.78
-12.241543 -2.3906033 -2.0492034 348.95001
-14.217082 -2.7763984 -2.0358241 348.95001
-16.010401 -3.1266086 -1.9076591 348.95001
-19.743685 -3.8556674 -1.8767886 348.95001
-28.700443 -5.6047978 -2.0448413 348.95001
-4.5440125 -0.88738245 -2.0613413 348.95001
-4.8378897 -0.94477266 -2.0589294 348.95001
-5.1617489 -1.0080179 -2.0536704 348.95001
-56.433968 -11.020769 0 348.95001
-5.5280924 -1.0795596 -2.0500689 348.95001
-26.978962 -5.2686162 0.63820398 348.95001
-5.9601073 -1.1639261 -2.05195 348.95001
-28.105959 -5.4887033 1.3354536 348.95001
-6.4271812 -1.2551391 -2.0434208 348.95001
-28.900173 -5.6438022 2.0590715 348.95001
-7.0116477 -1.3692772 -2.0485368 348.95001
-7.6830721 -1.5003972 -2.0493107 348.95001
-8.5264015 -1.6650877 -2.0584331 348.95001
-9.4772491 -1.8507749 -2.0525043 348.95001
-10.661481 -2.0820389 -2.0466712 348.95001
-12.250932 -2.3525057 -2.0495276 349.13
-14.239349 -2.7343349 -2.0377727 349.13
-16.016243 -3.075546 -1.9071945 349.13
-19.745922 -3.791744 -1.8758597 349.13
-28.710073 -5.5131001 -2.0442832 349.13
-4.5485721 -0.87344724 -2.0621548 349.13
-4.8372092 -0.9288733 -2.0573876 349.13
-5.1703792 -0.99285078 -2.0558529 349.13
-5.5277653 -1.0614785 -2.0487006 349.13
-29.053219 -5.5789933 0.68685383 349.13
-5.9600129 -1.1444815 -2.0506694 349.13
-6.4198427 -1.2327812 -2.0398462 349.13
-7.0140266 -1.3468803 -2.0479856 349.13
-7.6858478 -1.4758879 -2.0488043 349.13
-8.5201235 -1.636091 -2.0556664 349.13
-9.477253 -1.8198855 -2.0512567 349.13
-10.662178 -2.0474229 -2.0455604 349.13
-12.251636 -2.3171854 -2.0485549 349.29001
-14.243037 -2.6938245 -2.0372159 349.29001
-16.028673 -3.0315466 -1.9076591 349.29001
-19.764261 -3.7380686 -1.8766029 349.29001
-28.705753 -5.4291973 -2.0428882 349.29001
-4.5581746 -0.86210001 -2.0654087 349.29001
-4.8415976 -0.91570461 -2.0581586 349.29001
-5.1676397 -0.97736984 -2.0536704 349.29001
-5.5270147 -1.0453393 -2.0473325 349.29001
-27.357491 -5.1741972 0.6464206 349.29001
-5.9650474 -1.1281857 -2.0513096 349.29001
-26.895437 -5.0868077 1.276479 349.29001
-6.4288883 -1.2159132 -2.0416336 349.29001
-28.925314 -5.4707236 2.0585136 349.29001
-7.0158715 -1.3269309 -2.0474343 349.29001
-7.6899395 -1.4544193 -2.0488043 349.29001
-8.5265713 -1.6126536 -2.0561275 349.29001
-9.4803753 -1.7930493 -2.0508409 349.29001
-10.667854 -2.0176404 -2.0455604 349.29001
-12.254577 -2.2801018 -2.0479064 349.45999
-14.254861 -2.6522772 -2.0377727 349.45999
-16.037596 -2.9839752 -1.9076591 349.45999
-19.790928 -3.6823246 -1.8780892 349.45999
-28.719774 -5.343637 -2.0427487 349.45999
-4.5589161 -0.84823763 -2.0645952 349.45999
-29.58358 -5.5043578 -1.4032792 349.45999
-4.8479218 -0.90201044 -2.0597003 349.45999
-5.1723485 -0.96237367 -2.0543981 349.45999
-28.378956 -5.2802243 0 349.45999
-5.5393305 -1.0306547 -2.0507529 349.45999
-29.800394 -5.5446987 0.70375127 349.45999
-5.96278 -1.1094424 -2.0493889 349.45999
-6.4362216 -1.1975315 -2.042825 349.45999
-7.0216675 -1.3064603 -2.0479856 349.45999
-7.6942205 -1.4315964 -2.0488043 349.45999
-8.5294046 -1.5869918 -2.0556664 349.45999
-9.489501 -1.7656283 -2.0516725 349.45999
-10.67959 -1.9870579 -2.0466712 349.45999
-12.26207 -2.2394516 -2.0479064 349.64999
-14.265527 -2.6053479 -2.0380509 349.64999
-16.047403 -2.9307764 -1.9076591 349.64999
-19.804989 -3.617033 -1.8782749 349.64999
-28.745186 -5.2498031 -2.0433066 349.64999
-4.5599065 -0.8327868 -2.0637817 349.64999
-29.544676 -5.3958158 -1.4005773 349.64999
-4.8418093 -0.88427138 -2.055846 349.64999
-5.1736789 -0.9448815 -2.0536704 349.64999
-5.5371714 -1.0112671 -2.0487006 349.64999
-30.796179 -5.6243811 0.72682279 349.64999
-5.9682903 -1.0900034 -2.0500293 349.64999
-6.4401574 -1.1761816 -2.042825 349.64999
-27.950308 -5.1046324 1.9868039 349.64999
-7.0259614 -1.2831684 -2.0479856 349.64999
-7.698926 -1.4060736 -2.0488043 349.64999
-8.5346203 -1.5586985 -2.0556664 349.64999
-9.4914541 -1.7334474 -2.0508409 349.64999
-10.678388 -1.9502199 -2.0451901 349.64999
-12.268661 -2.2030594 -2.0479064 349.82001
-14.275144 -2.5633597 -2.0383291 349.82001
-16.073626 -2.8863096 -1.9097497 349.82001
-19.825434 -3.5600145 -1.8792038 349.82001
-28.772419 -5.1666074 -2.0441437 349.82001
-4.5569625 -0.81828487 -2.0613413 349.82001
-29.538925 -5.3042474 -1.3995525 349.82001
-4.8444118 -0.8699016 -2.055846 349.82001
-5.1764598 -0.92952681 -2.0536704 349.82001
-27.124165 -4.8706336 0 349.82001
-5.5382977 -0.99450129 -2.0480165 349.82001
-5.9677682 -1.0716206 -2.0487487 349.82001
-26.487108 -4.7562385 1.2549576 349.82001
-6.4361024 -1.1557183 -2.040442 349.82001
-27.979076 -5.024148 1.9877805 349.82001
-7.0240607 -1.261297 -2.0463316 349.82001
-7.703064 -1.3832241 -2.0488043 349.82001
-8.5430393 -1.5340569 -2.0565886 349.82001
-9.4965563 -1.705278 -2.0508409 349.82001
-10.682192 -1.9181805 -2.0448198 349.82001
-12.277086 -2.166991 -2.0482306 349.98999
-14.296339 -2.5234032 -2.0402777 349.98999
-16.099724 -2.8417132 -1.9118404 349.98999
-19.835909 -3.5011756 -1.8792038 349.98999
-28.775833 -5.0791345 -2.0433066 349.98999
-4.5647678 -0.80571324 -2.0637817 349.98999
-29.560436 -5.2176223 -1.399832 349.98999
-4.8487887 -0.85584491 -2.0566168 349.98999
-5.1828642 -0.91481149 -2.0551255 349.98999
-5.5375223 -0.97741115 -2.0466485 349.98999
-28.75366 -5.0752211 0.67789447 349.98999
-5.9709215 -1.0539092 -2.0487487 349.98999
-6.4432631 -1.1372807 -2.0416336 349.98999
-28.367163 -5.0070014 2.0142879 349.98999
-7.0258789 -1.2401165 -2.0457804 349.98999
-27.366299 -4.8303418 2.5926139 349.98999
-7.7052288 -1.3600264 -2.0482976 349.98999
-8.5418034 -1.5076877 -2.0552053 349.98999
-9.4996471 -1.6767538 -2.0504251 349.98999
-10.683966 -1.8857942 -2.0440791 349.98999
-12.283463 -2.1305547 -2.0482306 350.16
-14.303763 -2.480974 -2.0402777 350.16
-16.108086 -2.793932 -1.9118404 350.16
-19.852095 -3.443327 -1.8797612 350.16
-28.796673 -4.9947553 -2.0437253 350.16
-4.5599375 -0.7909168 -2.0605278 350.16
-29.611219 -5.1360373 -1.4015089 350.16
-4.8440332 -0.84019297 -2.0535336 350.16
-5.1910625 -0.90038478 -2.057308 350.16
-27.414677 -4.7550492 0 350.16
-5.5366945 -0.96033436 -2.0452805 350.16
-28.741013 -4.9851012 0.67724454 350.16
-5.9702883 -1.0355408 -2.0474682 350.16
-29.47146 -5.1117964 1.3948941 350.16
-6.4503713 -1.1188108 -2.042825 350.16
-28.525396 -4.9477024 2.0244725 350.16
-7.0295277 -1.2192649 -2.0457804 350.16
-7.7092299 -1.3371586 -2.0482976 350.16
-8.544322 -1.4820044 -2.0547442 350.16
-9.5026531 -1.648226 -2.0500093 350.16
-10.69145 -1.8544219 -2.0444493 350.16
-12.287785 -2.0937681 -2.0479064 350.32999
-14.311061 -2.4385231 -2.0402777 350.32999
-16.147636 -2.7514648 -1.9155573 350.32999
-19.881855 -3.3877544 -1.881619 350.32999
-28.831034 -4.9126434 -2.0451202 350.32999
-4.5640655 -0.77769065 -2.0613413 350.32999
-29.681473 -5.0575533 -1.4041177 350.32999
-4.8519626 -0.8267467 -2.055846 350.32999
-5.1826916 -0.88310105 -2.052943 350.32999
-27.503584 -4.6864533 0 350.32999
-5.5339613 -0.94295537 -2.0432284 350.32999
-28.852259 -4.9162598 0.67951924 350.32999
-5.9770703 -1.0184586 -2.0487487 350.32999
-6.4498987 -1.0990258 -2.0416336 350.32999
-28.683525 -4.8875089 2.0346568 350.32999
-7.0350094 -1.1987253 -2.0463316 350.32999
-30.207542 -5.1471925 2.8588421 350.32999
-7.711256 -1.313954 -2.0477912 350.32999
-8.5486813 -1.4566464 -2.0547442 350.32999
-9.5017157 -1.6190381 -2.0487618 350.32999
-10.694968 -1.8223614 -2.0440791 350.32999
-12.29005 -2.056649 -2.0472579 350.5
-14.318233 -2.3960505 -2.0402777 350.5
-16.196873 -2.7104268 -1.9204357 350.5
-19.889854 -3.3284202 -1.8814332 350.5
-28.833677 -4.8251028 -2.0442832 350.5
-4.5609465 -0.76324069 -2.0589008 350.5
-29.761372 -4.9803457 -1.4071921 350.5
-4.8543944 -0.81234705 -2.055846 350.5
-5.1834517 -0.86741233 -2.0522156 350.5
-5.5348811 -0.92622149 -2.0425444 350.5
-28.874607 -4.8319521 0.6797049 350.5
-5.9781971 -1.0004071 -2.0481086 350.5
-29.739697 -4.9767184 1.4061673 350.5
-6.4455991 -1.0786233 -2.0392506 350.5
-7.0366392 -1.1775296 -2.0457804 350.5
-27.991529 -4.6841755 2.6477916 350.5
-7.7132125 -1.2907491 -2.0472846 350.5
-8.5491266 -1.4306332 -2.0538218 350.5
-9.5103369 -1.5914845 -2.0495934 350.5
-10.698389 -1.7902964 -2.0437088 350.5
-12.298397 -2.0183482 -2.0475821 350.67999
-14.315918 -2.349453 -2.0388858 350.67999
-16.266075 -2.6695025 -1.927637 350.67999
-19.902178 -3.2662406 -1.881619 350.67999
-28.83885 -4.7328796 -2.0435855 350.67999
-4.565125 -0.74920422 -2.0597143 350.67999
-4.8587437 -0.79739141 -2.0566168 350.67999
-5.1824741 -0.85052037 -2.0507605 350.67999
-5.5377636 -0.90882862 -2.0425444 350.67999
-28.822559 -4.7302065 0.67812657 350.67999
-5.977571 -0.98100746 -2.046828 350.67999
-29.057289 -4.7687292 1.3731862 350.67999
-6.4470716 -1.0580595 -2.0386548 350.67999
-26.90156 -4.4149418 1.906305 350.67999
-7.042201 -1.1557288 -2.0463316 350.67999
-7.7115016 -1.265571 -2.0457652 350.67999
-8.5535793 -1.4037683 -2.0538218 350.67999
-9.5056372 -1.5600151 -2.0475144 350.67999
-10.70784 -1.7573142 -2.0444493 350.67999
-12.304678 -1.9797016 -2.0475821 350.85999
-14.323229 -2.3044667 -2.0388858 350.85999
-16.331257 -2.6275387 -1.9343737 350.85999
-19.920206 -3.2049654 -1.8823621 350.85999
-28.827969 -4.6381369 -2.0417719 350.85999
-4.5728679 -0.73572946 -2.0621548 350.85999
-4.8466482 -0.77977806 -2.0504501 350.85999
-5.1979961 -0.83630651 -2.0558529 350.85999
-5.5405917 -0.89142674 -2.0425444 350.85999
-28.7899 -4.6320119 0.67701244 350.85999
-5.9862356 -0.96312648 -2.0487487 350.85999
-6.4465938 -1.0371937 -2.0374632 350.85999
-29.801048 -4.7946959 2.1106913 350.85999
-7.0457969 -1.1335995 -2.0463316 350.85999
-7.71735 -1.2416457 -2.0462718 350.85999
-8.5521822 -1.3759621 -2.0524385 350.85999
-9.5104914 -1.5301446 -2.0475144 350.85999
-10.71913 -1.7246026 -2.0455604 350.85999
-12.306259 -1.9447168 -2.0469337 351.01999
-14.331564 -2.2647688 -2.0391643 351.01999
-16.411129 -2.5933955 -1.9429688 351.01999
-19.934978 -3.1502578 -1.8829195 351.01999
-28.815189 -4.5535674 -2.0399582 351.01999
-4.5749044 -0.72295678 -2.0621548 351.01999
-4.8506298 -0.76652873 -2.0512209 351.01999
-5.196631 -0.82120609 -2.0543981 351.01999
-5.5449157 -0.87624437 -2.0432284 351.01999
-28.814573 -4.5534701 0.67729098 351.01999
-5.9814157 -0.94522297 -2.0461879 351.01999
-29.150196 -4.6065073 1.3762608 351.01999
-6.4494653 -1.0191873 -2.0374632 351.01999
-7.0470362 -1.1136194 -2.0457804 351.01999
-7.7150536 -1.219184 -2.0447521 351.01999
-8.5521469 -1.351467 -2.0515163 351.01999
-9.5166597 -1.5038857 -2.0479302 351.01999
-10.721962 -1.6943556 -2.0451901 351.01999
-12.314259 -1.9063479 -2.0472579 351.20001
-14.344481 -2.2206428 -2.0399992 351.20001
-16.497719 -2.5539818 -1.952261 351.20001
-19.956585 -3.0894425 -1.8840343 351.20001
-28.85104 -4.4663773 -2.0414929 351.20001
-4.569931 -0.70746267 -2.0589008 351.20001
-30.169449 -4.6704774 -1.4236827 351.20001
-4.8475428 -0.75043929 -2.0489085 351.20001
-5.1955032 -0.80430639 -2.052943 351.20001
-5.545784 -0.85853273 -2.0425444 351.20001
-30.124941 -4.6635876 0.70774353 351.20001
-5.9899731 -0.92729682 -2.0481086 351.20001
-6.4582953 -0.99979693 -2.0392506 351.20001
-29.140871 -4.5112453 2.0620015 351.20001
-7.0467 -1.0908868 -2.044678 351.20001
-7.7245817 -1.1958284 -2.0462718 351.20001
-8.5582743 -1.3248909 -2.0519774 351.20001
-9.5194044 -1.4736816 -2.0475144 351.20001
-10.717521 -1.6591599 -2.0433385 351.20001
-12.317909 -1.8695062 -2.0469337 351.37
-14.34709 -2.1774778 -2.0394425 351.37
-16.564142 -2.5139632 -1.9592299 351.37
-19.963696 -3.029918 -1.8838484 351.37
-28.840494 -4.3771625 -2.0398188 351.37
-4.5774288 -0.69472277 -2.0613413 351.37
-30.23848 -4.5893364 -1.4262913 351.37
-4.8515725 -0.73632997 -2.0496793 351.37
-5.1960249 -0.78860795 -2.0522156 351.37
-5.5427322 -0.84122825 -2.0404921 351.37
-27.20504 -4.1289473 0.63885391 351.37
-5.9870782 -0.90866721 -2.0461879 351.37
-28.296848 -4.294652 1.3347083 351.37
-6.4555707 -0.97977096 -2.0374632 351.37
-7.0518064 -1.0702626 -2.0452292 351.37
-7.7223573 -1.172033 -2.0447521 351.37
-8.5640917 -1.2997841 -2.0524385 351.37
-9.5179319 -1.4445499 -2.0462668 351.37
-10.720453 -1.6270581 -2.0429683 351.37
-12.329577 -1.8316693 -2.0479064 351.54999
-14.357778 -2.1329765 -2.0399992 351.54999
-16.646626 -2.4730053 -1.9680574 351.54999
-19.975084 -2.9674778 -1.8840343 351.54999
-28.838316 -4.2841902 -2.0387027 351.54999
-4.5795889 -0.68033898 -2.0613413 351.54999
-30.323889 -4.5048852 -1.4296454 351.54999
-4.857513 -0.72162706 -2.0512209 351.54999
-5.2076902 -0.7736491 -2.0558529 351.54999
-5.5472069 -0.82408726 -2.0411763 351.54999
-30.081669 -4.4689016 0.70607239 351.54999
-5.9917774 -0.89013219 -2.046828 351.54999
-27.790476 -4.1285243 1.3102055 351.54999
-6.4775019 -0.96229094 -2.0434208 351.54999
-7.0570359 -1.0483859 -2.0457804 351.54999
-7.7240877 -1.1474824 -2.0442457 351.54999
-8.5642824 -1.272301 -2.0515163 351.54999
-9.5204878 -1.4143538 -2.045851 351.54999
-10.725512 -1.5933709 -2.0429683 351.54999
-12.325193 -1.7936577 -2.0462852 351.72
-14.362083 -2.0900817 -2.039721 351.72
-16.736452 -2.4356179 -1.9778141 351.72
-19.993654 -2.9096315 -1.8849632 351.72
-28.815363 -4.1934347 -2.0361915 351.72
-4.572547 -0.66543251 -2.0572739 351.72
-30.44981 -4.4312925 -1.4349558 351.72
-4.8541536 -0.70641404 -2.0489085 351.72
-30.751698 -4.475225 -0.72148436 351.72
-5.1952143 -0.75604784 -2.0500331 351.72
-5.5496273 -0.80762482 -2.0411763 351.72
-30.096775 -4.3799157 0.70611876 351.72
-5.9943919 -0.87235034 -2.046828 351.72
-27.881683 -4.0575585 1.3139322 351.72
-6.4652138 -0.94086802 -2.0386548 351.72
-7.0582128 -1.0271658 -2.0452292 351.72
-7.7255435 -1.1242809 -2.0437391 351.72
-8.5622425 -1.2460438 -2.050133 351.72
-9.5188351 -1.3852546 -2.0446036 351.72
-10.726302 -1.5609746 -2.0422275 351.72
-12.332108 -1.759511 -2.0466094 351.88
-14.369824 -2.0502467 -2.0399992 351.88
-16.810051 -2.3984113 -1.9857123 351.88
-20.013531 -2.8554749 -1.8860779 351.88
-28.815109 -4.1112599 -2.0353544 351.88
-4.5816226 -0.6536932 -2.0605278 351.88
-4.8579345 -0.69311666 -2.0496793 351.88
-5.1991496 -0.74180025 -2.0507605 351.88
-97.427345 -13.900663 0 351.88
-5.5518613 -0.79212415 -2.0411763 351.88
-5.9986806 -0.85587513 -2.0474682 351.88
-6.4583659 -0.9214617 -2.035676 351.88
-29.668364 -4.2329998 2.095624 351.88
-7.0610538 -1.0074515 -2.0452292 351.88
-7.7305684 -1.1029761 -2.0442457 351.88
-8.5579824 -1.2210292 -2.0482886 351.88
-9.5284767 -1.3594966 -2.045851 351.88
-10.730619 -1.531015 -2.0422275 351.88
-12.337575 -1.7207599 -2.0466094 352.06
-14.372272 -2.0045455 -2.0394425 352.06
-16.886362 -2.3551934 -1.9938428 352.06
-20.024374 -2.7928617 -1.8862636 352.06
-28.831835 -4.021266 -2.0356333 352.06
-4.5836535 -0.63929641 -2.0605278 352.06
-4.8710546 -0.67938119 -2.0543044 352.06
-5.1996093 -0.72520566 -2.0500331 352.06
-97.405167 -13.585402 0 352.06
-5.5543222 -0.77467859 -2.0411763 352.06
-30.221251 -4.2150517 0.70843989 352.06
-5.9975867 -0.83650202 -2.0461879 352.06
-6.476356 -0.90327752 -2.040442 352.06
-28.883211 -4.0284314 2.0392609 352.06
-7.0641837 -0.98526371 -2.0452292 352.06
-7.732079 -1.0784171 -2.0437391 352.06
-8.5694857 -1.1952128 -2.050133 352.06
-9.5268879 -1.3287446 -2.0446036 352.06
-10.73343 -1.4970249 -2.0418572 352.06
-12.340671 -1.6838793 -2.0462852 352.23001
-14.372269 -1.96109 -2.0386076 352.23001
-16.968067 -2.3152857 -2.0026703 352.23001
-20.028627 -2.7328975 -1.885892 352.23001
-22.812391 -3.1127412 -1.6099794 352.23001
-4.5800996 -0.62495261 -2.0580873 352.23001
-4.8639064 -0.66367799 -2.0504501 352.23001
-5.2035842 -0.71002686 -2.0507605 352.23001
-89.330238 -12.189073 0 352.23001
-5.5528722 -0.75768703 -2.039808 352.23001
-30.364376 -4.1432061 0.71150368 352.23001
-5.99441 -0.81793469 -2.0442672 352.23001
-28.536274 -3.8937626 1.3430934 352.23001
-6.4884658 -0.88534844 -2.0434208 352.23001
-7.0594563 -0.96325988 -2.0430241 352.23001
-7.7275767 -1.0544245 -2.0417132 352.23001
-8.5710659 -1.1695184 -2.0496719 352.23001
-9.5269117 -1.2999431 -2.043772 352.23001
-10.737824 -1.4651716 -2.0418572 352.23001
-12.341988 -1.6445804 -2.0456367 352.41
-14.384249 -1.9167134 -2.0394425 352.41
-17.052052 -2.2722003 -2.0117302 352.41
-20.039087 -2.6702254 -1.8860779 352.41
-22.936762 -3.0563431 -1.6180712 352.41
-4.5947175 -0.61225003 -2.0637817 352.41
-4.8806019 -0.65034437 -2.0566168 352.41
-5.2076359 -0.69392186 -2.0514879 352.41
-89.35025 -11.905996 0 352.41
-5.5589509 -0.74073493 -2.0411763 352.41
-30.093824 -4.0100279 0.7048654 352.41
-5.9988279 -0.79934895 -2.0449073 352.41
-28.51272 -3.7993443 1.3414164 352.41
-6.485538 -0.86420345 -2.0416336 352.41
-7.0662594 -0.94158506 -2.0441267 352.41
-7.7366047 -1.0309092 -2.0432327 352.41
-8.5727692 -1.1423287 -2.0492108 352.41
-9.5290089 -1.2697486 -2.0433562 352.41
-10.73653 -1.4306518 -2.0407465 352.41
-12.352684 -1.6087183 -2.0466094 352.57999
-14.385944 -1.8735145 -2.0388858 352.57999
-17.141451 -2.2323704 -2.0214868 352.57999
-20.056795 -2.6120424 -1.8870068 352.57999
-22.199863 -2.8911393 -1.5654747 352.57999
-4.5874553 -0.59743482 -2.0597143 352.57999
-22.237839 -2.8960848 -1.0457979 352.57999
-4.8642097 -0.63347721 -2.0489085 352.57999
-22.240149 -2.8963854 -0.52071095 352.57999
-5.2096715 -0.67846751 -2.0514879 352.57999
-22.246141 -2.897166 0 352.57999
-5.5629878 -0.72448069 -2.0418603 352.57999
-22.230234 -2.8950944 0.52047884 352.57999
-6.0068102 -0.78228068 -2.046828 352.57999
-22.231895 -2.8953109 1.0455184 352.57999
-6.493753 -0.84569639 -2.0434208 352.57999
-22.239433 -2.8962922 1.5682651 352.57999
-7.0633025 -0.91987008 -2.0424728 352.57999
-22.256586 -2.8985262 2.0939701 352.57999
-7.7338734 -1.0072001 -2.0417132 352.57999
-22.239368 -2.8962839 2.6226828 352.57999
-8.5645418 -1.1153799 -2.0464439 352.57999
-22.235857 -2.8958268 3.1514356 352.57999
-9.5288553 -1.2409647 -2.0425243 352.57999
-22.247355 -2.8973241 3.685972 352.57999
-10.730983 -1.3975204 -2.0388949 352.57999
-22.233753 -2.8955529 4.2244301 352.57999
-12.355445 -1.5718111 -2.0462852 352.75
-14.389475 -1.8305724 -2.0386076 352.75
-17.218939 -2.1905258 -2.0298495 352.75
-20.054581 -2.5512648 -1.8860779 352.75
-22.204386 -2.8247547 -1.5651958 352.75
-4.5964575 -0.58474326 -2.0629683 352.75
-22.190842 -2.8230317 -1.0431893 352.75
-4.8678985 -0.61927491 -2.0496793 352.75
-22.208975 -2.8253384 -0.51978254 352.75
-5.2153578 -0.66347736 -2.052943 352.75
-22.222895 -2.8271093 0 352.75
-5.5669775 -0.70820898 -2.0425444 352.75
-22.216908 -2.8263476 0.51996821 352.75
-6.0015864 -0.76349819 -2.0442672 352.75
-22.196789 -2.8237882 1.0434687 352.75
-6.48487 -0.82497966 -2.0398462 352.75
-22.210323 -2.82551 1.5656143 352.75
-7.0698152 -0.89939409 -2.0435753 352.75
-22.261137 -2.8319743 2.0935984 352.75
-7.7329893 -0.98376048 -2.0407002 352.75
-22.212393 -2.8257732 2.6185014 352.75
-8.5697441 -1.0902091 -2.046905 352.75
-22.22274 -2.8270895 3.1483738 352.75
-9.528614 -1.2121928 -2.0416927 352.75
-22.224529 -2.8273172 3.6807842 352.75
-10.737032 -1.3659229 -2.0392652 352.75
-22.246147 -2.8300674 4.2251706 352.75
-12.358095 -1.5349016 -2.0459609 352.92001
-14.386981 -1.7868935 -2.0374942 352.92001
-17.296331 -2.1482408 -2.0382125 352.92001
-20.083799 -2.4944503 -1.8881215 352.92001
-22.224548 -2.7603362 -1.5660329 352.92001
-4.5891066 -0.56997675 -2.0589008 352.92001
-22.246702 -2.7630877 -1.0454253 352.92001
-4.8770404 -0.60573876 -2.0527627 352.92001
-22.221228 -2.7599235 -0.51987535 352.92001
-5.224699 -0.64891863 -2.0558529 352.92001
-22.243093 -2.7626393 0 352.92001
-5.5690541 -0.6916883 -2.0425444 352.92001
-22.24107 -2.762388 0.52033961 352.92001
-6.0057054 -0.74592137 -2.0449073 352.92001
-22.27446 -2.766535 1.0467296 352.92001
-6.4759212 -0.80432314 -2.0362718 352.92001
-22.272068 -2.766238 1.5693811 352.92001
-7.0705447 -0.87817663 -2.0430241 352.92001
-22.29118 -2.7686117 2.0956421 352.92001
-7.7358742 -0.96081197 -2.0407002 352.92001
-22.285732 -2.7679353 2.6261673 352.92001
-8.5729408 -1.0647774 -2.046905 352.92001
-22.278202 -2.7669997 3.1550541 352.92001
-9.5302267 -1.1836743 -2.0412769 352.92001
-10.739087 -1.3338174 -2.0388949 352.92001
-12.366513 -1.4987026 -2.0466094 353.09
-14.39222 -1.7441987 -2.0374942 353.09
-17.310516 -2.0978682 -2.0391417 353.09
-20.100996 -2.4360476 -1.8890504 353.09
-22.902096 -2.7755139 -1.6131883 353.09
-4.5925913 -0.55657792 -2.0597143 353.09
-31.32848 -3.7967107 -1.4716636 353.09
-4.8678236 -0.58993345 -2.0481377 353.09
-5.2192035 -0.63251728 -2.052943 353.09
-5.5654845 -0.67448324 -2.0404921 353.09
-30.059898 -3.6429708 0.70300853 353.09
-6.0041304 -0.72764289 -2.0436268 353.09
-6.4915466 -0.78671306 -2.040442 353.09
-7.0731192 -0.85719407 -2.0430241 353.09
-7.7463737 -0.93878603 -2.0427263 353.09
-8.5721979 -1.0388681 -2.0459828 353.09
-9.5278711 -1.1546863 -2.0400295 353.09
-10.739095 -1.301475 -2.0381544 353.09
-12.361362 -1.4586883 -2.0449882 353.26999
-14.397628 -1.6989757 -2.0374942 353.26999
-17.427498 -2.0565119 -2.0521505 353.26999
-20.108551 -2.3728864 -1.8890504 353.26999
-22.898815 -2.7021484 -1.6123512 353.26999
-4.6015749 -0.54300362 -2.0629683 353.26999
-31.491041 -3.7160645 -1.4787443 353.26999
-4.8733187 -0.57507038 -2.0496793 353.26999
-5.2193146 -0.61589926 -2.0522156 353.26999
-5.5713091 -0.65743595 -2.0418603 353.26999
-22.466026 -2.6510777 0.52521384 353.26999
-6.01015 -0.70922089 -2.0449073 353.26999
-6.4826097 -0.76497298 -2.0368676 353.26999
-7.0719585 -0.83451843 -2.0419216 353.26999
-30.044168 -3.5453277 2.8224285 353.26999
-7.7454419 -0.91399205 -2.0417132 353.26999
-8.5734873 -1.0117046 -2.0455217 353.26999
-9.5333939 -1.1249774 -2.0404453 353.26999
-10.743131 -1.2677308 -2.0381544 353.26999
-12.371268 -1.4248407 -2.0459609 353.42999
-14.400349 -1.6585368 -2.0372159 353.42999
-17.427252 -2.0071554 -2.0514536 353.42999
-20.126968 -2.3180907 -1.8901651 353.42999
-22.650589 -2.6087449 -1.5943539 353.42999
-4.5976281 -0.52952433 -2.0605278 353.42999
-22.585985 -2.6013041 -1.0602388 353.42999
-4.878572 -0.5618816 -2.0512209 353.42999
-22.51704 -2.5933635 -0.5262351 353.42999
-5.2265663 -0.60196126 -2.0543981 353.42999
-22.519135 -2.5936048 0 353.42999
-5.5731235 -0.64187539 -2.0418603 353.42999
-22.479301 -2.5890169 0.52535313 353.42999
-6.0139894 -0.69265145 -2.0455475 353.42999
-6.4790306 -0.74621183 -2.0350802 353.42999
-7.0761714 -0.81498653 -2.0424728 353.42999
-7.7441196 -0.89191639 -2.0407002 353.42999
-8.5704784 -0.98709095 -2.0441384 353.42999
-9.536499 -1.0983506 -2.0404453 353.42999
-10.744677 -1.2375005 -2.0377839 353.42999
-12.372003 -1.3833696 -2.0453124 353.62
-14.399865 -1.6101141 -2.0363808 353.62
-17.416044 -1.9473668 -2.0493629 353.62
-20.120691 -2.2497857 -1.8888646 353.62
-23.049723 -2.5772939 -1.621838 353.62
-4.6084375 -0.51529032 -2.0645952 353.62
-22.679861 -2.535938 -1.064245 353.62
-4.8822427 -0.54590565 -2.0519917 353.62
-22.539427 -2.5202353 -0.52656007 353.62
-5.2266822 -0.58441901 -2.0536704 353.62
-22.499784 -2.5158029 0 353.62
-5.5733533 -0.62318188 -2.0411763 353.62
-22.424175 -2.5073485 0.52386761 353.62
-6.0124874 -0.67228341 -2.0442672 353.62
-6.477675 -0.72429818 -2.0338888 353.62
-7.078835 -0.7915166 -2.0424728 353.62
-7.737421 -0.86515605 -2.0381677 353.62
-8.5737047 -0.95866477 -2.0441384 353.62
-9.534256 -1.0660683 -2.0391979 353.62
-10.752627 -1.2023 -2.0385246 353.62
-12.379976 -1.347082 -2.0459609 353.79001
-14.398672 -1.5667391 -2.0355458 353.79001
-17.441494 -1.8978326 -2.051686 353.79001
-20.135197 -2.1909382 -1.8896078 353.79001
-23.017599 -2.5045762 -1.6190478 353.79001
-4.5935988 -0.49983576 -2.0572739 353.79001
-4.8783369 -0.53081846 -2.0496793 353.79001
-5.2172809 -0.56769943 -2.0493057 353.79001
-5.5807829 -0.6072526 -2.0432284 353.79001
-22.511026 -2.4494553 0.52572447 353.79001
-6.0163393 -0.65464604 -2.0449073 353.79001
-28.824352 -3.1364169 1.3521305 353.79001
-6.4873877 -0.70590144 -2.0362718 353.79001
-7.0849748 -0.77092576 -2.0435753 353.79001
-7.7457242 -0.84282279 -2.0396872 353.79001
-8.5745773 -0.93301135 -2.0436773 353.79001
-9.5393219 -1.0379866 -2.0396137 353.79001
-10.746378 -1.169328 -2.0366731 353.79001
-12.378031 -1.3097211 -2.0449882 353.95999
-14.397348 -1.5233854 -2.0347106 353.95999
-17.478655 -1.8494188 -2.0554028 353.95999
-20.129726 -2.1299291 -1.8884931 353.95999
-23.056675 -2.4396298 -1.62128 353.95999
-4.6005125 -0.48678085 -2.0597143 353.95999
-4.8780551 -0.51614767 -2.0489085 353.95999
-5.2207952 -0.55241299 -2.0500331 353.95999
-5.5769534 -0.59009814 -2.0411763 353.95999
-22.538078 -2.384757 0.52618873 353.95999
-6.0144863 -0.63639361 -2.0436268 353.95999
-6.500845 -0.68785524 -2.0398462 353.95999
-7.0834074 -0.74949628 -2.0424728 353.95999
-7.7481909 -0.81983709 -2.0396872 353.95999
-8.5831137 -0.90818036 -2.0450606 353.95999
-9.5345774 -1.008855 -2.0379503 353.95999
-10.747846 -1.1372309 -2.0363028 353.95999
-12.383825 -1.2731909 -2.0453124 354.13
-14.399836 -1.4804584 -2.0344324 354.13
-17.495922 -1.7987695 -2.0567966 354.13
-20.141901 -2.0708046 -1.8890504 354.13
-28.926516 -2.9739578 -2.0334013 354.13
-4.603754 -0.4733156 -2.0605278 354.13
-4.8887444 -0.50261563 -2.0527627 354.13
-5.2261176 -0.53730124 -2.0514879 354.13
-5.5842881 -0.57412505 -2.0432284 354.13
-6.0163484 -0.61854547 -2.0436268 354.13
-6.5028572 -0.66856384 -2.0398462 354.13
-7.0817752 -0.72808284 -2.0413702 354.13
-7.7448153 -0.79625052 -2.0381677 354.13
-8.5818987 -0.8823117 -2.0441384 354.13
-9.537529 -0.98056084 -2.0379503 354.13
-10.749217 -1.1051354 -2.0359325 354.13
-12.383837 -1.2338884 -2.0446639 354.31
-14.406385 -1.4354091 -2.0347106 354.31
-17.509394 -1.7445834 -2.0577257 354.31
-20.148306 -2.0075169 -1.8890504 354.31
-28.907923 -2.8802986 -2.0314481 354.31
-4.610673 -0.45939362 -2.0629683 354.31
-4.8958082 -0.48780364 -2.0550752 354.31
-5.2314873 -0.52124971 -2.052943 354.31
-5.582324 -0.55620605 -2.0418603 354.31
-29.476067 -2.9369068 0.68773586 354.31
-6.0295744 -0.60076869 -2.0474682 354.31
-6.5049257 -0.64813125 -2.0398462 354.31
-7.0782886 -0.70525944 -2.0397165 354.31
-7.7492037 -0.77210742 -2.0386741 354.31
-8.5826912 -0.85515362 -2.0436773 354.31
-9.5347223 -0.95001119 -2.0367029 354.31
-10.748725 -1.0709707 -2.0351918 354.31
-12.387234 -1.1993014 -2.0446639 354.47
-14.400481 -1.394219 -2.033319 354.47
-17.482561 -1.6926184 -2.054009 354.47
-20.161762 -1.9520121 -1.8897935 354.47
-28.870178 -2.7951393 -2.0282393 354.47
-4.6101189 -0.44634032 -2.0621548 354.47
-4.8861299 -0.47306302 -2.0504501 354.47
-5.2255054 -0.50592047 -2.0500331 354.47
-5.5875969 -0.5409773 -2.0432284 354.47
-29.912037 -2.8960094 0.69771647 354.47
-6.0236845 -0.58319825 -2.0449073 354.47
-6.4858065 -0.62793976 -2.033293 354.47
-7.0859709 -0.68604618 -2.0413702 354.47
-7.749404 -0.75027812 -2.0381677 354.47
-8.5850458 -0.83118296 -2.0436773 354.47
-9.5353909 -0.92319304 -2.0362871 354.47
-10.749717 -1.040761 -2.0348215 354.47
-12.392905 -1.1605639 -2.0449882 354.64999
-14.400846 -1.3486024 -2.0327623 354.64999
-17.473948 -1.6363904 -2.0523829 354.64999
-20.122194 -1.8843919 -1.8855205 354.64999
-28.823196 -2.6992188 -2.0243328 354.64999
-4.5987644 -0.43066254 -2.0564604 354.64999
-4.8820796 -0.45719427 -2.0481377 354.64999
-5.2400532 -0.49071756 -2.0551255 354.64999
-5.5855265 -0.52307028 -2.0418603 354.64999
-29.909042 -2.8009052 0.69743794 354.64999
-6.0236006 -0.56409478 -2.0442672 354.64999
-6.5048552 -0.60916305 -2.0386548 354.64999
-7.0880914 -0.66378158 -2.0413702 354.64999
-7.7497964 -0.7257486 -2.0376611 354.64999
-8.5779266 -0.80330086 -2.0413716 354.64999
-9.5362968 -0.89304978 -2.0358713 354.64999
-10.750977 -1.0068015 -2.0344512 354.64999
-12.394329 -1.1236101 -2.0446639 354.82001
-14.404784 -1.3058684 -2.0327623 354.82001
-17.476748 -1.5843577 -2.0521505 354.82001
-20.113813 -1.8234215 -1.88422 354.82001
-28.813196 -2.6120656 -2.0230772 354.82001
-4.6127596 -0.41817057 -2.0621548 354.82001
-4.8870907 -0.4430401 -2.0496793 354.82001
-5.23592 -0.47466326 -2.052943 354.82001
-5.5851822 -0.50632572 -2.0411763 354.82001
-6.0252481 -0.54621994 -2.0442672 354.82001
-6.510437 -0.59020483 -2.0398462 354.82001
-7.0823708 -0.6420536 -2.0391653 354.82001
-7.742281 -0.70187789 -2.0351286 354.82001
-8.5822105 -0.77802187 -2.0418329 354.82001
-9.5369558 -0.86457449 -2.0354555 354.82001
-10.746087 -0.97418851 -2.03297 354.82001
-12.395642 -1.0866582 -2.0443397 354.98999
-14.40465 -1.262777 -2.0322056 354.98999
-17.469498 -1.5314555 -2.0507567 354.98999
-20.101282 -1.7621695 -1.882548 354.98999
-28.761194 -2.5213368 -2.0188918 354.98999
-4.6139798 -0.40448242 -2.0621548 354.98999
-4.8920603 -0.42886022 -2.0512209 354.98999
-5.239161 -0.4592886 -2.0536704 354.98999
-5.5941486 -0.49040842 -2.0439124 354.98999
