# .PCD v0.7 - Point Cloud Data file format
VERSION 0.7
FIELDS x y z intensity
SIZE 4 4 4 4
TYPE F F F F
COUNT 1 1 1 1
WIDTH 1221
HEIGHT 1
VIEWPOINT 0 0 0 1 0 0 0
POINTS 1221
DATA ascii
-7.6073952 2.6640718 -2.110091 19.299999
-8.4600554 2.9626691 -2.1239119 19.299999
-9.4514828 3.3098621 -2.1285999 19.299999
-10.708714 3.750138 -2.1377661 19.299999
-11.975764 4.2384887 -2.0871396 19.49
-13.564125 4.8006444 -2.0221851 19.49
-15.739525 5.5705667 -1.9524932 19.49
-18.95269 6.707777 -1.875674 19.49
-27.566984 9.756567 -2.0448413 19.49
-4.3645568 1.5447134 -2.0613413 19.49
-4.6329103 1.6396897 -2.0527627 19.49
-4.9737039 1.760304 -2.0602179 19.49
-36.013016 12.745805 0 19.49
-5.3576088 1.8961765 -2.0685377 19.49
-5.7926011 2.0501299 -2.0762787 19.49
-29.265417 10.35768 1.4477197 19.49
-6.2903419 2.2262914 -2.0821445 19.49
-30.660912 10.851576 2.2743402 19.49
-6.8924136 2.439378 -2.0964978 19.49
-7.5893993 2.6860566 -2.1075585 19.49
-8.44835 2.9900582 -2.1234508 19.49
-9.4404545 3.341186 -2.1285999 19.49
-10.696218 3.7856288 -2.1377661 19.49
-11.958306 4.2699237 -2.0861669 19.65
-13.567452 4.8444977 -2.0246904 19.65
-15.710813 5.6098223 -1.9508672 19.65
-19.601521 6.9990683 -1.941813 19.65
-27.573452 9.8455868 -2.0473526 19.65
-4.3585057 1.5562811 -2.0605278 19.65
-4.6300516 1.6532414 -2.0535336 19.65
-4.9705234 1.7748128 -2.0609453 19.65
-35.901939 12.81942 0 19.65
-5.3540626 1.9117622 -2.069222 19.65
-5.7904224 2.0675724 -2.0775592 19.65
-29.23826 10.440036 1.4478129 19.65
-6.2894945 2.2457747 -2.0839317 19.65
-28.439644 10.154876 2.1116679 19.65
-6.8837643 2.4579692 -2.0959466 19.65
-7.5818686 2.7072396 -2.1075585 19.65
-8.4381342 3.0129843 -2.1229897 19.65
-9.429245 3.366878 -2.1281841 19.65
-10.687456 3.8161445 -2.1381364 19.65
-11.94965 4.3115649 -2.0871396 19.84
-13.560628 4.8928232 -2.026082 19.84
-15.716414 5.6706548 -1.953887 19.84
-19.578203 7.0640306 -1.941813 19.84
-27.493734 9.9200411 -2.0438647 19.84
-4.3498836 1.5694857 -2.0589008 19.84
-4.6245437 1.6685861 -2.0535336 19.84
-4.9628577 1.7906536 -2.0602179 19.84
-5.3476934 1.9295065 -2.069222 19.84
-31.56139 11.387696 0.7790007 19.84
-5.7728405 2.0829041 -2.0737178 19.84
-6.2802167 2.2659712 -2.0833359 19.84
-6.8791924 2.4820881 -2.097049 19.84
-7.5710297 2.7317104 -2.1070521 19.84
-8.4280958 3.0409496 -2.1229897 19.84
-9.4180279 3.3981278 -2.1281841 19.84
-10.674743 3.8515642 -2.1381364 19.84
-11.936046 4.3490844 -2.0871396 20.02
-13.535886 4.9320111 -2.0246904 20.02
-15.698522 5.7200012 -1.953887 20.02
-19.561527 7.1275477 -1.9423704 20.02
-27.483053 10.013879 -2.0453994 20.02
-4.3449311 1.5831435 -2.0589008 20.02
-4.6158109 1.6818427 -2.0519917 20.02
-4.9554577 1.8055983 -2.0594902 20.02
-5.3398395 1.9456538 -2.0685377 20.02
-31.516066 11.48337 0.7787686 20.02
-5.7644882 2.1003811 -2.0730777 20.02
-30.407246 11.079354 1.5092099 20.02
-6.273067 2.2856898 -2.0833359 20.02
-6.8713608 2.5036874 -2.097049 20.02
-7.5642281 2.7561445 -2.1075585 20.02
-8.4148445 3.0660796 -2.1220675 20.02
-9.4073067 3.4276986 -2.1281841 20.02
-10.658896 3.8837352 -2.1373959 20.02
-11.927559 4.3837609 -2.0877881 20.18
-13.512765 4.9663749 -2.0232985 20.18
-15.667571 5.7583351 -1.9520286 20.18
-19.513512 7.1718416 -1.9395837 20.18
-27.526144 10.116741 -2.0507009 20.18
-4.3422084 1.5959009 -2.0597143 20.18
-4.6145606 1.6959991 -2.0535336 20.18
-4.9521446 1.8200721 -2.0602179 20.18
-5.3326216 1.9599096 -2.0678537 20.18
-5.7639356 2.1184313 -2.0749984 20.18
-30.327433 11.146305 1.5067875 20.18
-6.2594914 2.3005641 -2.0809529 20.18
-6.8589287 2.5208764 -2.0953951 20.18
-7.5528703 2.7759221 -2.1065454 20.18
-8.4080763 3.0902376 -2.1225286 20.18
-9.3958616 3.4532807 -2.1277683 20.18
-10.642475 3.9114511 -2.1362848 20.18
-11.9145 4.4191313 -2.0877881 20.35
-13.496114 5.0057573 -2.0230203 20.35
-15.65973 5.8082504 -1.9531901 20.35
-19.477209 7.2241673 -1.9380974 20.35
-27.671843 10.263587 -2.0638151 20.35
-4.3374538 1.6087774 -2.0597143 20.35
-4.6129689 1.7109669 -2.0550752 20.35
-4.9449759 1.8341094 -2.0594902 20.35
-5.3285451 1.9763767 -2.0685377 20.35
-5.7594013 2.1361828 -2.0756385 20.35
-30.249273 11.219565 1.5045515 20.35
-6.2597985 2.3217819 -2.0833359 20.35
-6.8532214 2.5418847 -2.0959466 20.35
-7.5355301 2.7949555 -2.104013 20.35
-8.3970451 3.1144946 -2.1220675 20.35
-9.3819056 3.4797828 -2.1269367 20.35
-10.627137 3.941644 -2.1355443 20.35
-11.89579 4.4523873 -2.0868154 20.52
-13.479347 5.045085 -2.0227418 20.52
-15.659171 5.8609552 -1.9552809 20.52
-19.440769 7.2763414 -1.9366111 20.52
-27.628187 10.34075 -2.0628386 20.52
-4.334373 1.6222802 -2.0605278 20.52
-4.6061435 1.7239994 -2.0543044 20.52
-4.9430017 1.8500795 -2.0609453 20.52
-5.3244176 1.9928368 -2.069222 20.52
-5.7548122 2.1539261 -2.0762787 20.52
-29.972612 11.218226 1.4924399 20.52
-6.2493057 2.3390064 -2.0821445 20.52
-6.8456497 2.5622075 -2.0959466 20.52
-7.5326405 2.8193362 -2.1055326 20.52
-8.3895903 3.1400776 -2.1225286 20.52
-9.3715391 3.5076041 -2.1269367 20.52
-10.615396 3.9731579 -2.1355443 20.52
-11.882527 4.4876633 -2.0868154 20.690001
-13.464318 5.0850568 -2.0227418 20.690001
-15.636137 5.9052854 -1.954584 20.690001
-19.426546 7.3368053 -1.9373542 20.690001
-27.554457 10.406466 -2.0596297 20.690001
-4.3329587 1.6364245 -2.0621548 20.690001
-4.5992818 1.7370064 -2.0535336 20.690001
-4.9357481 1.8640794 -2.0602179 20.690001
-5.3149648 2.0072978 -2.0678537 20.690001
-28.536461 10.777338 0.70820779 20.690001
-5.7430787 2.1689832 -2.074358 20.690001
-6.2441244 2.3582127 -2.0827403 20.690001
-27.985607 10.569299 2.0918572 20.690001
-6.8344202 2.5811491 -2.0948439 20.690001
-7.513382 2.8375721 -2.1024935 20.690001
-8.3765955 3.1635809 -2.1216063 20.690001
-9.3592606 3.5347035 -2.1265209 20.690001
-10.599883 4.0032477 -2.1348038 20.690001
-11.870214 4.5256743 -2.0871396 20.870001
-13.426069 5.1188641 -2.0194018 20.870001
-15.619365 5.9550862 -1.9548162 20.870001
-19.407122 7.3992181 -1.9377258 20.870001
-27.516035 10.490847 -2.059211 20.870001
-4.3226748 1.6480762 -2.0597143 20.870001
-4.5955267 1.7521044 -2.0543044 20.870001
-4.9281268 1.8789124 -2.0594902 20.870001
-5.3121448 2.0253243 -2.069222 20.870001
-28.491251 10.862661 0.70792925 20.870001
-5.7397771 2.1883647 -2.0756385 20.870001
-6.234901 2.3771374 -2.0821445 20.870001
-28.619659 10.911618 2.1418028 20.870001
-6.828074 2.6032922 -2.0953951 20.870001
-28.825996 10.990287 2.8781638 20.870001
-7.5152779 2.8652976 -2.1055326 20.870001
-8.3666153 3.1898811 -2.1216063 20.870001
-9.3499384 3.5647857 -2.1269367 20.870001
-10.585418 4.0358286 -2.1344333 20.870001
-11.849367 4.5580397 -2.0858426 21.040001
-13.403429 5.1558332 -2.0182884 21.040001
-15.614605 6.0063958 -1.9564424 21.040001
-19.399952 7.4624872 -1.9392121 21.040001
-27.419613 10.547372 -2.0543282 21.040001
-4.3143554 1.6595826 -2.0580873 21.040001
-4.5885854 1.7650692 -2.0535336 21.040001
-67.825478 26.090105 -1.6871927 21.040001
-4.9260077 1.894864 -2.0609453 21.040001
-5.3026037 2.0397274 -2.0678537 21.040001
-5.7332587 2.2053854 -2.0756385 21.040001
-6.2206931 2.3928845 -2.0797615 21.040001
-28.81806 11.085306 2.1591024 21.040001
-6.8203197 2.6235399 -2.0953951 21.040001
-28.793261 11.075767 2.8781638 21.040001
-7.5031314 2.886194 -2.1045196 21.040001
-8.3607464 3.2160888 -2.1225286 21.040001
-9.3411455 3.5932143 -2.1273525 21.040001
-10.577065 4.0686293 -2.135174 21.040001
-11.841311 4.5953193 -2.0868154 21.209999
-13.380687 5.1927133 -2.017175 21.209999
-15.607826 6.0570107 -1.9578362 21.209999
-19.362873 7.5142517 -1.9377258 21.209999
-27.382618 10.626516 -2.0539095 21.209999
-4.3060055 1.6710541 -2.0564604 21.209999
-4.5781665 1.7766731 -2.0512209 21.209999
-4.9186268 1.9087974 -2.0602179 21.209999
-5.2982807 2.0561316 -2.0685377 21.209999
-5.7266898 2.2223866 -2.0756385 21.209999
-6.2135658 2.4113309 -2.0797615 21.209999
-28.772022 11.165709 2.1581259 21.209999
-6.8071284 2.6416781 -2.0937414 21.209999
-7.4963388 2.9091434 -2.105026 21.209999
-8.3439102 3.238065 -2.1206841 21.209999
-9.3267956 3.6194985 -2.1265209 21.209999
-10.557618 4.0971498 -2.1336927 21.209999
-11.843353 4.6389751 -2.0897334 21.389999
-13.349554 5.2289453 -2.0149481 21.389999
-15.601667 6.1110859 -1.9594623 21.389999
-19.337317 7.5743184 -1.9375399 21.389999
-27.447557 10.751054 -2.0613039 21.389999
-4.3058381 1.6865727 -2.0589008 21.389999
-4.5742807 1.7917202 -2.0519917 21.389999
-4.9160752 1.9255992 -2.0616727 21.389999
-5.2917953 2.0727665 -2.0685377 21.389999
-5.7196798 2.2403665 -2.0756385 21.389999
-6.2077374 2.431536 -2.0803573 21.389999
-6.8023763 2.6644526 -2.0948439 21.389999
-7.4925671 2.9347963 -2.1065454 21.389999
-8.3318844 3.2635524 -2.120223 21.389999
-9.3135576 3.6480682 -2.1261048 21.389999
-10.544694 4.1302977 -2.1336927 21.389999
-11.837695 4.6749296 -2.0910304 21.549999
-13.322005 5.2611117 -2.0129998 21.549999
-15.597475 6.1597376 -1.9610884 21.549999
-19.31609 7.6282887 -1.9375399 21.549999
-27.51021 10.864302 -2.0682795 21.549999
-4.3028111 1.6992614 -2.0597143 21.549999
-4.5692596 1.8044869 -2.0519917 21.549999
-4.9158773 1.9413729 -2.0638552 21.549999
-5.2842383 2.0868454 -2.0678537 21.549999
-5.7116389 2.2556341 -2.0749984 21.549999
-6.1991472 2.4481604 -2.0797615 21.549999
-30.323397 11.975282 2.2797811 21.549999
-6.794909 2.6834381 -2.0948439 21.549999
-7.4807429 2.9542868 -2.1055326 21.549999
-8.3227386 3.2868066 -2.120223 21.549999
-9.299695 3.6726251 -2.1252732 21.549999
-10.529463 4.1582837 -2.1329522 21.549999
-11.819283 4.7106342 -2.0903819 21.73
-13.305411 5.302938 -2.0129998 21.73
-15.598345 6.2167978 -1.9636437 21.73
-19.316078 7.6985188 -1.9399551 21.73
-27.511156 10.964708 -2.0709302 21.73
-4.2957544 1.7120942 -2.0589008 21.73
-31.180317 12.427071 -1.5652963 21.73
-4.5652823 1.8195161 -2.0527627 21.73
-4.9028316 1.9540479 -2.0609453 21.73
-5.2776561 2.103436 -2.0678537 21.73
-5.7062845 2.2742682 -2.0756385 21.73
-6.1967463 2.469744 -2.0815487 21.73
-30.419065 12.123671 2.2898259 21.73
-6.7846594 2.7040598 -2.0942926 21.73
-7.4678307 2.976341 -2.1045196 21.73
-8.310564 3.3122165 -2.1197619 21.73
-9.2844763 3.7003744 -2.1244416 21.73
-10.516347 4.1913424 -2.1329522 21.73
-11.806083 4.7436213 -2.0903819 21.889999
-13.272174 5.3326888 -2.0102162 21.889999
-15.588297 6.2632947 -1.9645729 21.889999
-19.290808 7.7509446 -1.9395837 21.889999
-27.493389 11.046699 -2.0719068 21.889999
-4.2892609 1.7234024 -2.0580873 21.889999
-31.215937 12.542397 -1.5688367 21.889999
-4.5567589 1.8308815 -2.0512209 21.889999
-4.9008131 1.9691207 -2.0624001 21.889999
-5.2735057 2.1188664 -2.0685377 21.889999
-5.6999116 2.2901943 -2.0756385 21.889999
-29.210138 11.736479 1.4680301 21.889999
-6.1880536 2.4863272 -2.0809529 21.889999
-6.7788658 2.7237122 -2.0948439 21.889999
-7.4630804 2.9986262 -2.1055326 21.889999
-8.3085051 3.3383133 -2.1216063 21.889999
-9.2759218 3.7270162 -2.1248574 21.889999
-10.502778 4.2199607 -2.1325819 21.889999
-11.786469 4.7764063 -2.0894091 22.059999
-13.254457 5.3713012 -2.009938 22.059999
-15.591737 6.3184714 -1.9673605 22.059999
-19.258497 7.8044076 -1.9386547 22.059999
-27.482681 11.137216 -2.073581 22.059999
-4.2892089 1.7381799 -2.0605278 22.059999
-31.161921 12.628209 -1.5679982 22.059999
-4.5513062 1.8443936 -2.0512209 22.059999
-4.8914957 1.9822537 -2.0609453 22.059999
-5.2602282 2.1316805 -2.0658016 22.059999
-5.689579 2.3056729 -2.074358 22.059999
-29.221476 11.841853 1.4703593 22.059999
-6.1735716 2.5018082 -2.0785699 22.059999
-6.7689729 2.7430916 -2.0942926 22.059999
-7.4523573 3.0200298 -2.105026 22.059999
-8.298563 3.3629503 -2.1216063 22.059999
-9.2575703 3.7515831 -2.1231942 22.059999
-10.484747 4.2488899 -2.1314709 22.059999
-11.755953 4.8094873 -2.0868154 22.25
-13.232906 5.4137249 -2.0093813 22.25
-15.592761 6.3791671 -1.9701481 22.25
-19.238041 7.8704901 -1.9392121 22.25
-27.414206 11.215447 -2.0712092 22.25
-4.283421 1.7523938 -2.0605278 22.25
-31.214176 12.770057 -1.5727496 22.25
-4.5485811 1.8608737 -2.0527627 22.25
-4.8848953 1.9984635 -2.0609453 22.25
-5.2548699 2.1498241 -2.0664856 22.25
-5.6801481 2.3238101 -2.0737178 22.25
-28.682796 11.734442 1.4452043 22.25
-6.1670084 2.5229897 -2.0791657 22.25
-28.991179 11.860604 2.1903534 22.25
-6.7580595 2.7647953 -2.0937414 22.25
-7.4369292 3.0425282 -2.1035066 22.25
-8.2945709 3.3933985 -2.1234508 22.25
-9.2487001 3.7837431 -2.1240258 22.25
-10.46878 4.2828908 -2.1311007 22.25
-11.721562 4.8360667 -2.0832486 22.42
-13.202139 5.4469209 -2.0071545 22.42
-15.557238 6.4185848 -1.9680574 22.42
-19.209082 7.9252577 -1.9386547 22.42
-27.371588 11.292933 -2.0705116 22.42
-4.2748251 1.7637016 -2.0589008 22.42
-31.163221 12.857281 -1.5720975 22.42
-4.5413337 1.8736576 -2.0519917 22.42
-4.8806667 2.013659 -2.0616727 22.42
-29.82341 12.304503 0 22.42
-5.2484679 2.165406 -2.0664856 22.42
-5.6732283 2.3406532 -2.0737178 22.42
-27.763227 11.454515 1.4005773 22.42
-6.1683197 2.5449173 -2.0821445 22.42
-30.674768 12.655755 2.3203793 22.42
-6.7498264 2.7848346 -2.0937414 22.42
-7.4296579 3.0653183 -2.104013 22.42
-8.2736721 3.4135406 -2.1206841 22.42
-9.2338161 3.8096757 -2.1231942 22.42
-10.454209 4.3131838 -2.1307304 22.42
-11.689914 4.8660417 -2.0803304 22.6
-13.183133 5.4876089 -2.0068762 22.6
-15.535163 6.4666643 -1.9678252 22.6
-19.198797 7.9916878 -1.940141 22.6
-27.3986 11.404936 -2.0752552 22.6
-4.2675762 1.7764205 -2.0580873 22.6
-31.240717 13.004255 -1.5780602 22.6
-4.5354252 1.8879153 -2.0519917 22.6
-4.8725967 2.0282662 -2.0609453 22.6
-5.2433743 2.1826062 -2.0671697 22.6
-5.6693459 2.3599207 -2.0749984 22.6
-29.497744 12.278726 1.4900175 22.6
-6.1461935 2.5584135 -2.0773785 22.6
-28.004591 11.657187 2.1211548 22.6
-6.7392697 2.8052871 -2.0931902 22.6
-7.4235635 3.0901313 -2.105026 22.6
-8.262907 3.4395163 -2.1206841 22.6
-9.2181902 3.8371623 -2.1223626 22.6
-10.431535 4.3422289 -2.1288788 22.6
-11.662686 4.8953581 -2.0780609 22.77
-13.157662 5.5228667 -2.0054843 22.77
-19.171328 8.0470753 -1.9397694 22.77
-24.310839 10.20436 -1.8436636 22.77
-4.2639713 1.7897819 -2.0589008 22.77
-31.213049 13.101531 -1.5786191 22.77
-4.5281019 1.9006495 -2.0512209 22.77
-4.8665571 2.0427146 -2.0609453 22.77
-5.2334094 2.1966991 -2.0658016 22.77
-5.6588244 2.3752651 -2.0737178 22.77
-6.145617 2.5795939 -2.0797615 22.77
-6.7220531 2.8215501 -2.0904336 22.77
-7.4143624 3.1121438 -2.105026 22.77
-8.2544594 3.4647708 -2.1211452 22.77
-9.2049608 3.863739 -2.1219468 22.77
-10.420418 4.3739214 -2.1292491 22.77
-11.652606 4.9294448 -2.0787094 22.93
-13.125772 5.5526438 -2.0029793 22.93
-19.159786 8.1052351 -1.9408841 22.93
-27.415144 11.597529 -2.0815332 22.93
-4.2656875 1.8045297 -2.0621548 22.93
-4.5278759 1.915444 -2.0535336 22.93
-4.8608336 2.0562966 -2.0609453 22.93
-28.782515 12.175974 0 22.93
-5.2272549 2.2113049 -2.0658016 22.93
-28.148663 11.907833 0.70960039 22.93
-5.6574044 2.3932729 -2.0756385 22.93
-6.1348729 2.595258 -2.0785699 22.93
-6.7123771 2.8395617 -2.0898824 22.93
-7.4074249 3.1335902 -2.1055326 22.93
-8.2501287 3.4900827 -2.1225286 22.93
-9.1923332 3.8886669 -2.121531 22.93
-10.402733 4.4007063 -2.1281381 22.93
-11.617095 4.9575076 -2.0751426 23.110001
-13.111906 5.595407 -2.003536 23.110001
-15.387462 6.566483 -1.9564424 23.110001
-19.141554 8.1685133 -1.9416273 23.110001
-24.339773 10.386814 -1.8504997 23.110001
-4.2549562 1.8157704 -2.0597143 23.110001
-4.5184412 1.9282106 -2.0519917 23.110001
-4.8543496 2.071557 -2.0609453 23.110001
-28.738602 12.263982 0 23.110001
-5.2237391 2.2291913 -2.0671697 23.110001
-28.149733 12.012686 0.71057528 23.110001
-5.6428871 2.4080594 -2.0730777 23.110001
-6.1214213 2.6122704 -2.0767827 23.110001
-28.228191 12.046167 2.1461277 23.110001
-6.6981182 2.8583715 -2.0882287 23.110001
-7.3957644 3.1560864 -2.105026 23.110001
-8.228384 3.5114009 -2.1197619 23.110001
-9.1782722 3.9167583 -2.121115 23.110001
-10.394279 4.4356799 -2.1292491 23.110001
-11.595954 4.9868107 -2.0738456 23.27
-13.083493 5.6265235 -2.0015876 23.27
-15.350816 6.6015792 -1.9541193 23.27
-19.116838 8.2211485 -1.9414414 23.27
-24.13472 10.379075 -1.8371065 23.27
-4.2448335 1.8254799 -2.0572739 23.27
-4.5181251 1.9430082 -2.0543044 23.27
-4.848546 2.0851049 -2.0609453 23.27
-5.217494 2.2437699 -2.0671697 23.27
-5.6361403 2.4238079 -2.0730777 23.27
-28.632706 12.313422 1.4534961 23.27
-6.1176105 2.630863 -2.0779743 23.27
-29.024714 12.482005 2.209327 23.27
-6.6918764 2.8778245 -2.0887799 23.27
-7.3851442 3.1759627 -2.1045196 23.27
-8.2203341 3.5351341 -2.120223 23.27
-9.169096 3.9431465 -2.121531 23.27
-10.378241 4.4631362 -2.1285086 23.27
-11.568491 5.0205226 -2.0719001 23.459999
-13.052046 5.6643596 -1.9996392 23.459999
-15.343418 6.6587749 -1.9559778 23.459999
-19.083992 8.2821178 -1.9408841 23.459999
-24.195341 10.500355 -1.8443612 23.459999
-4.2471371 1.8431832 -2.0613413 23.459999
-4.5082712 1.9565108 -2.0527627 23.459999
-4.8416047 2.1011717 -2.0609453 23.459999
-5.2083006 2.2603114 -2.0664856 23.459999
-29.066284 12.614259 0.73564291 23.459999
-5.6315484 2.4439933 -2.074358 23.459999
-29.999216 13.019135 1.5250483 23.459999
-6.1071014 2.6503751 -2.0773785 23.459999
-6.6805329 2.8992343 -2.0882287 23.459999
-7.3674726 3.1973541 -2.1024935 23.459999
-8.2103519 3.563149 -2.1206841 23.459999
-9.1541748 3.9727519 -2.121115 23.459999
-10.359777 4.4959621 -2.1277678 23.459999
-11.543576 5.0480638 -2.0699546 23.620001
-13.032548 5.6991987 -1.9990824 23.620001
-15.302922 6.6920447 -1.9531901 23.620001
-19.05714 8.3337831 -1.9405125 23.620001
-27.419731 11.990787 -2.0926943 23.620001
-4.238625 1.853572 -2.0597143 23.620001
-4.5044808 1.9698319 -2.0535336 23.620001
-4.8323045 2.1131911 -2.0594902 23.620001
-5.2054119 2.2763529 -2.0678537 23.620001
-28.827599 12.606454 0.73049015 23.620001
-5.6229653 2.458951 -2.0737178 23.620001
-29.43008 12.869922 1.4979367 23.620001
-6.1049242 2.669714 -2.0791657 23.620001
-6.6724105 2.9178786 -2.0882287 23.620001
-7.3602877 3.2186909 -2.1029999 23.620001
-8.1968031 3.5845032 -2.1197619 23.620001
-9.1412525 3.9975157 -2.1206992 23.620001
-10.34358 4.5232997 -2.1270273 23.620001
-11.514101 5.0759234 -2.0673609 23.790001
-13.010144 5.735445 -1.9982474 23.790001
-15.199387 6.7005596 -1.9425043 23.790001
-19.034151 8.3910933 -1.9406983 23.790001
-27.486267 12.117158 -2.100507 23.790001
-4.2331071 1.8661401 -2.0597143 23.790001
-4.4918613 1.9802105 -2.0504501 23.790001
-4.8260136 2.1275194 -2.0594902 23.790001
-5.1934762 2.2895131 -2.0658016 23.790001
-28.925457 12.751616 0.73392534 23.790001
-5.6121774 2.4740951 -2.0724373 23.790001
-6.0952291 2.6870456 -2.0785699 23.790001
-29.63135 13.062805 2.2644346 23.790001
-6.6584463 2.9353366 -2.0865748 23.790001
-7.3560166 3.2428565 -2.1045196 23.790001
-8.1896935 3.6103778 -2.1206841 23.790001
-9.1311417 4.0254097 -2.121115 23.790001
-10.326517 4.5523839 -2.1262867 23.790001
-11.481846 5.1000457 -2.0641184 23.950001
-12.985026 5.7677341 -1.9968556 23.950001
-15.176985 6.7413654 -1.9420397 23.950001
-19.016104 8.4466391 -1.9412557 23.950001
-27.466909 12.200346 -2.1016231 23.950001
-4.2228699 1.8757288 -2.0572739 23.950001
-4.4896874 1.9942448 -2.0519917 23.950001
-71.509857 31.763494 -1.8166624 23.950001
-4.8183508 2.1402316 -2.0587628 23.950001
-5.1870623 2.3040071 -2.0658016 23.950001
-29.043228 12.900521 0.73782474 23.950001
-5.6069779 2.4905267 -2.0730777 23.950001
-29.39381 13.056243 1.4998932 23.950001
-6.0911913 2.7056062 -2.0797615 23.950001
-29.450712 13.081518 2.2534132 23.950001
-6.6554942 2.9562602 -2.0882287 23.950001
-7.3433957 3.2618148 -2.1035066 23.950001
-8.1760225 3.6316535 -2.1197619 23.950001
-9.1162891 4.049305 -2.1202834 23.950001
-10.31556 4.5820012 -2.126657 23.950001
-11.454064 5.1332502 -2.0621729 24.139999
-12.964022 5.8099523 -1.9965773 24.139999
-15.141857 6.7859702 -1.9404136 24.139999
-18.982538 8.5072088 -1.9406983 24.139999
-27.484562 12.317473 -2.1060874 24.139999
-4.2199612 1.8912165 -2.0589008 24.139999
-4.4864178 2.0106316 -2.0535336 24.139999
-4.8129272 2.15696 -2.0594902 24.139999
-5.1793933 2.3211954 -2.0658016 24.139999
-5.6004171 2.5098813 -2.0737178 24.139999
-29.53084 13.234532 1.5091166 24.139999
-6.0821857 2.7257905 -2.0797615 24.139999
-6.6438999 2.9775281 -2.0876772 24.139999
-7.3307734 3.2853572 -2.1029999 24.139999
-8.1674862 3.6603382 -2.1206841 24.139999
-9.1028109 4.0795131 -2.1202834 24.139999
-10.296722 4.6145759 -2.1259162 24.139999
-11.441483 5.166028 -2.0624971 24.299999
-12.936916 5.8412414 -1.9949073 24.299999
-15.142763 6.8372197 -1.9429688 24.299999
-18.993191 8.5757542 -1.9442282 24.299999
-27.435511 12.387608 -2.1049714 24.299999
-4.221324 1.906001 -2.0621548 24.299999
-4.4824677 2.0239117 -2.0543044 24.299999
-4.8034892 2.1688585 -2.0580354 24.299999
-5.1728911 2.33565 -2.0658016 24.299999
-5.5899329 2.5239515 -2.0724373 24.299999
-27.296028 12.32463 1.3966643 24.299999
-6.0675898 2.7396219 -2.0773785 24.299999
-30.877678 13.941806 2.3690693 24.299999
-6.6373115 2.996861 -2.0882287 24.299999
-7.3198066 3.3050194 -2.1024935 24.299999
-8.1536856 3.68153 -2.1197619 24.299999
-9.0913839 4.104917 -2.1202834 24.299999
-10.283796 4.643312 -2.1259162 24.299999
-11.420697 5.2023048 -2.0618486 24.49
-12.919277 5.8849306 -1.9951856 24.49
-14.830768 6.7556443 -1.9058007 24.49
-18.986395 8.6485968 -1.9464576 24.49
-27.299868 12.435513 -2.0977166 24.49
-4.2116551 1.9184741 -2.0605278 24.49
-29.073099 13.243247 -1.4898312 24.49
-4.4807696 2.04106 -2.0566168 24.49
-61.545372 28.03487 -1.5701638 24.49
-4.7996612 2.1863201 -2.0594902 24.49
-5.1668277 2.35357 -2.0664856 24.49
-27.643013 12.591821 0.70523679 24.49
-5.5798082 2.5416889 -2.0717971 24.49
-6.063684 2.7621019 -2.0791657 24.49
-6.6448326 3.0268242 -2.0937414 24.49
-7.3105674 3.3300767 -2.1029999 24.49
-8.1467447 3.7109685 -2.1211452 24.49
-9.0795012 4.1358538 -2.1206992 24.49
-10.268342 4.6773887 -2.1259162 24.49
-11.403419 5.2353439 -2.0615244 24.66
-12.892759 5.9191055 -1.9937938 24.66
-14.758304 6.7755823 -1.8990639 24.66
-18.960649 8.7048922 -1.9464576 24.66
-27.19939 12.487323 -2.0928338 24.66
-4.2026234 1.9294373 -2.0589008 24.66
-28.990103 13.309445 -1.4875952 24.66
-4.4780483 2.0558858 -2.0581586 24.66
-28.988352 13.30864 -0.74056363 24.66
-4.79146 2.199774 -2.0587628 24.66
-29.016157 13.321406 0 24.66
-5.159822 2.36889 -2.0664856 24.66
-27.56192 12.653762 0.70412266 24.66
-5.5739641 2.5590239 -2.0724373 24.66
-6.0537267 2.7792845 -2.0785699 24.66
-6.6340752 3.0457242 -2.0931902 24.66
-7.3006549 3.351753 -2.1029999 24.66
-8.130393 3.7326882 -2.1197619 24.66
-9.0636349 4.1611423 -2.1198676 24.66
-10.252632 4.7070146 -2.125546 24.66
-11.389626 5.2699842 -2.0618486 24.83
-12.86795 5.9540062 -1.9926804 24.83
-14.691262 6.7976532 -1.8930241 24.83
-18.929317 8.7586031 -1.9459002 24.83
-21.36981 9.8878202 -1.6465318 24.83
-4.1952219 1.9411309 -2.0580873 24.83
-29.03933 13.43651 -1.4921603 24.83
-4.4669042 2.0668383 -2.055846 24.83
-28.945107 13.392913 -0.74047077 24.83
-4.7815304 2.2124162 -2.057308 24.83
-28.820404 13.335213 0 24.83
-5.1493592 2.3826106 -2.0651176 24.83
-27.694828 12.814409 0.70848632 24.83
-5.5697861 2.5771422 -2.0737178 24.83
-27.994959 12.953279 1.4384962 24.83
-6.0471864 2.7980359 -2.0791657 24.83
-6.6232643 3.0645871 -2.0926387 24.83
-7.2871656 3.3717747 -2.1019871 24.83
-8.1175156 3.7559779 -2.1193008 24.83
-9.0512486 4.1880164 -2.1198676 24.83
-10.243972 4.7398901 -2.126657 24.83
-11.384671 5.3087592 -2.0637941 25
-12.852023 5.9929967 -1.9929588 25
-14.602615 6.8093114 -1.8841966 25
-18.912271 8.8189363 -1.9468292 25
-26.896976 12.542266 -2.0752552 25
-4.1911001 1.954342 -2.0589008 25
-4.460752 2.0800829 -2.055846 25
-71.430435 33.308556 -1.8298461 25
-4.7732568 2.2258062 -2.0565803 25
-28.456251 13.269368 0 25
-5.140564 2.3970842 -2.0644336 25
-21.879623 10.202637 0.56049424 25
-5.5603976 2.5928559 -2.0730777 25
-27.748178 12.939188 1.4277821 25
-6.037128 2.8151588 -2.0785699 25
-29.032461 13.538059 2.2400198 25
-6.6158848 3.0850377 -2.0931902 25
-7.278883 3.3941989 -2.1024935 25
-8.1045723 3.7792239 -2.1188395 25
-9.0370092 4.2140269 -2.1194518 25
-10.220957 4.7661104 -2.1248055 25
-11.382225 5.3512163 -2.0663881 25.18
-12.827755 6.0308151 -1.9921237 25.18
-14.611712 6.8695207 -1.8881458 25.18
-18.875462 8.8740711 -1.9459002 25.18
-26.797859 12.598692 -2.0706511 25.18
-4.1849394 1.967499 -2.0589008 25.18
-29.743183 13.9834 -1.5326879 25.18
-4.4525251 2.0933013 -2.0550752 25.18
-4.7696128 2.2423761 -2.0580354 25.18
-28.240669 13.277012 0 25.18
-5.133008 2.4132221 -2.0644336 25.18
-21.86194 10.278129 0.56086564 25.18
-5.5487952 2.6086993 -2.0717971 25.18
-27.763439 13.052648 1.4306703 25.18
-6.0247984 2.8324866 -2.0773785 25.18
-30.567831 14.371099 2.3619542 25.18
-6.6026807 3.104171 -2.0920875 25.18
-30.095493 14.149035 3.1025906 25.18
-7.2664332 3.4162261 -2.1019871 25.18
-8.0944204 3.8054945 -2.1193008 25.18
-9.0254965 4.2432289 -2.1198676 25.18
-10.207712 4.7990332 -2.1251757 25.18
-11.384132 5.393414 -2.0696304 25.35
-12.802646 6.0654573 -1.9910104 25.35
-14.558952 6.8975353 -1.8839643 25.35
-18.867044 8.9385624 -1.9477581 25.35
-26.735117 12.666188 -2.0686979 25.35
-4.1807346 1.9806896 -2.0597143 25.35
-25.897467 12.269338 -1.3363854 25.35
-4.4429588 2.1049225 -2.0535336 25.35
-4.7696729 2.2597084 -2.0609453 25.35
-28.486723 13.496039 0 25.35
-5.1292219 2.4300506 -2.0658016 25.35
-21.871099 10.361782 0.56188691 25.35
-5.5410304 2.6251516 -2.0717971 25.35
-28.161509 13.341964 1.4532166 25.35
-6.0146422 2.8495326 -2.0767827 25.35
-6.5830169 3.1188092 -2.0887799 25.35
-7.2580132 3.4385996 -2.1024935 25.35
-8.0866108 3.8311608 -2.120223 25.35
-9.0110989 4.2691517 -2.1194518 25.35
-10.195205 4.8301406 -2.125546 25.35
-11.384224 5.429996 -2.0722244 25.5
-12.78851 6.0998063 -1.9912888 25.5
-14.59284 6.9604278 -1.8907011 25.5
-18.834591 8.9836397 -1.9468292 25.5
-21.286942 10.15335 -1.6491826 25.5
-4.1738858 1.9908414 -2.0589008 25.5
-21.818851 10.407059 -1.127319 25.5
-4.4390988 2.1173415 -2.0543044 25.5
-21.796976 10.396625 -0.56067997 25.5
-4.7671037 2.2737918 -2.0624001 25.5
-21.797434 10.396843 0 25.5
-5.1160574 2.4402342 -2.0630655 25.5
-21.843899 10.419005 0.56188691 25.5
-5.5324287 2.6388333 -2.071157 25.5
-12.404287 5.9165416 0.64089477 25.5
-6.0123315 2.8677349 -2.0785699 25.5
-12.364109 5.8973775 0.95789587 25.5
-6.5887113 3.1426542 -2.0931902 25.5
-7.2437472 3.4550903 -2.1009741 25.5
-8.067771 3.8481293 -2.1179173 25.5
-8.998126 4.2918859 -2.119036 25.5
-10.177202 4.8542767 -2.1244352 25.5
-11.385717 5.4771285 -2.0757911 25.690001
-12.755719 6.1361713 -1.9893403 25.690001
-14.59116 7.0191145 -1.8934886 25.690001
-18.799314 9.043458 -1.9462718 25.690001
-26.666676 12.828073 -2.0692561 25.690001
-4.1722002 2.0070477 -2.0613413 25.690001
-25.658571 12.343122 -1.327814 25.690001
-4.4337163 2.1328504 -2.0550752 25.690001
-25.94981 12.483222 -0.66856372 25.690001
-4.7528219 2.2863572 -2.0594902 25.690001
-28.907177 13.905871 0 25.690001
-5.1113243 2.4588156 -2.0644336 25.690001
-21.904724 10.537323 0.56434727 25.690001
-5.5270624 2.6588075 -2.0724373 25.690001
-12.298182 5.9160724 0.63642275 25.690001
-6.0010681 2.8868291 -2.0779743 25.690001
-12.263578 5.899426 0.95161784 25.690001
-6.5539989 3.152818 -2.0854723 25.690001
-12.290617 5.9124327 1.2724338 25.690001
-7.2270193 3.4765761 -2.0994544 25.690001
-8.054965 3.8748617 -2.1179173 25.690001
-8.9820805 4.3208532 -2.1186202 25.690001
-10.161049 4.8879986 -2.1244352 25.690001
-11.382811 5.5149255 -2.0780609 25.85
-12.738534 6.1717677 -1.9893403 25.85
-14.839656 7.1897531 -1.9283339 25.85
-18.809828 9.1132851 -1.9499875 25.85
-12.089053 5.8570971 -0.93934065 25.85
-4.1665792 2.0186908 -2.0613413 25.85
-12.107216 5.8658967 -0.62738562 25.85
-4.4294038 2.146028 -2.055846 25.85
-12.077521 5.85151 -0.3115817 25.85
-4.7464185 2.2996206 -2.0594902 25.85
-12.080776 5.8530869 0 25.85
-5.1044378 2.4730794 -2.0644336 25.85
-12.05053 5.8384333 0.31088537 25.85
-5.517911 2.6734056 -2.0717971 25.85
-12.056873 5.8415065 0.6247769 25.85
-5.9861102 2.9002461 -2.0755913 25.85
-12.044166 5.8353496 0.93585283 25.85
-6.5659308 3.1811669 -2.0920875 25.85
-12.103809 5.8642464 1.2547842 25.85
-7.2242475 3.5001187 -2.1014805 25.85
-8.047616 3.8990374 -2.1188395 25.85
-8.9664583 4.344213 -2.1177886 25.85
-10.145591 4.9154978 -2.1240649 25.85
-11.385738 5.5630388 -2.0819516 26.040001
-12.040012 5.8827152 -1.8832904 26.040001
-12.043918 5.8846231 -1.5675699 26.040001
-12.025252 5.8755031 -1.2486534 26.040001
-12.04626 5.8857675 -0.937527 26.040001
-4.1549373 2.0300903 -2.0589008 26.040001
-12.033846 5.8797021 -0.62459058 26.040001
-4.4189467 2.1590843 -2.0543044 26.040001
-12.027511 5.8766065 -0.31079254 26.040001
-4.737093 2.3145297 -2.0587628 26.040001
-12.059503 5.8922381 0 26.040001
-5.0978975 2.4908178 -2.0651176 26.040001
-12.02212 5.8739734 0.31065327 26.040001
-5.5073133 2.6908572 -2.071157 26.040001
-12.073337 5.8989973 0.62664026 26.040001
-5.9644523 2.9142139 -2.0714209 26.040001
-12.053431 5.8892713 0.93808508 26.040001
-6.5553455 3.2029228 -2.0920875 26.040001
-12.127237 5.9253325 1.259243 26.040001
-7.2039089 3.519809 -2.098948 26.040001
-8.0328941 3.9248486 -2.1183784 26.040001
-8.9502459 4.373064 -2.1173728 26.040001
-10.127469 4.9482517 -2.1236944 26.040001
-11.380599 5.6048841 -2.0842214 26.219999
-15.145766 7.459209 -1.9743296 26.219999
-18.736294 9.2275248 -1.9485012 26.219999
-4.1518173 2.0447478 -2.0605278 26.219999
-25.394541 12.506676 -1.3200811 26.219999
-4.4104862 2.1721408 -2.0535336 26.219999
-4.7314692 2.3302233 -2.0594902 26.219999
-5.0900474 2.5068212 -2.0651176 26.219999
-5.5022321 2.7098198 -2.0724373 26.219999
-12.031446 5.9254227 0.62542909 26.219999
-5.9518418 2.9312503 -2.0702295 26.219999
-12.02592 5.9227014 0.93738747 26.219999
-6.5262794 3.2141576 -2.0860236 26.219999
-12.071047 5.9449263 1.2553416 26.219999
-7.1980228 3.5449879 -2.1004674 26.219999
-8.029253 3.9543643 -2.1206841 26.219999
-8.9311981 4.3985677 -2.1161251 26.219999
-10.104821 4.9765701 -2.1222134 26.219999
-11.391423 5.649796 -2.0890849 26.379999
-12.652511 6.2752566 -1.9848868 26.379999
-15.117759 7.4979444 -1.9734004 26.379999
-18.715805 9.282465 -1.9490585 26.379999
-21.496691 10.661698 -1.6779222 26.379999
-4.1428175 2.0547104 -2.0589008 26.379999
-25.320141 12.558013 -1.3180314 26.379999
-4.4044032 2.1844487 -2.0535336 26.379999
-25.371281 12.583377 -0.65751541 26.379999
-4.7266126 2.3442547 -2.0602179 26.379999
-29.947039 14.852812 0 26.379999
-5.0796599 2.5193553 -2.0637496 26.379999
-28.538214 14.154078 0.73958874 26.379999
-5.4912481 2.7234907 -2.071157 26.379999
-11.94505 5.9243779 0.62179559 26.379999
-5.9470539 2.9495561 -2.0714209 26.379999
-11.941414 5.922575 0.93208599 26.379999
-6.5207229 3.2340784 -2.087126 26.379999
-7.1880956 3.5650747 -2.1004674 26.379999
-8.012949 3.9741766 -2.1193008 26.379999
-8.9206333 4.4243603 -2.1165409 26.379999
-10.090884 5.0047688 -2.1222134 26.379999
-11.392264 5.6923919 -2.0923274 26.549999
-12.633836 6.3127699 -1.9848868 26.549999
-15.102553 7.5463181 -1.9743296 26.549999
-18.702431 9.3450756 -1.9505448 26.549999
-25.535933 12.759583 -1.9961512 26.549999
-4.1383371 2.0678098 -2.0597143 26.549999
-25.307789 12.645586 -1.3193358 26.549999
-4.3995533 2.1983321 -2.0543044 26.549999
-25.349932 12.666642 -0.65793318 26.549999
-4.7179699 2.3574359 -2.0594902 26.549999
-75.556816 37.753601 0 26.549999
-5.0738435 2.5352559 -2.0644336 26.549999
-5.4848385 2.7406185 -2.0717971 26.549999
-11.832701 5.9124656 0.61685771 26.549999
-5.9297366 2.9629216 -2.0684423 26.549999
-6.5093784 3.252552 -2.0865748 26.549999
-7.1774859 3.5863864 -2.1004674 26.549999
-7.9993811 3.9970641 -2.1188395 26.549999
-8.9074659 4.4508085 -2.1165409 26.549999
-10.068957 5.0311732 -2.1207321 26.549999
-11.387664 5.7323794 -2.0945971 26.719999
-12.611511 6.3484464 -1.9843301 26.719999
-15.067676 7.5848427 -1.9727035 26.719999
-18.685293 9.4058971 -1.9516596 26.719999
-25.303717 12.737513 -1.9809444 26.719999
-4.1289196 2.0784364 -2.0580873 26.719999
-25.1042 12.637079 -1.3106713 26.719999
-4.3913631 2.2105465 -2.0535336 26.719999
-25.201508 12.686062 -0.65505505 26.719999
-4.7126184 2.3722618 -2.0602179 26.719999
-5.0595841 2.5469189 -2.0616975 26.719999
-5.4749904 2.7560282 -2.071157 26.719999
-11.7812 5.93048 0.61508757 26.719999
-5.9260354 2.9830778 -2.0702295 26.719999
-6.5082855 3.2761736 -2.0893312 26.719999
-7.1650853 3.6067967 -2.099961 26.719999
-7.9840097 4.019031 -2.1179173 26.719999
-8.8907261 4.4754586 -2.1157093 26.719999
-10.050474 5.0592585 -2.1199915 26.719999
-11.388206 5.7750683 -2.0978394 26.889999
-12.58732 6.3831501 -1.983495 26.889999
-15.036246 7.6250238 -1.971542 26.889999
-18.667961 9.4667006 -1.9527743 26.889999
-25.077194 12.716884 -1.966156 26.889999
-4.1259937 2.0923307 -2.0597143 26.889999
-25.041649 12.698859 -1.3093669 26.889999
-4.3847847 2.2235661 -2.0535336 26.889999
-25.236872 12.797857 -0.65695834 26.889999
-4.7072206 2.3870764 -2.0609453 26.889999
-29.100145 14.756961 0 26.889999
-5.0570335 2.5644698 -2.0637496 26.889999
-28.992443 14.702344 0.75472218 26.889999
-5.4650989 2.7714038 -2.0705166 26.889999
-27.764265 14.079523 1.451726 26.889999
-5.9188614 3.0015109 -2.0708253 26.889999
-6.4985366 3.2954698 -2.0893312 26.889999
-7.1560779 3.6289151 -2.1004674 26.889999
-7.9720497 4.0427022 -2.1179173 26.889999
-8.8791533 4.5027032 -2.1161251 26.889999
-10.030161 5.08639 -2.1188805 26.889999
-11.382309 5.8171034 -2.1001091 27.07
-12.563679 6.4208603 -1.9829383 27.07
-15.021062 7.676744 -1.9727035 27.07
-18.64522 9.5289259 -1.9535174 27.07
-25.0158 12.784708 -1.9644818 27.07
-4.1145196 2.1027882 -2.0572739 27.07
-24.907347 12.72928 -1.3044292 27.07
-4.3810644 2.2390101 -2.0550752 27.07
-25.159153 12.85797 -0.65598345 27.07
-4.6996984 2.4018528 -2.0609453 27.07
-87.595467 44.767006 0 27.07
-5.0456052 2.5786338 -2.0623815 27.07
-28.191212 14.407551 0.73503941 27.07
-5.4563651 2.7885592 -2.0705166 27.07
-27.76437 14.189406 1.4540551 27.07
-5.9077024 3.0192218 -2.0702295 27.07
-29.492743 15.072718 2.3160543 27.07
-6.4864392 3.3149943 -2.0887799 27.07
-7.1446419 3.6513786 -2.1004674 27.07
-7.9575772 4.0668416 -2.1174562 27.07
-8.8649635 4.5305758 -2.1161251 27.07
-10.012382 5.116981 -2.1185102 27.07
-11.373773 5.8553667 -2.1017303 27.24
-12.539289 6.4553895 -1.9821033 27.24
-14.998219 7.7212782 -1.9727035 27.24
-18.613325 9.5823822 -1.9531459 27.24
-24.669106 12.699977 -1.9402065 27.24
-4.1131358 2.1174958 -2.0597143 27.24
-24.952951 12.846105 -1.308808 27.24
-4.3727608 2.2511544 -2.0543044 27.24
-24.998228 12.869414 -0.65278035 27.24
-4.6925511 2.4157865 -2.0609453 27.24
-87.229309 44.906788 0 27.24
-5.0345898 2.5918725 -2.0610135 27.24
-28.875425 14.865445 0.75402588 27.24
-5.446383 2.803869 -2.0698764 27.24
-28.072071 14.451868 1.472409 27.24
-5.8970208 3.0358632 -2.0696337 27.24
-6.4782844 3.3351052 -2.0893312 27.24
-7.1320562 3.6716754 -2.099961 27.24
-7.948936 4.092216 -2.1183784 27.24
-8.8532219 4.557754 -2.1165409 27.24
-10.00065 5.1484652 -2.1192508 27.24
-11.371088 5.8992486 -2.1046486 27.42
-12.529495 6.5002232 -1.9837734 27.42
-14.963307 7.7628698 -1.9713097 27.42
-18.572523 9.6353083 -1.9520311 27.42
-24.705238 12.816922 -1.9462056 27.42
-4.1032195 2.1287243 -2.0580873 27.42
-25.139465 13.042196 -1.3207333 27.42
-4.3656673 2.2648807 -2.0543044 27.42
-24.915079 12.925786 -0.65166628 27.42
-4.6832848 2.4296587 -2.0602179 27.42
-5.0364323 2.6128693 -2.0651176 27.42
-26.968559 13.991118 0.70537603 27.42
-5.4392295 2.8218379 -2.0705166 27.42
-28.017664 14.535388 1.4719431 27.42
-5.8891492 3.0552535 -2.0702295 27.42
-26.671032 13.836763 2.1010649 27.42
-6.4677749 3.3554409 -2.0893312 27.42
-7.115334 3.6913905 -2.0984416 27.42
-7.9325857 4.1153755 -2.1174562 27.42
-8.8336496 4.5828419 -2.1152935 27.42
-9.9774475 5.1762371 -2.1177697 27.42
-11.383269 5.9485002 -2.1101606 27.59
-12.506643 6.5355358 -1.9832166 27.59
-14.940208 7.8072324 -1.9713097 27.59
-18.407955 9.6193562 -1.9377258 27.59
-25.266539 13.203412 -1.9935005 27.59
-4.0952659 2.1400433 -2.0572739 27.59
-25.16086 13.148189 -1.3239009 27.59
-4.3572922 2.2769692 -2.0535336 27.59
-24.865986 12.994098 -0.65138775 27.59
-4.6727529 2.441818 -2.0587628 27.59
-28.490499 14.888142 0 27.59
-5.020329 2.6234491 -2.0616975 27.59
-28.470419 14.877649 0.74580926 27.59
-5.4308329 2.8379641 -2.0705166 27.59
-28.004515 14.634183 1.473527 27.59
-5.8766737 3.070945 -2.0690379 27.59
-27.061314 14.141299 2.1351061 27.59
-6.4526792 3.3719451 -2.0876772 27.59
-7.1077795 3.714278 -2.0994544 27.59
-7.9186158 4.1379924 -2.1169951 27.59
-8.8217468 4.6099377 -2.1157093 27.59
-9.9603043 5.2049079 -2.1173995 27.59
-11.392466 5.9989443 -2.1153486 27.77
-12.480792 6.5720258 -1.9823817 27.77
-14.919124 7.8559809 -1.9717742 27.77
-18.106297 9.534255 -1.9091151 27.77
-25.366161 13.35709 -2.0046616 27.77
-4.0901394 2.1537497 -2.0580873 27.77
-25.03281 13.181558 -1.3193358 27.77
-4.3501177 2.2906468 -2.0535336 27.77
-24.642817 12.976197 -0.64660633 27.77
-4.6650586 2.4564857 -2.0587628 27.77
-28.666563 15.094987 0 27.77
-5.0137253 2.6400836 -2.0623815 27.77
-26.645519 14.030764 0.69915557 27.77
-5.4218903 2.8550115 -2.0705166 27.77
-27.919512 14.701612 1.4714773 27.77
-5.8653078 3.0885024 -2.0684423 27.77
-28.506699 15.010808 2.2528551 27.77
-6.445456 3.3939917 -2.0887799 27.77
-7.0926518 3.7347863 -2.0984416 27.77
-7.9141865 4.1673827 -2.1193008 27.77
-8.8054905 4.6367178 -2.1152935 27.77
-9.9456425 5.2370887 -2.1177697 27.77
-11.387875 6.0372057 -2.1176181 27.93
-12.462391 6.6068535 -1.9823817 27.93
-14.886597 7.8920298 -1.9703804 27.93
-18.084879 9.5875778 -1.9096724 27.93
-25.379881 13.454974 -2.0087075 27.93
-4.0873375 2.1668746 -2.0597143 27.93
-25.091219 13.301942 -1.3243668 27.93
-4.3502259 2.3062432 -2.0566168 27.93
-24.675379 13.081488 -0.64841676 27.93
-4.6581807 2.4695034 -2.0587628 27.93
-28.878752 15.309876 0 27.93
-5.0079937 2.6549544 -2.0630655 27.93
-26.606236 14.105118 0.69915557 27.93
-5.4122224 2.8692536 -2.0698764 27.93
-27.959543 14.822565 1.475763 27.93
-5.8634076 3.1084464 -2.0708253 27.93
-6.4376516 3.412878 -2.0893312 27.93
-7.0856137 3.7563906 -2.0994544 27.93
-7.8990793 4.187644 -2.1183784 27.93
-8.7942362 4.6622057 -2.1157093 27.93
-9.9327154 5.2657623 -2.11814 27.93
-11.382778 6.0803909 -2.1202121 28.110001
-12.44332 6.6469054 -1.9826601 28.110001
-14.856473 7.9359503 -1.9696835 28.110001
-18.098581 9.6678019 -1.914317 28.110001
-28.93626 15.457015 -2.2940114 28.110001
-4.075675 2.1771221 -2.0572739 28.110001
-24.933002 13.318577 -1.3182178 28.110001
-4.3397036 2.3181593 -2.0550752 28.110001
-24.942793 13.323807 -0.65654051 28.110001
-4.6487565 2.4832475 -2.0580354 28.110001
-4.9979706 2.6697888 -2.0623815 28.110001
-27.591742 14.738807 0.72626573 28.110001
-5.4065242 2.8880279 -2.071157 28.110001
-5.8519292 3.1259518 -2.0702295 28.110001
-6.4235067 3.4312739 -2.0882287 28.110001
-7.0720711 3.7777207 -2.098948 28.110001
-7.8858843 4.2124391 -2.1183784 28.110001
-8.7778206 4.6888885 -2.1152935 28.110001
-9.9126558 5.2950888 -2.1173995 28.110001
-11.381397 6.1205664 -2.1231303 28.27
-12.417733 6.6778755 -1.9815466 28.27
-14.841252 7.9811702 -1.9706128 28.27
-18.124128 9.7466002 -1.9198905 28.27
-28.849054 15.514136 -2.2905235 28.27
-4.0679703 2.1876297 -2.0564604 28.27
-23.120338 12.433409 -1.2242124 28.27
-4.3364639 2.3320172 -2.0566168 28.27
-4.6467261 2.4988668 -2.0602179 28.27
-27.568468 14.825477 0 28.27
-4.9921508 2.6846256 -2.0630655 28.27
-26.041319 14.004222 0.68648243 28.27
-5.3967695 2.9022169 -2.0705166 28.27
-29.713329 15.978917 1.5733087 28.27
-5.8448586 3.1431856 -2.0708253 28.27
-6.4122062 3.4482877 -2.0876772 28.27
-7.0631981 3.7983711 -2.0994544 28.27
-7.8672342 4.2307572 -2.116534 28.27
-8.7612467 4.7115297 -2.1144619 28.27
-9.897831 5.3227496 -2.1173995 28.27
-11.378805 6.1627674 -2.1260483 28.440001
-12.396123 6.713747 -1.9812683 28.440001
-14.810519 8.0213852 -1.9696835 28.440001
-18.14591 9.8278351 -1.9252782 28.440001
-22.892496 12.398588 -1.8205044 28.440001
-4.0630684 2.2005601 -2.0572739 28.440001
-23.083345 12.501953 -1.2242124 28.440001
-4.3279028 2.3439946 -2.055846 28.440001
-52.96981 28.688478 -1.3985896 28.440001
-4.6376534 2.5117555 -2.0594902 28.440001
-53.006947 28.708591 0 28.440001
-4.9841633 2.6994257 -2.0630655 28.440001
-27.337612 14.806066 0.72180927 28.440001
-5.3864684 2.9173143 -2.0698764 28.440001
-5.833828 3.1596045 -2.0702295 28.440001
-6.401947 3.467298 -2.0876772 28.440001
-7.046793 3.8165472 -2.097935 28.440001
-7.8597808 4.2568617 -2.1179173 28.440001
-8.752389 4.7402987 -2.1157093 28.440001
-9.8802662 5.3511577 -2.117029 28.440001
-11.369782 6.2041564 -2.1279938 28.620001
-12.373232 6.751709 -1.9809899 28.620001
-14.788733 8.0697775 -1.9701481 28.620001
-18.121937 9.8886089 -1.9260213 28.620001
-22.84993 12.468534 -1.8202255 28.620001
-4.0561347 2.2133136 -2.0572739 28.620001
-22.993097 12.546659 -1.2215106 28.620001
-4.3188977 2.3566954 -2.0550752 28.620001
-4.6297393 2.5263128 -2.0594902 28.620001
-28.806404 15.718808 0 28.620001
-4.9756584 2.7150705 -2.0630655 28.620001
-27.046995 14.758751 0.71535671 28.620001
-5.3756137 2.9333146 -2.0692363 28.620001
-28.829498 15.73141 1.53157 28.620001
-5.822197 3.177002 -2.0696337 28.620001
-27.51729 15.015377 2.1920273 28.620001
-6.3910227 3.4873931 -2.0876772 28.620001
-7.0381651 3.8405199 -2.098948 28.620001
-7.8429518 4.2796683 -2.1169951 28.620001
-8.7340193 4.7658978 -2.1148777 28.620001
-9.870307 5.3859367 -2.1185102 28.620001
-11.358243 6.2416658 -2.1292908 28.790001
-12.344466 6.7836223 -1.9795982 28.790001
-14.764726 8.1136208 -1.9701481 28.790001
-18.096008 9.944252 -1.9263929 28.790001
-22.681696 12.464212 -1.809762 28.790001
-4.0463476 2.2235789 -2.0556469 28.790001
-22.803444 12.531117 -1.2134051 28.790001
-4.3135033 2.3703883 -2.055846 28.790001
-4.6205907 2.5391412 -2.0587628 28.790001
-27.65188 15.195466 0 28.790001
-4.9659338 2.7289166 -2.0623815 28.790001
-26.936499 14.802343 0.71359265 28.790001
-5.3718686 2.9519889 -2.071157 28.790001
-27.194647 14.944203 1.4470676 28.790001
-5.8177648 3.197021 -2.0714209 28.790001
-27.143898 14.916315 2.1657989 28.790001
-6.3772774 3.5044885 -2.0865748 28.790001
-7.0233479 3.8595221 -2.097935 28.790001
-7.8285136 4.3019829 -2.116534 28.790001
-8.7181253 4.7908487 -2.1144619 28.790001
-9.8560057 5.4161453 -2.1188805 28.790001
-11.340769 6.2733593 -2.1292908 28.950001
-12.327208 6.8190265 -1.9798765 28.950001
-14.750702 8.1596279 -1.9713097 28.950001
-18.06991 9.9957104 -1.9265788 28.950001
-22.568237 12.484045 -1.8034838 28.950001
-4.0417213 2.235754 -2.0564604 28.950001
-22.829548 12.628593 -1.216666 28.950001
-4.3036375 2.3806381 -2.0543044 28.950001
-22.741476 12.579875 -0.60338783 28.950001
-4.6151123 2.5529361 -2.0594902 28.950001
-27.677593 15.310381 0 28.950001
-4.9566493 2.7418637 -2.0616975 28.950001
-26.88806 14.873635 0.71340698 28.950001
-5.3586302 2.964227 -2.0692363 28.950001
-27.074141 14.97657 1.442875 28.950001
-5.8054729 3.2114067 -2.0702295 28.950001
-6.367466 3.5222836 -2.0865748 28.950001
-7.0176215 3.8819294 -2.0994544 28.950001
-7.8164697 4.3238273 -2.116534 28.950001
-8.703001 4.814229 -2.1140461 28.950001
-9.8442822 5.44555 -2.1196213 28.950001
-11.323351 6.3128543 -2.1299393 29.139999
-12.297607 6.85601 -1.9787631 29.139999
-14.721828 8.207531 -1.9710773 29.139999
-18.041882 10.058487 -1.9271361 29.139999
-22.760225 12.688999 -1.8221786 29.139999
-4.0342851 2.2491446 -2.0564604 29.139999
-22.604322 12.602082 -1.2068834 29.139999
-4.2973313 2.3957949 -2.0550752 29.139999
-22.682169 12.645483 -0.60292357 29.139999
-4.6033664 2.566412 -2.0580354 29.139999
-27.801355 15.499468 0 29.139999
-4.9475298 2.7582855 -2.0616975 29.139999
-26.753016 14.915009 0.71113235 29.139999
-5.3520808 2.9838259 -2.0705166 29.139999
-5.7964592 3.2315702 -2.0708253 29.139999
-22.976309 12.809467 1.8394783 29.139999
-6.3540716 3.5424433 -2.0860236 29.139999
-6.9979506 3.9014108 -2.0974286 29.139999
-7.8020887 4.3497238 -2.116534 29.139999
-8.6886978 4.8440151 -2.1144619 29.139999
-9.8210201 5.4752936 -2.1185102 29.139999
-11.295351 6.3386555 -2.1279938 29.299999
-12.276687 6.8893552 -1.9784847 29.299999
-14.697118 8.2476377 -1.9708451 29.299999
-18.01025 10.106881 -1.9267645 29.299999
-22.472418 12.610933 -1.8019493 29.299999
-4.0279884 2.2604017 -2.0564604 29.299999
-22.515034 12.634848 -1.2039952 29.299999
-4.2906241 2.4077861 -2.0550752 29.299999
-22.800211 12.794882 -0.6070087 29.299999
-4.5961819 2.579257 -2.0580354 29.299999
-4.9398079 2.7720909 -2.0616975 29.299999
-5.3404226 2.9969056 -2.0692363 29.299999
-28.391626 15.932637 1.518247 29.299999
-5.7857475 3.24681 -2.0702295 29.299999
-23.119658 12.974147 1.8538481 29.299999
-6.3424778 3.5592325 -2.0854723 29.299999
-6.9887156 3.9218843 -2.097935 29.299999
-7.7865171 4.3695898 -2.1156118 29.299999
-8.6751366 4.8682599 -2.1144619 29.299999
-9.8074064 5.5036597 -2.1188805 29.299999
-11.272552 6.3751059 -2.1276696 29.49
-12.246878 6.9261284 -1.9773715 29.49
-14.671415 8.297308 -1.9710773 29.49
-17.985302 10.171451 -1.9276935 29.49
-22.439157 12.690295 -1.8026468 29.49
-4.0172896 2.2719476 -2.0548334 29.49
-22.443449 12.692721 -1.2024114 29.49
-4.2826161 2.4220011 -2.0550752 29.49
-22.567951 12.763133 -0.60194874 29.49
-4.5924683 2.5972357 -2.0602179 29.49
-4.9305878 2.7884564 -2.0616975 29.49
-22.73155 12.855656 0.60631239 29.49
-5.3337541 3.016464 -2.0705166 29.49
-26.794409 15.153375 1.4355149 29.49
-5.7815962 3.269738 -2.0726125 29.49
-6.3323135 3.5811918 -2.0860236 29.49
-6.9689355 3.9412284 -2.0959089 29.49
-7.77876 4.3992186 -2.1174562 29.49
-8.6589451 4.8970008 -2.1144619 29.49
-9.7873907 5.5351844 -2.1185102 29.49
-11.241582 6.4016881 -2.1254001 29.66
-12.224552 6.9614553 -1.9770931 29.66
-14.638102 8.335887 -1.9699159 29.66
-17.946392 10.219842 -1.9267645 29.66
-22.58518 12.861471 -1.8174351 29.66
-4.0137067 2.2856655 -2.0564604 29.66
-22.504644 12.815609 -1.2077219 29.66
-4.2770147 2.4356103 -2.055846 29.66
-22.370134 12.73901 -0.59767795 29.66
-4.5798855 2.6080844 -2.0580354 29.66
-27.673449 15.759061 0 29.66
-4.925559 2.8049335 -2.0630655 29.66
-22.653345 12.900288 0.6052447 29.66
-5.3247805 3.0322762 -2.0705166 29.66
-5.765233 3.2830987 -2.0702295 29.66
-6.3183188 3.5980616 -2.0849209 29.66
-6.9639359 3.965718 -2.097935 29.66
-7.7690554 4.4242053 -2.1183784 29.66
-8.6443777 4.9226708 -2.1144619 29.66
-9.7692165 5.5632272 -2.11814 29.66
-11.223661 6.4330554 -2.1254001 29.82
-12.198192 6.9916258 -1.9759797 29.82
-14.600979 8.3688288 -1.9680574 29.82
-17.935059 10.27982 -1.9286224 29.82
-22.554371 12.927466 -1.8178537 29.82
-3.997797 2.2914135 -2.0515797 29.82
-22.468769 12.878404 -1.2077219 29.82
-4.2685957 2.4466269 -2.0550752 29.82
-22.317125 12.791486 -0.59721375 29.82
-4.5742006 2.6217902 -2.0587628 29.82
-4.9111848 2.8149393 -2.0603294 29.82
-22.676212 12.997303 0.60682303 29.82
-5.3113604 3.0443072 -2.0685959 29.82
-28.110662 16.112162 1.51098 29.82
-5.7543859 3.2982359 -2.0696337 29.82
-6.3082466 3.6156917 -2.0849209 29.82
-6.9461203 3.9813011 -2.0959089 29.82
-7.7448516 4.4391093 -2.1151507 29.82
-8.6288996 4.9458184 -2.1140461 29.82
-9.753643 5.590486 -2.11814 29.82
-11.201687 6.4672971 -2.1250758 30
-12.169306 7.0259519 -1.9748663 30
-14.583217 8.4196243 -1.969219 30
-17.892328 10.33014 -1.9275076 30
-22.484272 12.981301 -1.815482 30
-3.9905787 2.3039618 -2.0515797 30
-22.371105 12.915963 -1.2046474 30
-4.2576919 2.4581795 -2.0535336 30
-22.451721 12.962507 -0.60190231 30
-4.5627146 2.6342845 -2.057308 30
-4.9071999 2.8331733 -2.0623815 30
-29.336498 16.937435 0.78647459 30
-5.303411 3.0619256 -2.0692363 30
-22.000849 12.702195 1.1847097 30
-5.7456493 3.3172522 -2.0702295 30
-6.2985215 3.6364529 -2.0854723 30
-6.9352536 4.0040708 -2.0964155 30
-7.7325525 4.4643912 -2.1156118 30
-8.6065426 4.9689898 -2.1123829 30
-9.7394361 5.6230659 -2.1188805 30
-11.185861 6.5024881 -2.1257243 30.17
-12.134707 7.0540652 -1.9726396 30.17
-14.570193 8.4698448 -1.9708451 30.17
-17.870207 10.388186 -1.9284365 30.17
-22.452557 13.051967 -1.81604 30.17
-3.9900434 2.3194647 -2.0548334 30.17
-22.363773 13.000356 -1.2063245 30.17
-4.2519751 2.4717288 -2.0543044 30.17
-4.5597105 2.6506197 -2.0594902 30.17
-22.630148 13.155203 0 30.17
