# .PCD v0.7 - Point Cloud Data file format
VERSION 0.7
FIELDS x y z intensity
SIZE 4 4 4 4
TYPE F F F F
COUNT 1 1 1 1
WIDTH 1247
HEIGHT 1
VIEWPOINT 0 0 0 1 0 0 0
POINTS 1247
DATA ascii
7.5835791 6.8139186 -0.71291119 138.06
3.0511181 2.7414591 -1.8262476 138.06
18.070675 16.236675 -1.1329089 138.06
3.0063255 2.7012124 -1.6881526 138.06
25.794062 23.176212 -0.80508959 138.06
2.9725084 2.6708274 -1.5604404 138.06
7.5360956 6.7712545 0.2352182 138.06
2.9118309 2.616308 -1.3227234 138.06
4.0715885 3.6583617 -1.7080138 138.06
4.385993 3.9408569 -1.6907595 138.06
4.8169765 4.3280997 -1.6952652 138.06
5.1824412 4.6564736 -1.6508043 138.06
5.7523293 5.1685233 -1.6437498 138.06
6.1899719 5.5617495 -1.567868 138.06
6.9378333 6.1922531 -1.5278237 138.25
7.4219527 6.6243458 -1.3981329 138.25
11.534232 10.294696 -1.0810858 138.25
3.0615556 2.7325428 -1.8270611 138.25
7.5627713 6.7500315 -0.47272861 138.25
3.0331652 2.7072036 -1.6981735 138.25
7.5435915 6.732913 -0.23475398 138.25
3.1064405 2.772604 -1.6259134 138.25
7.5381637 6.7280684 0 138.25
3.060848 2.7319114 -1.4932599 138.25
7.5510502 6.7395697 0.23498608 138.25
2.8978732 2.5864508 -1.3124796 138.25
4.0836978 3.6448398 -1.7080138 138.25
4.3933001 3.9211702 -1.6885544 138.25
4.7937722 4.2786055 -1.6820961 138.25
5.1964025 4.6379666 -1.6503432 138.25
5.7650585 5.1455112 -1.6425023 138.25
6.3242207 5.6445827 -1.597122 138.25
6.9487944 6.165092 -1.5262026 138.42
7.4504638 6.6101818 -1.399803 138.42
7.6109524 6.7525702 -1.1898477 138.42
10.599929 9.4044428 -1.3220381 138.42
3.0696497 2.7234468 -1.8270611 138.42
19.502382 17.302856 -1.2158275 138.42
3.0660329 2.7202382 -1.7120488 138.42
26.793192 23.771389 -0.83159631 138.42
3.118834 2.7670841 -1.6280959 138.42
7.528172 6.6791258 0 138.42
3.0408237 2.6978719 -1.4795791 138.42
7.5396047 6.6892695 0.23401123 138.42
2.9140387 2.585386 -1.316321 138.42
2.9291272 2.598773 -1.2218822 138.42
4.4121056 3.9144974 -1.6913108 138.42
4.8440757 4.2977486 -1.6952652 138.42
5.2072291 4.619945 -1.649421 138.42
5.7803001 5.1283836 -1.6425023 138.42
6.3482914 5.6323152 -1.5989735 138.42
6.9611354 6.139226 -1.5249056 138.59
7.3898325 6.5173063 -1.3847723 138.59
7.6756492 6.7693763 -1.1968168 138.59
7.5639853 6.670897 -0.70523793 138.59
3.0763464 2.7131186 -1.8262476 138.59
7.5547457 6.6627479 -0.46974728 138.59
3.2387986 2.85639 -1.8037794 138.59
7.5459228 6.6549668 -0.23359343 138.59
3.1046743 2.738102 -1.6164562 138.59
7.5254564 6.6369166 0 138.59
3.000891 2.6465721 -1.4563217 138.59
7.5474224 6.6562891 0.23363985 138.59
2.9103284 2.5667024 -1.3111992 138.59
2.9225061 2.5774424 -1.2159247 138.59
4.4337935 3.9102905 -1.6951697 138.59
4.8379416 4.2667203 -1.6886806 138.59
5.1304197 4.5246654 -1.6208316 138.59
5.7705483 5.0892129 -1.6354333 138.59
6.3708711 5.6186547 -1.6004547 138.59
6.9704161 6.1107388 -1.5229601 138.75999
7.3793516 6.4692397 -1.3792055 138.75999
7.3147993 6.4126487 -1.1375799 138.75999
10.173384 8.9186773 -1.2622156 138.75999
9.8656197 8.6488705 -0.91743714 138.75999
3.0926261 2.7112057 -1.8311284 138.75999
18.712364 16.404526 -1.1604863 138.75999
3.2000771 2.8054044 -1.7775706 138.75999
7.5145159 6.5877337 -0.2320151 138.75999
3.0945733 2.7129126 -1.6069989 138.75999
7.5225568 6.5947828 0 138.75999
2.9522018 2.5881 -1.4289602 138.75999
7.5566139 6.62464 0.2333149 138.75999
2.9373188 2.5750527 -1.2189034 138.75999
4.4540501 3.9047222 -1.6984774 138.75999
4.8665838 4.266377 -1.6942523 138.75999
5.224309 4.5799832 -1.6461931 138.75999
5.7620859 5.051435 -1.6287801 138.75999
6.3431768 5.5608582 -1.5893456 138.75999
6.9725766 6.0782814 -1.5197177 138.92
7.4182892 6.4668274 -1.3831023 138.92
3.1235986 2.7229691 -1.8449575 138.92
7.5688996 6.5981207 -0.46825659 138.92
3.2913654 2.8692183 -1.8238214 138.92
7.52384 6.5588403 -0.23173657 138.92
3.075455 2.6810005 -1.5931768 138.92
7.5273752 6.5619221 0 138.92
2.9778342 2.5959005 -1.4378527 138.92
7.547955 6.5798621 0.23247932 138.92
4.3634939 3.8038371 -1.6598881 138.92
4.8857708 4.2591271 -1.6967847 138.92
5.2326775 4.5615396 -1.6448097 138.92
5.7673221 5.0276117 -1.6262852 138.92
6.2757158 5.470799 -1.5686085 138.92
6.9722457 6.0395484 -1.5155026 139.10001
7.4685087 6.4694252 -1.3886693 139.10001
7.9653254 6.8997812 -1.2323589 139.10001
12.251191 10.612314 -1.1334032 139.10001
3.1321375 2.7131426 -1.8449575 139.10001
17.6572 15.295146 -1.0894001 139.10001
3.2975731 2.8564475 -1.8222797 139.10001
7.5081367 6.5037522 -0.23062246 139.10001
3.0937195 2.6798639 -1.5982692 139.10001
7.5267887 6.5199089 0 139.10001
3.0214882 2.6172953 -1.4549537 139.10001
7.5353403 6.5273166 0.23145804 139.10001
3.8754194 3.3569934 -1.7324731 139.10001
4.1416483 3.5876081 -1.7098011 139.10001
4.4945803 3.8933277 -1.7050927 139.10001
4.9020519 4.2462907 -1.6977978 139.10001
5.2410979 4.5399814 -1.6429653 139.10001
5.7771735 5.0043445 -1.624622 139.10001
6.4057751 5.5488563 -1.5967517 139.10001
6.9781704 6.008533 -1.5129087 139.27
7.4456472 6.4110532 -1.3808755 139.27
7.3083649 6.2928462 -1.1278232 139.27
7.5715637 6.5194726 -0.69868082 139.27
3.1346354 2.6990688 -1.8417035 139.27
7.5439644 6.4957085 -0.46425045 139.27
3.3088307 2.8490591 -1.8238214 139.27
7.5304313 6.4840555 -0.23071529 139.27
3.0691864 2.642714 -1.5815372 139.27
7.5218511 6.4766679 0 139.27
3.0890565 2.6598229 -1.4836833 139.27
7.5440679 6.4957976 0.23113309 139.27
3.3095939 2.8497162 -1.4757394 139.27
4.1392536 3.5640922 -1.7044393 139.27
4.5017419 3.8762116 -1.7034389 139.27
4.8823733 4.2039533 -1.6866547 139.27
5.2574949 4.5269504 -1.6438875 139.27
5.7979259 4.9922872 -1.6262852 139.27
6.3358264 5.4554448 -1.575274 139.27
6.9835162 5.9750338 -1.5099905 139.45
7.4838104 6.4030809 -1.3842157 139.45
3.1458759 2.6915834 -1.8433305 139.45
3.2560654 2.7858603 -1.7899042 139.45
3.11711 2.6669714 -1.6019067 139.45
3.140238 2.6867597 -1.5042046 139.45
4.1489792 3.5498295 -1.7038436 139.45
4.5007496 3.8508012 -1.6984774 139.45
4.7926469 4.1005459 -1.6511995 139.45
5.2746482 4.5129418 -1.6448097 139.45
5.8031759 4.9651456 -1.6233745 139.45
6.4634457 5.5300665 -1.6026765 139.45
7.0448112 5.9913654 -1.5193934 139.62
7.4152708 6.3064284 -1.3680716 139.62
7.5721388 6.4398389 -1.1624362 139.62
7.5680213 6.4363375 -0.92687571 139.62
7.5671725 6.4356155 -0.69463497 139.62
3.1608074 2.6881559 -1.8473978 139.62
7.5835032 6.4495039 -0.46425045 139.62
3.2797809 2.7893388 -1.7983835 139.62
7.5714221 6.4392295 -0.23076172 139.62
3.113656 2.6480553 -1.5960867 139.62
7.5734625 6.4409647 0 139.62
3.1424694 2.6725602 -1.5014684 139.62
3.1190963 2.6526823 -1.3835456 139.62
4.1594934 3.5375035 -1.7038436 139.62
4.4755425 3.8062925 -1.6846955 139.62
4.9109106 4.1765575 -1.6876676 139.62
5.2939448 4.502315 -1.6466542 139.62
5.8223529 4.9517074 -1.624622 139.62
6.463356 5.4968581 -1.5986032 139.62
7.1243505 6.022675 -1.5326873 139.78999
7.4929376 6.3342652 -1.3789271 139.78999
7.5730081 6.4019542 -1.1596485 139.78999
14.343605 12.125578 -1.3133749 139.78999
3.1701646 2.6799455 -1.8482113 139.78999
17.742466 14.998855 -1.0834373 139.78999
3.2697208 2.7641068 -1.7883625 139.78999
7.5416322 6.3754296 -0.22927622 139.78999
3.1030035 2.6231697 -1.5866296 139.78999
7.5375547 6.3719831 0 139.78999
3.1503851 2.6632247 -1.5014684 139.78999
3.1226122 2.6397464 -1.3816249 139.78999
4.1728873 3.5276117 -1.7050351 139.78999
4.5205851 3.8215432 -1.6973748 139.78999
4.8804312 4.1257443 -1.6729791 139.78999
5.3013353 4.4815621 -1.6448097 139.78999
5.8444891 4.9407253 -1.6267011 139.78999
6.3370461 5.3571153 -1.5634243 139.78999
7.1622915 6.020535 -1.5372267 139.95
7.5121126 6.3145905 -1.3792055 139.95
7.5598235 6.3546953 -0.69058907 139.95
3.1874263 2.6793118 -1.8539057 139.95
17.82863 14.98653 -1.0861392 139.95
3.2703636 2.7490277 -1.7845082 139.95
23.520023 19.770645 -0.71336055 139.95
3.0974817 2.6037054 -1.5800823 139.95
23.290592 19.577787 0 139.95
3.1664419 2.6616726 -1.5055727 139.95
7.521142 6.3221807 0.22811569 139.95
3.1401246 2.6395504 -1.3861066 139.95
4.1768761 3.5110312 -1.7026521 139.95
4.5253525 3.8039563 -1.6951697 139.95
4.8134375 4.0461168 -1.6461344 139.95
5.3153195 4.4679928 -1.6452709 139.95
5.8702435 4.9344554 -1.6300277 139.95
6.1940093 5.2066088 -1.5245423 139.95
7.1852465 5.9992805 -1.5378752 140.14
7.478281 6.243948 -1.369185 140.14
7.5787373 6.3278232 -0.92111641 140.14
12.248824 10.227085 -1.1158246 140.14
3.2047088 2.6757531 -1.8587865 140.14
7.5635128 6.3151116 -0.45949891 140.14
3.3233767 2.7748342 -1.8084044 140.14
7.5205784 6.279264 -0.22746578 140.14
3.1032388 2.5910316 -1.5786273 140.14
7.5287461 6.2860837 0 140.14
3.2041037 2.6752481 -1.5192535 140.14
7.5313225 6.2882342 0.22779074 140.14
3.1852212 2.6594822 -1.4021124 140.14
4.5482726 3.797554 -1.6990286 140.14
4.831284 4.0338526 -1.6476539 140.14
5.3271189 4.4478474 -1.6443486 140.14
5.9000897 4.9262462 -1.6337701 140.14
6.2368884 5.2074542 -1.5308375 140.14
7.1852689 5.9653254 -1.5343086 140.3
7.5535936 6.2711143 -1.3797622 140.3
3.2093568 2.6644592 -1.8571595 140.3
19.644503 16.309181 -1.1906724 140.3
3.3197532 2.7561121 -1.8022377 140.3
23.015772 19.108061 -0.69451338 140.3
3.1133292 2.5847356 -1.5800823 140.3
22.948111 19.051889 0 140.3
3.2115619 2.66629 -1.5192535 140.3
7.5180855 6.2416348 0.22686231 140.3
3.3136349 2.7510328 -1.4552518 140.3
4.5337133 3.7639613 -1.689657 140.3
4.8306208 4.0104585 -1.6436019 140.3
5.339519 4.4329538 -1.6443486 140.3
5.921349 4.9159989 -1.6358492 140.3
6.2846746 5.2176371 -1.5389842 140.3
7.1506901 5.8987675 -1.5229601 140.48
7.5213127 6.2045026 -1.3702984 140.48
10.477971 8.6435175 -1.2672318 140.48
11.887598 9.8063507 -1.077598 140.48
3.209255 2.6473877 -1.8522787 140.48
7.5808191 6.2535906 -0.45828775 140.48
3.3212774 2.7397974 -1.7983835 140.48
7.5176058 6.2014446 -0.22625883 140.48
3.1243081 2.5773132 -1.5815372 140.48
7.5335169 6.21457 0 140.48
3.2242718 2.6597753 -1.5213056 140.48
7.5515385 6.2294364 0.2272801 140.48
3.3631866 2.7743695 -1.4731784 140.48
3.47279 2.8647838 -1.4047773 140.48
4.5381002 3.7435827 -1.6869006 140.48
4.9491644 4.0826783 -1.6795636 140.48
5.3549204 4.4173961 -1.6448097 140.48
5.9443097 4.9035964 -1.6379282 140.48
7.2032614 5.9063058 -1.5304177 140.64999
7.4707704 6.1256495 -1.3577728 140.64999
7.4424362 6.102417 -1.1255003 140.64999
11.79476 9.6710997 -1.0665765 140.64999
3.2170959 2.6378541 -1.8522787 140.64999
20.333914 16.67277 -1.2262621 140.64999
3.3079855 2.712379 -1.7868208 140.64999
23.626837 19.372797 -0.70936829 140.64999
3.2860894 2.6944251 -1.6593773 140.64999
23.620831 19.367872 0 140.64999
3.226336 2.6454306 -1.5185695 140.64999
7.5529804 6.1930575 0.22676946 140.64999
3.328913 2.7295384 -1.4546115 140.64999
4.5521612 3.7325394 -1.6880032 140.64999
4.9687366 4.07411 -1.6820961 140.64999
5.3755279 4.4076576 -1.6471153 140.64999
5.9497561 4.8784957 -1.6354333 140.64999
6.2890725 5.1567178 -1.5323187 140.64999
7.1687403 5.8425159 -1.5193934 140.82001
7.581027 6.1785297 -1.3744736 140.82001
10.478139 8.5396729 -1.2611009 140.82001
14.092196 11.485126 -1.271242 140.82001
3.2291572 2.6317599 -1.854719 140.82001
7.5852733 6.1819901 -0.45633125 140.82001
3.3203104 2.7060497 -1.7891333 140.82001
7.5341244 6.1403041 -0.22565535 140.82001
3.5236866 2.8718011 -1.7750463 140.82001
7.5284033 6.1356411 0 140.82001
3.2006638 2.6085379 -1.5028365 140.82001
7.5527234 6.1554623 0.2262124 140.82001
3.2562158 2.6538126 -1.4193988 140.82001
4.5617256 3.7178018 -1.6874518 140.82001
4.9148121 4.0055671 -1.6598099 140.82001
5.3855648 4.3892298 -1.6461931 140.82001
5.9596553 4.8571129 -1.6341859 140.82001
6.5359211 5.3267694 -1.5886049 140.82001
7.127244 5.7715282 -1.5067481 141
7.4711103 6.0499859 -1.3510925 141
7.60462 6.1581001 -1.1443167 141
12.481571 10.107377 -1.1230792 141
3.2303097 2.6158531 -1.8506517 141
7.5751576 6.1342421 -0.45456108 141
3.3374004 2.7025738 -1.7937584 141
23.971601 19.411819 -0.71614587 141
3.5037348 2.8372686 -1.7604969 141
23.903456 19.356636 0 141
3.1767106 2.5724497 -1.4877876 141
7.5487161 6.1128297 0.22551608 141
3.2645369 2.6435699 -1.4193988 141
4.5315485 3.6695757 -1.6720161 141
4.9935312 4.0436816 -1.6820961 141
5.4023523 4.3747387 -1.6471153 141
5.9657626 4.8309793 -1.631691 141
7.1612487 5.763968 -1.5103147 141.17
7.5137134 6.0476608 -1.355546 141.17
10.348609 8.3294201 -1.2393641 141.17
14.52578 11.691555 -1.303888 141.17
3.2252469 2.5959468 -1.8433305 141.17
17.824627 14.346741 -1.06704 141.17
3.3425293 2.6903453 -1.7922167 141.17
7.5403404 6.0690928 -0.22472692 141.17
3.4410243 2.7696223 -1.7248504 141.17
7.5190024 6.0519176 0 141.17
3.1989698 2.5747967 -1.4946281 141.17
7.5496864 6.0766149 0.22500545 141.17
3.9498656 3.1791799 -1.7132661 141.17
4.5364256 3.6512923 -1.6698111 141.17
5.0009851 4.0252085 -1.6805766 141.17
5.4031801 4.3489285 -1.6434264 141.17
5.9831181 4.8157105 -1.6325226 141.17
6.3968573 5.1487222 -1.5471309 141.17
7.1860242 5.7488589 -1.5119359 141.34
7.5285311 6.0228662 -1.3549893 141.34
12.69089 10.152782 -1.1364725 141.34
3.2557626 2.6046278 -1.856346 141.34
17.862436 14.290047 -1.0667604 141.34
3.3159111 2.6527472 -1.7737164 141.34
7.5411406 6.0329537 -0.22421627 141.34
3.5437858 2.8350482 -1.7721364 141.34
23.842985 19.074518 0 141.34
3.7422509 2.9938214 -1.7443027 141.34
7.5317726 6.0254593 0.22393775 141.34
4.5577478 3.6462235 -1.6736701 141.34
5.0113955 4.0091438 -1.6800702 141.34
5.4130206 4.3304462 -1.6425042 141.34
5.9912701 4.7930489 -1.6308593 141.34
7.2267623 5.7484264 -1.5171238 141.5
7.5329208 5.9919558 -1.3527626 141.5
7.79954 6.2040343 -1.1654561 141.5
10.680048 8.4952946 -1.2731769 141.5
14.311825 11.384139 -1.2787757 141.5
3.2501543 2.5852895 -1.8490248 141.5
7.5752406 6.0256186 -0.4513934 141.5
3.3261948 2.6457746 -1.7752581 141.5
7.5438747 6.000669 -0.22379848 141.5
3.558979 2.8309398 -1.7757739 141.5
7.5036469 5.9686704 0 141.5
3.7079427 2.9494309 -1.7244656 141.5
7.5266623 5.9869776 0.22328784 141.5
3.9562478 3.1469417 -1.7081443 141.5
4.2374468 3.3706176 -1.6895455 141.5
4.5709214 3.6358752 -1.6747726 141.5
5.0134864 3.9879072 -1.677031 141.5
5.4311848 4.3201594 -1.6443486 141.5
6.0153484 4.7848244 -1.6337701 141.5
6.5956025 5.2463789 -1.5878644 141.5
7.2922425 5.7611327 -1.5268511 141.69
7.5962634 6.0013204 -1.3605562 141.69
7.6984906 6.0820837 -1.1473366 141.69
10.7441 8.488224 -1.2774498 141.69
7.5864787 5.9935899 -0.67607975 141.69
3.2658777 2.5801604 -1.8530922 141.69
19.081224 15.074852 -1.1340269 141.69
3.4044583 2.6896441 -1.8122587 141.69
24.122046 19.057281 -0.71373194 141.69
3.5025644 2.7671514 -1.7430373 141.69
24.125408 19.059937 0 141.69
3.7530956 2.9650803 -1.7408825 141.69
7.557457 5.9706616 0.2236128 141.69
3.9413869 3.113837 -1.6972603 141.69
4.2306237 3.3423445 -1.6823965 141.69
4.5588169 3.6016285 -1.6659522 141.69
5.0312376 3.9748583 -1.6785506 141.69
5.4576974 4.3117766 -1.6480376 141.69
6.0235071 4.7587867 -1.631691 141.69
6.5790353 5.1976738 -1.5797176 141.69
7.2854667 5.718698 -1.5216632 141.87
7.6649327 6.0165586 -1.3694633 141.87
7.5770216 5.9475527 -0.67356849 141.87
3.2811534 2.5755284 -1.8571595 141.87
17.787987 13.962609 -1.0545557 141.87
3.4085362 2.6755171 -1.8099462 141.87
7.5541577 5.929606 -0.22296289 141.87
3.5405495 2.7791402 -1.757587 141.87
24.079762 18.901314 0 141.87
3.7594357 2.950954 -1.7395145 141.87
7.5227017 5.9049149 0.22203445 141.87
3.9749968 3.120158 -1.707504 141.87
4.2546196 3.3396468 -1.6877583 141.87
4.5852318 3.5991595 -1.6714649 141.87
5.0513101 3.9650056 -1.6810831 141.87
5.4681544 4.2922063 -1.6471153 141.87
6.0368886 4.7386317 -1.6312752 141.87
6.5690494 5.1563492 -1.5734226 141.87
7.2992907 5.6946287 -1.5210147 142.03999
7.5984278 5.9280043 -1.3544326 142.03999
7.6665874 5.9811797 -1.1371154 142.03999
10.929206 8.5265503 -1.2932415 142.03999
12.703867 9.9110737 -1.1267066 142.03999
3.291662 2.5680294 -1.8587865 142.03999
19.930613 15.549106 -1.1788402 142.03999
3.426645 2.6733382 -1.8153421 142.03999
24.250622 18.919413 -0.71410328 142.03999
3.5223403 2.7479959 -1.7444923 142.03999
23.733633 18.516077 0 142.03999
3.77262 2.9432547 -1.7415665 142.03999
7.5638356 5.9010167 0.22273079 142.03999
3.9782615 3.1036882 -1.7049431 142.03999
4.2630043 3.325834 -1.6871625 142.03999
4.6004381 3.5890868 -1.6731187 142.03999
5.0630522 3.9500008 -1.6810831 142.03999
5.4808655 4.2759628 -1.6471153 142.03999
6.0524645 4.7219024 -1.631691 142.03999
6.6974416 5.2250891 -1.6004547 142.03999
7.2927604 5.6548066 -1.5161511 142.21001
7.6785884 5.9539776 -1.3655665 142.21001
9.8820572 7.6625466 -1.4623373 142.21001
12.777365 9.9075689 -1.130613 142.21001
3.3064864 2.5638494 -1.8628539 142.21001
7.5719638 5.8713007 -0.44682822 142.21001
3.4199779 2.6518507 -1.8076336 142.21001
7.5591893 5.8613954 -0.22208089 142.21001
3.5422564 2.7466655 -1.7503121 142.21001
7.5343575 5.8421412 0 142.21001
3.7620285 2.9170768 -1.732674 142.21001
7.5465488 5.851594 0.2217095 142.21001
3.9934421 3.0965152 -1.707504 142.21001
4.2803974 3.3190203 -1.6901413 142.21001
4.6444912 3.6013386 -1.6852468 142.21001
5.0930977 3.949188 -1.6871612 142.21001
5.4919906 4.2584896 -1.6466542 142.21001
6.07727 4.7123151 -1.6346017 142.21001
6.6740851 5.1750855 -1.5911971 142.21001
7.3360806 5.6536231 -1.5216632 142.38
9.9488049 7.6671448 -1.4688417 142.38
11.08529 8.5429888 -1.3056891 142.38
7.5838323 5.8445554 -0.66952264 142.38
3.3198676 2.5584888 -1.8661077 142.38
18.335657 14.130555 -1.0795243 142.38
3.4278309 2.6416919 -1.8076336 142.38
7.5417051 5.8120899 -0.22105961 142.38
3.5607197 2.7441039 -1.7554045 142.38
7.5294805 5.8026686 0 142.38
3.7632241 2.9001658 -1.7292539 142.38
7.5559587 5.8230743 0.2214774 142.38
4.0026121 3.0846527 -1.707504 142.38
2.3404191 1.8036672 0.13779378 142.38
4.2826653 3.3004785 -1.6871625 142.38
2.3451567 1.8073183 0.20703721 142.38
4.649065 3.5828481 -1.6830417 142.38
2.3486052 1.8099759 0.27663219 142.38
5.0772076 3.9128003 -1.6780441 142.38
2.3428388 1.805532 0.34589678 142.38
5.5030603 4.2409878 -1.6461931 142.38
2.2981987 1.7711296 0.40777719 142.38
6.0896754 4.6930685 -1.6341859 142.38
2.2869563 1.7624656 0.47436464 142.38
6.6567187 5.1300664 -1.5834208 142.38
2.293112 1.7672094 0.54545808 142.38
7.3804445 5.6509447 -1.5271753 142.56
7.6487699 5.8563919 -1.3538759 142.56
8.2615452 6.325572 -1.2167947 142.56
11.00772 8.4282217 -1.2934273 142.56
14.23642 10.900322 -1.2538029 142.56
3.317734 2.5402713 -1.8604134 142.56
2.3222802 1.7780875 -0.13639627 142.56
3.4610231 2.6499827 -1.820738 142.56
2.3003643 1.7613074 -0.067264885 142.56
3.6018655 2.7578206 -1.771409 142.56
2.2962203 1.7581344 0 142.56
3.8021607 2.9111798 -1.7429347 142.56
2.3083019 1.767385 0.067496993 142.56
3.9821947 3.0490253 -1.6946993 142.56
4.2930126 3.2870078 -1.6871625 142.56
4.6480861 3.5588748 -1.6786315 142.56
2.317914 1.7747446 0.27235916 142.56
5.1232715 3.9227076 -1.6891872 142.56
2.2932963 1.7558957 0.33776623 142.56
5.5179014 4.2248616 -1.6466542 142.56
2.272301 1.7398204 0.40221027 142.56
6.1059422 4.6751032 -1.6346017 142.56
2.2783792 1.7444742 0.47144645 142.56
6.6447129 5.0876212 -1.5767553 142.56
2.2799261 1.7456586 0.54101443 142.56
2.3224998 1.7679899 -0.47955248 142.72
2.3244271 1.7694571 -0.41056064 142.72
2.3203192 1.7663299 -0.34101844 142.72
2.3070161 1.7562031 -0.27050132 142.72
3.3393528 2.5420635 -1.8685482 142.72
2.3362575 1.7784628 -1.2264159 142.72
2.3376856 1.7795501 -1.1472329 142.72
2.3154433 1.7626181 0 142.72
3.8057895 2.8971357 -1.7408825 142.72
4.0253692 3.0642896 -1.7094247 142.72
2.2890849 1.742553 0.13416027 142.72
2.3318639 1.7751184 -0.91447544 142.72
2.2812281 1.736572 0.2004801 142.72
2.3251789 1.7700293 -0.83793753 142.72
2.3277121 1.7719576 -0.76583236 142.72
2.3320346 1.7752482 -0.69444448 142.72
2.3286657 1.7726836 -0.6220718 142.72
2.2785308 1.7345188 0.47047374 142.72
2.3098137 1.7583327 -0.54693931 142.72
2.2801006 1.7357136 0.53990352 142.72
2.3104229 1.7479931 -0.47598583 142.89
2.3122933 1.7494081 -0.40749884 142.89
2.3033714 1.7426583 -0.33776623 142.89
2.2963362 1.7373356 -0.26864347 142.89
2.3473332 1.7759184 -1.3105055 142.89
2.3282783 1.7615019 -1.2194782 142.89
2.3024979 1.7419972 -0.067032777 142.89
2.3266127 1.7602417 -1.1392306 142.89
2.3047132 1.7436733 0 142.89
2.3170977 1.7530431 -1.0575262 142.89
2.3224492 1.7570919 -0.9840396 142.89
2.3085842 1.7466019 0.13499877 142.89
2.3173275 1.7532169 -0.90673071 142.89
2.2927349 1.7346108 0.20103815 142.89
2.3028233 1.7422435 -0.82801461 142.89
2.2915721 1.7337312 0.26808614 142.89
2.3159866 1.7522024 -0.76026088 142.89
2.2859457 1.7294744 0.33521092 142.89
2.3109078 1.7483599 -0.68660545 142.89
2.2886016 1.7314838 0.40332365 142.89
2.3151939 1.7516026 -0.61708188 142.89
2.2836673 1.7277507 0.47047374 142.89
2.304049 1.7431707 -0.54434717 142.89
2.278971 1.7241975 0.53842229 142.89
2.3017046 1.730054 -0.47306767 143.07001
2.3146114 1.7397553 -0.40694216 143.07001
2.3088348 1.7354134 -0.33776623 143.07001
2.2970073 1.7265234 -0.26808614 143.07001
2.3061471 1.7333932 -0.20173572 143.07001
2.3295326 1.7509706 -1.2974899 143.07001
2.3044779 1.7321385 -0.13443977 143.07001
2.3323255 1.7530699 -1.2187073 143.07001
2.3015659 1.7299497 -0.066847086 143.07001
2.3172388 1.7417302 -1.1319559 143.07001
2.2989886 1.7280126 0 143.07001
2.3090727 1.7355922 -1.0513699 143.07001
2.2983692 1.727547 0.066754244 143.07001
2.3188701 1.7429563 -0.9801982 143.07001
2.2964928 1.7261367 0.13397394 143.07001
2.3106146 1.7367511 -0.90196472 143.07001
2.2886038 1.720207 0.20020108 143.07001
2.3144326 1.7396209 -0.83021969 143.07001
2.2938237 1.7241304 0.26771456 143.07001
2.3106534 1.7367804 -0.75671536 143.07001
2.2913678 1.7222844 0.33521092 143.07001
2.3163888 1.7410914 -0.68660545 143.07001
2.2829478 1.7159556 0.40137523 143.07001
2.3159938 1.7407943 -0.61583441 143.07001
2.2906616 1.7217536 0.47079799 143.07001
2.3032296 1.7312002 -0.54286593 143.07001
2.2749498 1.709944 0.53620046 143.07001
2.2941787 1.7137684 -0.47047374 143.24001
2.3118296 1.7269536 -0.40555042 143.24001
2.3076079 1.7237999 -0.33683702 143.24001
2.30212 1.7197005 -0.26808614 143.24001
2.31128 1.7265431 -0.20173572 143.24001
2.324471 1.7363969 -1.2917956 143.24001
2.3032048 1.7205108 -0.1340671 143.24001
2.3212531 1.7339931 -1.2102281 143.24001
2.300281 1.7183268 -0.066661403 143.24001
2.310456 1.7259276 -1.1261359 143.24001
2.3057079 1.7223806 0 143.24001
2.3051782 1.721985 -1.0472656 143.24001
2.2970774 1.7159336 0.066568561 143.24001
2.3179595 1.7315327 -0.97763729 143.24001
2.2968025 1.7157283 0.13369444 143.24001
2.3157573 1.7298877 -0.90196472 143.24001
2.2984929 1.7169909 0.20061962 143.24001
2.3103426 1.7258428 -0.82691205 143.24001
2.2941432 1.7137417 0.2671572 143.24001
2.3064961 1.7229694 -0.7536763 143.24001
2.2853277 1.7071564 0.33358482 143.24001
2.3168674 1.7307168 -0.68522215 143.24001
2.2832689 1.7056185 0.40054017 143.24001
2.3133123 1.7280611 -0.61375529 143.24001
2.2941787 1.7137684 0.47047374 143.24001
2.3020575 1.7196538 -0.5413847 143.24001
2.2784386 1.7020104 0.53583014 143.24001
2.302721 1.7089047 -0.47112221 143.42
2.3108819 1.7149611 -0.40443704 143.42
2.3082266 1.7129905 -0.33614013 143.42
2.3075111 1.7124597 -0.26808614 143.42
2.3054779 1.7109506 -0.20075913 143.42
2.31671 1.7192862 -1.2844744 143.42
2.3053899 1.7108854 -0.13388076 143.42
2.3192794 1.7211931 -1.2063738 143.42
2.3024569 1.7087086 -0.066568561 143.42
2.3128748 1.7164401 -1.124681 143.42
2.3014712 1.7079772 0 143.42
2.3105767 1.7147346 -1.0472656 143.42
2.3024569 1.7087086 0.066568561 143.42
2.3173015 1.7197254 -0.97507632 143.42
2.2957642 1.7037419 0.13332176 143.42
2.316581 1.7191906 -0.90017748 143.42
2.2990692 1.7061946 0.20020108 143.42
2.3095777 1.7139933 -0.82470697 143.42
2.3027139 1.7088994 0.26752877 143.42
2.3056829 1.7111027 -0.75165027 143.42
2.2874892 1.6976008 0.3331202 143.42
2.3160419 1.7187905 -0.68337762 143.42
2.280664 1.6925356 0.39914846 143.42
2.3124459 1.7161217 -0.61209202 143.42
2.2947969 1.7030241 0.46950102 143.42
2.3106053 1.7147558 -0.54212534 143.42
2.2774613 1.690159 0.53434896 143.42
2.3061931 1.7008935 -0.47079799 143.59
2.3095844 1.7033948 -0.40332365 143.59
2.3069041 1.7014179 -0.33521092 143.59
2.3061714 1.7008777 -0.26734298 143.59
2.310544 1.7041026 -0.20075913 143.59
2.3247418 1.7145739 -1.2861012 143.59
2.3056326 1.7004802 -0.13360126 143.59
2.3288317 1.7175902 -1.2086864 143.59
2.3059072 1.7006829 -0.066522136 143.59
2.3104608 1.7040411 -1.1210437 143.59
2.3033097 1.6987668 0 143.59
2.312629 1.7056403 -1.0458976 143.59
2.3059072 1.7006829 0.066522136 143.59
2.3284934 1.7173408 -0.97763729 143.59
2.2992013 1.6957369 0.1332286 143.59
2.3139892 1.7066435 -0.89719874 143.59
2.3025157 1.6981815 0.20006156 143.59
2.3115587 1.7048508 -0.8236044 143.59
2.3029664 1.6985136 0.26697141 143.59
2.3091924 1.7031057 -0.75114381 143.59
2.3005095 1.6967016 0.33428171 143.59
2.3179991 1.7096008 -0.68245542 143.59
2.2952392 1.6928147 0.40081853 143.59
2.3143787 1.7069306 -0.61126035 143.59
2.2966633 1.6938651 0.46885252 143.59
2.3109376 1.7043928 -0.54101443 143.59
2.2887931 1.6880605 0.53583014 143.59
2.3099332 1.6924736 -0.47047374 143.77
2.3165219 1.6973011 -0.403602 143.77
2.3042259 1.6882919 -0.3340494 143.77
2.3115036 1.6936243 -0.26734298 143.77
2.3094487 1.6921186 -0.20020108 143.77
2.3286428 1.7061821 -1.2852877 143.77
2.3077404 1.6908669 -0.13341494 143.77
2.3297501 1.7069933 -1.2063738 143.77
2.3096259 1.6922485 -0.066475712 143.77
2.3173056 1.6978753 -1.1217711 143.77
2.3134749 1.6950686 0 143.77
2.3134282 1.6950343 -1.0438455 143.77
2.3080132 1.6910667 0.066429295 143.77
2.3247068 1.7032981 -0.97379589 143.77
2.3029058 1.6873246 0.13313544 143.77
2.3147192 1.6959803 -0.89541149 143.77
2.3014019 1.6862228 0.19950351 143.77
2.3138015 1.695308 -0.8225019 143.77
2.3098972 1.6924473 0.2671572 143.77
2.3129709 1.6946993 -0.75063729 143.77
2.3058283 1.689466 0.33428171 143.77
2.3186491 1.6988596 -0.68107206 143.77
2.2973509 1.6832545 0.40026185 143.77
2.3181517 1.6984951 -0.61084455 143.77
2.2971976 1.6831423 0.4678798 143.77
2.3162806 1.6971244 -0.54101443 143.77
2.294085 1.6808617 0.53583014 143.77
2.308563 1.6809657 -0.46917677 143.94
2.3199468 1.6892546 -0.40332365 143.94
2.3172543 1.6872942 -0.33521092 143.94
2.3132989 1.684414 -0.26697141 143.94
2.3128464 1.6840845 -0.20006156 143.94
2.3322179 1.6981899 -1.2844744 143.94
2.311132 1.6828363 -0.13332176 143.94
2.3333127 1.698987 -1.205603 143.94
2.3049386 1.6783266 -0.066197187 143.94
2.3178148 1.6877024 -1.1195887 143.94
2.3136437 1.6846652 0 143.94
2.3199666 1.6892689 -1.0445296 143.94
2.3297503 1.696393 -0.97379589 143.94
2.312747 1.6840123 0.13341494 143.94
2.3181977 1.6879811 -0.89481574 143.94
2.3063951 1.679387 0.19950351 143.94
2.3188214 1.6884353 -0.8225019 143.94
2.3084695 1.6808975 0.26641408 143.94
2.3148608 1.6855513 -0.74962431 143.94
2.3092251 1.6814477 0.3340494 143.94
2.3221061 1.690827 -0.68061095 143.94
2.303936 1.6775966 0.40054017 143.94
2.3231809 1.6916096 -0.61084455 143.94
2.3069677 1.679804 0.46885252 143.94
2.3181283 1.6879306 -0.54027379 143.94
2.2974732 1.6728908 0.53545988 143.94
2.310051 1.6721979 -0.4685283 144.10001
2.3246551 1.6827695 -0.40332365 144.10001
2.3187389 1.6784871 -0.3347463 144.10001
2.3163805 1.6767799 -0.26678565 144.10001
2.3240049 1.6822989 -0.20061962 144.10001
2.3339911 1.6895278 -1.2828474 144.10001
2.3222957 1.6810617 -0.13369444 144.10001
2.3365531 1.6913824 -1.2048322 144.10001
2.3209538 1.6800904 -0.066522136 144.10001
2.3225188 1.6812233 -1.1195887 144.10001
2.3167191 1.677025 0 144.10001
2.32163 1.6805798 -1.0431614 144.10001
2.3160949 1.6765732 0.06638287 144.10001
2.3329437 1.6887695 -0.97315562 144.10001
2.3093491 1.67169 0.1329491 144.10001
2.3229024 1.6815009 -0.89481574 144.10001
2.3143079 1.6752796 0.19978254 144.10001
2.32197 1.6808261 -0.82195061 144.10001
2.3147674 1.6756122 0.26659986 144.10001
2.3148568 1.6756769 -0.74810481 144.10001
2.3139117 1.6749927 0.3340494 144.10001
2.3268187 1.6843358 -0.68061095 144.10001
2.3070076 1.669995 0.40026185 144.10001
2.3263111 1.6839684 -0.61042875 144.10001
2.3116496 1.6733552 0.46885252 144.10001
2.3260169 1.6837555 -0.54101443 144.10001
2.2957675 1.6618586 0.53397864 144.10001
2.3152928 1.6649325 -0.4685283 144.28
2.3299301 1.6754582 -0.40332365 144.28
2.3288388 1.6746734 -0.33544323 144.28
2.3232536 1.670657 -0.26697141 144.28
2.3276587 1.6738247 -0.2004801 144.28
2.3407707 1.6832538 -1.2836609 144.28
2.3210773 1.6690922 -0.13332176 144.28
2.344852 1.6861885 -1.2063738 144.28
2.3294673 1.6751254 -0.066614978 144.28
2.3277891 1.6739185 -1.1195887 144.28
2.3252237 1.6720738 0 144.28
2.3238466 1.6710835 -1.0417933 144.28
2.3294673 1.6751254 0.066614978 144.28
2.3397758 1.6825383 -0.97379589 144.28
2.3243215 1.671425 0.1335081 144.28
2.3312736 1.6764243 -0.89600724 144.28
2.3211794 1.6691655 0.19992206 144.28
2.327239 1.6735231 -0.82195061 144.28
2.3248703 1.6718197 0.2671572 144.28
2.3232512 1.6706555 -0.74911779 144.28
2.3191624 1.667715 0.3340494 144.28
2.3305187 1.6758815 -0.68014979 144.28
2.3154585 1.6650516 0.40081853 144.28
2.3315899 1.6766517 -0.61042875 144.28
2.3233042 1.6706935 0.47014949 144.28
2.3328907 1.6775873 -0.5413847 144.28
2.3057642 1.6580805 0.53508955 144.28
2.3266454 1.6626453 -0.46982527 144.45
2.3316681 1.6662347 -0.40276694 144.45
2.3257165 1.6619816 -0.33428171 144.45
2.32658 1.6625987 -0.26678565 144.45
2.3358612 1.6692311 -0.20075913 144.45
2.3427818 1.6741766 -1.2820339 144.45
2.3292704 1.6645212 -0.1335081 144.45
2.3498447 1.6792238 -1.2063738 144.45
2.3246665 1.6612312 -0.066336453 144.45
2.3342612 1.6680877 -1.1203161 144.45
2.3334291 1.667493 0 144.45
2.3318527 1.6663666 -1.0431614 144.45
2.3295469 1.6647187 0.066475712 144.45
2.3478408 1.6777918 -0.97507632 144.45
2.3292704 1.6645212 0.1335081 144.45
2.3346841 1.6683898 -0.89541149 144.45
2.327745 1.663431 0.20006156 144.45
2.3353226 1.6688462 -0.82305312 144.45
2.3314407 1.6660721 0.26734298 144.45
2.3313465 1.6660048 -0.75013077 144.45
2.3160193 1.6550518 0.33288789 144.45
2.3386476 1.6712223 -0.68107206 144.45
2.3236113 1.6604772 0.40137523 144.45
2.3349628 1.668589 -0.61001289 144.45
2.3282511 1.6637927 0.47014949 144.45
2.3346598 1.6683726 -0.54064411 144.45
2.31707 1.6558026 0.53657079 144.45
2.3331773 1.6568774 -0.47014949 144.62
2.3414462 1.6627494 -0.403602 144.62
2.332257 1.6562239 -0.33451402 144.62
2.3379974 1.6603003 -0.26752877 144.62
2.3408036 1.6622931 -0.20075913 144.62
2.3522079 1.6703917 -1.2844744 144.62
2.3358278 1.6587596 -0.13360126 144.62
2.3548167 1.6722443 -1.2063738 144.62
2.334476 1.6577995 -0.066475712 144.62
2.3422382 1.6633118 -1.1217711 144.62
2.3383663 1.6605623 0 144.62
2.3413835 1.6627049 -1.0452136 144.62
2.3361061 1.6589572 0.066522136 144.62
2.3512638 1.6697212 -0.9744361 144.62
2.3439722 1.6645433 0.1340671 144.62
2.3458505 1.6658771 -0.89779449 144.62
2.3359234 1.6588275 0.2003406 144.62
2.3433988 1.6641361 -0.82415569 144.62
2.3363738 1.6591473 0.26734298 144.62
2.3362792 1.6590801 -0.75013077 144.62
2.3290179 1.6539235 0.3340494 144.62
2.3451827 1.6654029 -0.68153316 144.62
2.3317573 1.655869 0.40193191 144.62
2.3414984 1.6627864 -0.61042875 144.62
2.3363955 1.6591628 0.47079799 144.62
2.3428047 1.6637142 -0.5413847 144.62
2.3187678 1.6466446 0.53583014 144.62
2.3415964 1.6518146 -0.47079799 144.8
2.3531318 1.6599519 -0.40471539 144.8
2.3406951 1.6511788 -0.33497861 144.8
2.3432019 1.6529471 -0.26752877 144.8
2.344384 1.6537809 -0.20061962 144.8
2.3589368 1.6640469 -1.2852877 144.8
2.3442924 1.6537164 -0.1337876 144.8
2.3660905 1.6690934 -1.2094572 144.8
2.344574 1.653915 -0.066614978 144.8
2.3504968 1.658093 -1.123226 144.8
2.3501086 1.6578194 0 144.8
2.3512027 1.658591 -1.0472656 144.8
2.344574 1.653915 0.066614978 144.8
2.3611426 1.6656029 -0.9763568 144.8
2.3508224 1.6583228 0.13416027 144.8
2.3510725 1.6584991 -0.89779449 144.8
2.344384 1.6537809 0.20061962 144.8
2.3533282 1.6600906 -0.82580954 144.8
2.3432019 1.6529471 0.26752877 144.8
2.3478038 1.6561935 -0.75215679 144.8
2.3374486 1.6488887 0.33451402 144.8
2.3519933 1.6591488 -0.68199432 144.8
2.3369479 1.6485354 0.40193191 144.8
2.3531048 1.6599329 -0.61209202 144.8
2.343209 1.6529522 0.47112221 144.8
2.3432016 1.6529469 -0.54027379 144.8
2.3351717 1.6472824 0.53842229 144.8
2.346487 1.6448597 -0.47079799 144.97
2.3629119 1.6563733 -0.40555042 144.97
2.3520906 1.6487875 -0.33590782 144.97
2.351357 1.6482735 -0.26790035 144.97
2.3558154 1.6513987 -0.20117767 144.97
2.3668561 1.659138 -1.2869147 144.97
2.3540967 1.6501938 -0.1340671 144.97
2.3740549 1.6641843 -1.2109989 144.97
2.3494711 1.6469513 -0.066614978 144.97
2.3584571 1.6532505 -1.124681 144.97
2.3648434 1.6577272 0 144.97
2.3576524 1.6526864 -1.0479497 144.97
2.3576572 1.6526898 0.066847086 144.97
2.3707287 1.6618527 -0.9782775 144.97
2.3590043 1.6536341 0.1343466 144.97
2.3622365 1.6558996 -0.90017748 144.97
2.3525479 1.6491082 0.20089865 144.97
2.3598177 1.6542042 -0.82636082 144.97
2.3546183 1.6505595 0.26827192 144.97
2.3558762 1.6514413 -0.75316983 144.97
2.3520906 1.6487875 0.33590782 144.97
2.3648736 1.6577485 -0.68429989 144.97
2.3531814 1.6495522 0.40388033 144.97
2.3628254 1.6563125 -0.61333948 144.97
2.3561833 1.6516566 0.47274342 144.97
2.3561428 1.6516281 -0.54212534 144.97
2.3464863 1.6448592 0.53990352 144.97
2.3532627 1.6386076 -0.47112221 145.14999
2.3729799 1.652337 -0.40638545 145.14999
2.3637795 1.6459306 -0.33683702 145.14999
2.359792 1.6431541 -0.26827192 145.14999
2.3675411 1.6485498 -0.20173572 145.14999
2.3825526 1.6590025 -1.2926091 145.14999
2.3658273 1.6473565 -0.13443977 145.14999
2.3853292 1.660936 -1.2140822 145.14999
2.3677604 1.6487025 -0.066986352 145.14999
2.3697548 1.6500913 -1.1275909 145.14999
2.371681 1.6514325 0 145.14999
2.3690021 1.6495672 -1.0506859 145.14999
2.3677604 1.6487025 0.066986352 145.14999
2.372828 1.6522312 -0.97699708 145.14999
2.3658273 1.6473565 0.13443977 145.14999
2.3674269 1.6484704 -0.90017748 145.14999
2.372453 1.65197 0.20215426 145.14999
2.3728917 1.6522754 -0.82911718 145.14999
2.3712316 1.6511196 0.26957241 145.14999
2.3689919 1.64956 -0.75570232 145.14999
2.3670399 1.6482009 0.33730164 145.14999
2.3764584 1.654759 -0.68614435 145.14999
2.3648531 1.6466783 0.40499371 145.14999
2.3728335 1.652235 -0.61458695 145.14999
2.3726976 1.6521405 0.47501311 145.14999
2.3709974 1.6509565 -0.54434717 145.14999
2.377449 1.6554489 0.5458284 145.14999
2.3689022 1.6403056 -0.47339189 145.3
2.3854389 1.6517563 -0.40777719 145.3
2.374613 1.64426 -0.33776623 145.3
2.375546 1.644906 -0.26957241 145.3
2.3784099 1.6468891 -0.20229377 145.3
2.3943982 1.6579599 -1.2966764 145.3
2.3734169 1.6434318 -0.13462611 145.3
2.4002903 1.6620398 -1.2194782 145.3
2.3753562 1.6447746 -0.067079194 145.3
2.3832564 1.6502451 -1.1319559 145.3
2.3825734 1.649772 0 145.3
2.3810382 1.6487091 -1.0541061 145.3
2.3802876 1.6481893 0.06721846 145.3
2.3849342 1.6514068 -0.9801982 145.3
2.3832719 1.6502557 0.13518511 145.3
2.3811524 1.6487881 -0.90375197 145.3
2.3767695 1.6457533 0.20215426 145.3
2.3724673 1.6427742 -0.82746333 145.3
2.3804576 1.648307 0.27012974 145.3
2.374893 1.6444538 -0.75620884 145.3
2.3795125 1.6476526 0.33846313 145.3
2.3855822 1.6518555 -0.68752772 145.3
2.3805542 1.6483738 0.40694216 145.3
2.386801 1.6526994 -0.61708188 145.3
2.3672795 1.6391821 0.47306767 145.3
2.3866224 1.6525757 -0.54693931 145.3
2.4060128 1.6660023 0.55138296 145.3
2.3954699 1.6469765 -0.47760704 145.49001
2.4039595 1.6528133 -0.41000396 145.49001
2.3849633 1.6397527 -0.33846313 145.49001
2.3908331 1.6437886 -0.2706871 145.49001
2.4002986 1.6502963 -0.2036889 145.49001
2.4059055 1.6541513 -1.2999303 145.49001
2.3953164 1.6468709 -0.13555777 145.49001
2.4103506 1.6572076 -1.2217908 145.49001
2.3873878 1.6414198 -0.067264885 145.49001
2.399462 1.6497211 -1.1370481 145.49001
2.3913274 1.6441283 0 145.49001
2.3988817 1.6493223 -1.0595784 145.49001
2.3972735 1.6482165 0.06754341 145.49001
2.3997653 1.6499298 -0.9840396 145.49001
2.3607447 1.6231016 0.13360126 145.49001
2.3991928 1.6495361 -0.90851796 145.49001
2.3871462 1.6412536 0.20257279 145.49001
2.3984966 1.6490575 -0.83462989 145.49001
2.4203699 1.6640962 0.27403122 145.49001
2.3978705 1.648627 -0.76178038 145.49001
2.4258857 1.6678885 0.34427068 145.49001
2.4038761 1.6527561 -0.69121665 145.49001
2.4051647 1.6536421 -0.62040848 145.49001
2.4066656 1.6546739 -0.55027205 145.49001
2.3987164 1.6387484 -0.47728279 145.66
2.4144216 1.6494777 -0.34194764 145.66
2.4183459 1.6521589 -1.3039976 145.66
2.4259238 1.6573359 -1.2271867 145.66
2.4243438 1.6562566 -1.1465054 145.66
2.4379048 1.665521 -1.0746273 145.66
2.4187307 1.6524218 -0.9898017 145.66
7.400116 5.0234513 -1.4694604 145.83
7.6606684 5.2003231 -1.3012685 145.83
11.16575 7.5796919 -1.2590573 145.83
12.112973 8.2227001 -1.023746 145.83
2.4398658 1.6562643 -1.3129458 145.83
15.719584 10.670991 -0.88601679 145.83
3.5485239 2.4088593 -1.7914459 145.83
7.5717483 5.1399612 -0.21247162 145.83
7.557241 5.1301131 0 145.83
3.4957259 2.373018 -1.3183936 145.83
11.126765 7.5022726 -1.2519975 146.00999
7.5962281 5.1217918 -0.64064348 146.00999
22.266272 15.013136 -1.2523489 146.00999
3.5667853 2.4049213 -1.7968417 146.00999
7.5547018 5.0937924 -0.21154319 146.00999
7.5534215 5.0929289 0 146.00999
7.5629911 5.0993814 0.21177529 146.00999
3.5740452 2.4098165 -1.4565322 146.00999
5.3035231 3.5759251 -1.6744986 146.00999
5.8121643 3.9188786 -1.6609489 146.00999
6.2707801 4.2281022 -1.6075732 146.00999
7.7670727 5.2054935 -1.3140724 146.17
8.1566477 5.4665871 -1.1482658 146.17
10.421476 6.9844756 -1.1704384 146.17
14.447025 9.6823988 -1.2161343 146.17
3.4741337 2.3283651 -1.8620404 146.17
7.5676966 5.0718713 -0.42484084 146.17
3.4861045 2.3363879 -1.7529036 146.17
20.926165 14.024719 -0.58486557 146.17
3.779197 2.5328186 -1.7765013 146.17
59.205158 39.679306 0 146.17
7.5323563 5.0481863 0.21052191 146.17
4.4993896 3.0154917 -1.6901413 146.17
4.8581557 3.2559369 -1.6769776 146.17
5.8602676 3.9275525 -1.6715547 146.17
6.2614365 4.1964159 -1.6021675 146.17
6.2890086 4.2148948 -1.4264117 146.17
7.3838315 4.9132395 -1.4571391 146.36
7.9920487 5.3179507 -1.349144 146.36
8.0705414 5.3701801 -1.1336309 146.36
10.535764 7.0105519 -1.1806566 146.36
7.5924921 5.0520835 -0.63771367 146.36
3.4863992 2.3198681 -1.8644807 146.36
22.327627 14.856918 -1.2506719 146.36
3.5598993 2.3687756 -1.78605 146.36
7.5274153 5.008781 -0.20991842 146.36
3.7860243 2.5192401 -1.7757739 146.36
7.55442 5.0267501 0 146.36
3.9726551 2.6434252 -1.7367783 146.36
3.7275147 2.4803076 -1.5128729 146.36
4.464859 2.9709404 -1.6734604 146.36
4.8721271 3.2419388 -1.6780802 146.36
5.853817 3.8951602 -1.6660212 146.36
6.2948623 4.1886339 -1.6071573 146.36
6.8920121 4.5859804 -1.5597212 146.36
7.3056097 4.8336439 -1.2311252 146.50999
8.1491833 5.3917818 -1.1426905 146.50999
10.449453 6.9137201 -1.1689521 146.50999
13.560795 8.972291 -1.1370305 146.50999
3.5016031 2.3167818 -1.8693616 146.50999
7.5743341 5.0114412 -0.42353651 146.50999
3.6445827 2.411382 -1.825363 146.50999
7.583858 5.0177426 -0.21112539 146.50999
3.6170375 2.393157 -1.6935688 146.50999
59.237751 39.193745 0 146.50999
3.9748597 2.6299047 -1.7347262 146.50999
7.5505075 4.995677 0.21019696 146.50999
3.6139007 2.3910818 -1.4642152 146.50999
3.5682254 2.3608615 -1.3350747 146.50999
4.845324 3.2058342 -1.6659522 146.50999
5.8656178 3.8808956 -1.6664823 146.50999
6.3090696 4.1742988 -1.6079891 146.50999
6.9007163 4.5657525 -1.5589806 146.50999
7.4145064 4.8704205 -1.4574634 146.7
13.702199 9.0006618 -1.1463779 146.7
3.5046854 2.3021481 -1.8669212 146.7
22.525602 14.796556 -1.2568208 146.7
3.6510165 2.3982697 -1.8245922 146.7
7.575388 4.9761 -0.21042906 146.7
3.8071356 2.5008206 -1.7786838 146.7
7.559042 4.9653625 0 146.7
3.9851298 2.6177411 -1.7354102 146.7
4.9523401 3.2530794 -1.6990286 146.7
5.3817782 3.5351677 -1.6856416 146.7
5.7792335 3.796247 -1.6383541 146.7
6.3375931 4.1630206 -1.6117314 146.7
6.9108906 4.5396066 -1.5578697 146.7
7.3859544 4.8203554 -1.4490331 146.87
7.9909692 5.2152114 -1.341072 146.87
7.6372623 4.9843688 -1.0664957 146.87
10.541048 6.8794904 -1.1743399 146.87
13.854153 9.041749 -1.1568414 146.87
3.4533582 2.2537932 -1.8360093 146.87
22.492445 14.679428 -1.2525352 146.87
3.6519344 2.3833919 -1.8215089 146.87
7.5599799 4.9339314 -0.20959347 146.87
3.5789578 2.3357644 -1.6688346 146.87
7.5519676 4.9287024 0 146.87
3.9881577 2.602824 -1.7333581 146.87
7.5499334 4.9273744 0.20931494 146.87
3.6101689 2.3561339 -1.3452023 146.87
4.886301 3.1889865 -1.6731187 146.87
5.3063698 3.4631393 -1.658797 146.87
5.8719587 3.8322644 -1.6614101 146.87
6.914454 4.5126367 -1.5556479 146.87
7.4598365 4.8370733 -1.4607059 147.03999
8.0629082 5.2281146 -1.3505358 147.03999
7.6220164 4.9422336 -1.0623143 147.03999
10.504605 6.8113484 -1.1680232 147.03999
14.950614 9.6942091 -1.2459902 147.03999
3.4385676 2.2296205 -1.8246206 147.03999
7.5985746 4.9270334 -0.42232534 147.03999
3.5552437 2.3052752 -1.7698622 147.03999
7.5812964 4.9158301 -0.20977916 147.03999
3.8422296 2.4913611 -1.788141 147.03999
7.5632019 4.9040976 0 147.03999
4.0021706 2.5950694 -1.7360942 147.03999
7.5544538 4.8984251 0.20903641 147.03999
4.260654 2.7626739 -1.7158271 147.03999
5.0296283 3.2612889 -1.7188746 147.03999
5.2695432 3.4168534 -1.6441084 147.03999
5.8114567 3.7682383 -1.6411208 147.03999
6.2669821 4.0636082 -1.5876137 147.03999
6.9063749 4.4782004 -1.5508339 147.03999
7.4501066 4.7975864 -1.4558423 147.22
7.944416 5.1159029 -1.3279897 147.22
10.537671 6.785861 -1.1693237 147.22
7.598691 4.8932691 -0.63199365 147.22
3.4762781 2.2385912 -1.84089 147.22
22.499392 14.488755 -1.24797 147.22
3.6679771 2.3620381 -1.8222797 147.22
7.5597191 4.8681726 -0.20875789 147.22
3.8265424 2.4641483 -1.7772288 147.22
7.5533485 4.8640704 0 147.22
4.0087233 2.5814657 -1.7354102 147.22
4.2693119 2.749275 -1.7158271 147.22
5.0414653 3.2465127 -1.7194258 147.22
5.3697195 3.457896 -1.6719661 147.22
5.8739886 3.7826259 -1.6554155 147.22
6.1892552 3.9856458 -1.5647434 147.22
6.9171042 4.4543529 -1.5500933 147.22
7.4535017 4.7703795 -1.4538968 147.38
8.1271534 5.201529 -1.3561027 147.38
7.6817822 4.9164834 -0.8508901 147.38
14.500388 9.2805185 -1.2038572 147.38
3.4871325 2.2318296 -1.8433305 147.38
7.5872936 4.856009 -0.42008933 147.38
3.6963203 2.3657138 -1.8330716 147.38
20.341938 13.019219 -0.56072634 147.38
3.814579 2.4414017 -1.7684991 147.38
3.9858406 2.5510123 -1.7224134 147.38
7.5497069 4.831953 0.20810798 147.38
4.2801642 2.7393849 -1.7171075 147.38
5.0165071 3.2106578 -1.707849 147.38
5.4086881 3.4616611 -1.6810831 147.38
5.8779721 3.7620115 -1.653571 147.38
6.2843947 4.0221295 -1.5859504 147.38
6.9411039 4.4424357 -1.5526855 147.38
7.4318247 4.7273035 -1.4470878 147.53999
8.1199226 5.1649952 -1.3524842 147.53999
10.615732 6.7525525 -1.1737825 147.53999
7.6006503 4.8346915 -0.62990093 147.53999
3.4933512 2.2220831 -1.8433305 147.53999
22.502419 14.313546 -1.2436843 147.53999
3.6935692 2.3494396 -1.8284465 147.53999
20.435577 12.99885 -0.56230474 147.53999
3.8260977 2.4337394 -1.7706815 147.53999
7.5652089 4.8121481 0 147.53999
4.0103922 2.5509672 -1.7299379 147.53999
4.2782054 2.7213202 -1.7132661 147.53999
3.6116986 2.2973626 -1.3356704 147.53999
5.0627632 3.2203691 -1.7205284 147.53999
5.4232311 3.4496589 -1.6826026 147.53999
5.8818865 3.7414045 -1.6517266 147.53999
6.2889996 4.0003648 -1.584287 147.53999
6.9435325 4.4167061 -1.5504637 147.53999
7.4624782 4.7121158 -1.4500059 147.73
7.7417936 4.8884873 -1.2867945 147.73
7.6137948 4.8076634 -1.0530223 147.73
12.012023 7.5848856 -1.3253821 147.73
13.984928 8.8306589 -1.1565623 147.73
3.4945214 2.2065845 -1.8400766 147.73
7.5914769 4.793571 -0.41869184 147.73
3.70134 2.3371782 -1.8284465 147.73
7.5503421 4.7675967 -0.20731881 147.73
3.813669 2.4081075 -1.7612243 147.73
3.9981711 2.5246098 -1.7210454 147.73
7.5486512 4.7665291 0.2072724 147.73
5.0522819 3.1902187 -1.7133619 147.73
5.4248252 3.425458 -1.6795636 147.73
5.8909698 3.7198007 -1.6508043 147.73
6.3435841 4.0056 -1.5946827 147.73
6.6191244 4.1795878 -1.4749216 147.73
7.453021 4.675271 -1.4454665 147.89999
8.0767155 5.066514 -1.3399587 147.89999
11.963624 7.5047674 -1.3175792 147.89999
14.332191 8.9905663 -1.1830698 147.89999
3.4995053 2.1952355 -1.8392631 147.89999
7.5887423 4.7604089 -0.41776016 147.89999
3.6926246 2.3163791 -1.820738 147.89999
7.5492105 4.735611 -0.20690103 147.89999
3.8649864 2.4245014 -1.7815937 147.89999
7.5478563 4.7347612 0 147.89999
4.0390778 2.5337086 -1.7354102 147.89999
7.6288185 4.7855487 0.20908284 147.89999
4.2534866 2.6682072 -1.69662 147.89999
4.5511765 2.8549478 -1.676439 147.89999
4.8516345 3.0434244 -1.6422473 147.89999
5.4284086 3.4052343 -1.6775376 147.89999
5.8871436 3.6929982 -1.6466542 147.89999
6.3620696 3.9909189 -1.596346 147.89999
7.4367113 4.6343493 -1.4396302 148.07001
8.0328817 5.0058661 -1.3302165 148.07001
9.9906502 6.2258921 -1.376618 148.07001
7.6044083 4.7388535 -0.62655264 148.07001
3.467237 2.1606846 -1.8189262 148.07001
7.5960507 4.7336454 -0.41738752 148.07001
3.6994812 2.3054128 -1.820738 148.07001
20.354706 12.68448 -0.55682695 148.07001
3.8247294 2.3834639 -1.7597693 148.07001
7.541503 4.6996522 0 148.07001
4.0194621 2.5048158 -1.7237815 148.07001
7.5768037 4.7216511 0.2072724 148.07001
4.2646008 2.6575794 -1.6979005 148.07001
4.5612478 2.8424413 -1.6770349 148.07001
4.9226451 3.0676539 -1.6631958 148.07001
5.4483409 3.3952527 -1.6805766 148.07001
5.8964233 3.6744852 -1.6461931 148.07001
6.3456578 3.9544356 -1.5892769 148.07001
7.3404722 4.5424218 -1.4182303 148.25
7.9862552 4.9420447 -1.3199177 148.25
8.3142099 5.144989 -1.1433874 148.25
7.6099191 4.7091608 -0.83491272 148.25
3.4988668 2.1651645 -1.8319418 148.25
7.5921969 4.698194 -0.41636267 148.25
3.7318146 2.3093169 -1.8330716 148.25
20.482866 12.675182 -0.55924088 148.25
3.8448722 2.3792791 -1.7655891 148.25
20.734989 12.831201 0 148.25
4.0432925 2.5020654 -1.7306219 148.25
7.5388918 4.6652079 0.20583333 148.25
4.3180428 2.672086 -1.7158271 148.25
4.9502411 3.0633023 -1.6692598 148.25
5.4507542 3.373029 -1.6780441 148.25
5.8963537 3.6487744 -1.6429653 148.25
6.3414145 3.9241862 -1.5851188 148.25
6.9576178 4.3055048 -1.5415764 148.25
7.3858619 4.5402594 -1.4243908 148.42
7.8237233 4.809423 -1.2906914 148.42
13.529366 8.3168135 -1.1105231 148.42
3.5177276 2.1624281 -1.8384496 148.42
20.692551 12.720187 -1.1327226 148.42
3.7606606 2.3117647 -1.8438634 148.42
20.271694 12.461477 -0.55246335 148.42
3.87096 2.3795683 -1.7743189 148.42
7.5700703 4.6534967 0 148.42
4.0603051 2.4959631 -1.7347262 148.42
4.324338 2.6582701 -1.7151868 148.42
4.8479366 2.9801383 -1.6317731 148.42
5.4673309 3.3608944 -1.6800702 148.42
5.9071536 3.6312635 -1.6429653 148.42
6.3613625 3.9104762 -1.5871979 148.42
6.9552927 4.2755785 -1.5382437 148.42
7.3454013 4.4854121 -1.4140152 148.59
7.944448 4.8512154 -1.3082272 148.59
7.6477985 4.6700687 -1.0479116 148.59
13.567605 8.2849522 -1.1116391 148.59
3.5194502 2.1491246 -1.8360093 148.59
20.604025 12.581688 -1.1258283 148.59
3.764353 2.2986729 -1.8423218 148.59
7.5630302 4.6183052 -0.20574048 148.59
3.8652833 2.3603051 -1.7684991 148.59
59.428116 36.289314 0 148.59
4.0404253 2.4672542 -1.7230974 148.59
7.5408459 4.6047587 0.205137 148.59
4.3305888 2.6444404 -1.7145466 148.59
4.5673037 2.7889884 -1.6698859 148.59
4.9010592 2.9927936 -1.6466576 148.59
5.4772792 3.3446577 -1.6800702 148.59
5.8880053 3.5954645 -1.6346651 148.59
6.3762765 3.8936236 -1.5880295 148.59
6.9511738 4.2446799 -1.5345405 148.59
7.5021052 4.5505977 -1.4415756 148.75999
7.5998139 4.6098657 -1.2492177 148.75999
8.1864367 4.9656968 -1.1196927 148.75999
11.838255 7.1808028 -1.2917552 148.75999
13.575069 8.234313 -1.110244 148.75999
3.5273733 2.1396205 -1.8368226 148.75999
20.593437 12.491488 -1.1232196 148.75999
3.7837799 2.2951505 -1.8484885 148.75999
3.8706765 2.3478599 -1.7677716 148.75999
7.566771 4.5898228 0 148.75999
3.9979148 2.4250395 -1.7018923 148.75999
4.335176 2.6296144 -1.7132661 148.75999
4.5771909 2.7764146 -1.6704816 148.75999
5.0101871 3.0390596 -1.6802853 148.75999
5.4689817 3.3173537 -1.6744986 148.75999
5.9119587 3.5860529 -1.6383541 148.75999
6.3844557 3.8726585 -1.5871979 148.75999
6.9553356 4.2189403 -1.5326891 148.75999
