# .PCD v0.7 - Point Cloud Data file format
VERSION 0.7
FIELDS x y z intensity
SIZE 4 4 4 4
TYPE F F F F
COUNT 1 1 1 1
WIDTH 1251
HEIGHT 1
VIEWPOINT 0 0 0 1 0 0 0
POINTS 1251
DATA ascii
6.1114535 6.6624746 -1.7033993 132.53
18.561548 20.235094 5.1735196 132.53
7.0184464 7.6058178 -1.70032 132.7
8.2709312 8.9631224 -1.7140559 132.7
10.235564 11.092175 -1.765026 132.7
12.645659 13.70397 -1.7396802 132.7
17.093996 18.524588 -1.7626066 132.7
2.9576347 3.205158 -1.9417608 132.7
18.644049 20.204361 -1.2820691 132.7
3.1300769 3.3920319 -1.9278857 132.7
18.624027 20.182665 -0.63760054 132.7
3.3189852 3.5967498 -1.9110848 132.7
18.610058 20.167526 0 132.7
3.5368021 3.8327956 -1.8982118 132.7
18.61318 20.17091 0.63722914 132.7
3.7815995 4.0980802 -1.8842086 132.7
18.611532 20.169125 1.2798331 132.7
4.0279646 4.3650637 -1.8533766 132.7
18.618845 20.17705 1.9198377 132.7
4.3415804 4.7049255 -1.8357447 132.7
18.664637 20.226673 2.567719 132.7
4.6540327 5.0435271 -1.7965658 132.7
18.633631 20.193071 3.2131929 132.7
5.0653071 5.4892206 -1.7697729 132.7
18.653246 20.214331 3.8656721 132.7
5.542871 6.006752 -1.7373101 132.7
18.650278 20.211111 4.5182986 132.7
6.1325274 6.6457562 -1.7037696 132.7
7.0369344 7.5779467 -1.699023 132.88
8.2950058 8.9327402 -1.7132208 132.88
10.279822 11.070153 -1.7666521 132.88
12.675098 13.649583 -1.7378223 132.88
17.169758 18.489799 -1.7644203 132.88
2.9664462 3.1945117 -1.9409473 132.88
18.70607 20.144226 -1.2819759 132.88
3.1419735 3.383534 -1.9286565 132.88
18.718634 20.157755 -0.63866824 132.88
3.3277328 3.5835748 -1.9096298 132.88
18.697821 20.135342 0 132.88
3.5526624 3.8257971 -1.9002639 132.88
18.730879 20.170942 0.63908601 132.88
3.7970338 4.0889564 -1.8854891 132.88
4.0390596 4.3495898 -1.8521851 132.88
4.353723 4.6884451 -1.8346423 132.88
4.6672215 5.0260458 -1.7955527 132.88
5.0812025 5.4718542 -1.7693118 132.88
5.5603833 5.9878755 -1.7368942 132.88
6.1827984 6.6581426 -1.7119163 132.88
7.0580115 7.552918 -1.6983745 133.06
8.3257322 8.9095306 -1.7137775 133.06
10.300986 11.02329 -1.7643291 133.06
12.730154 13.62279 -1.7394943 133.06
17.235933 18.444513 -1.7652574 133.06
2.9764674 3.1851766 -1.9409473 133.06
18.800636 20.118933 -1.2841188 133.06
3.1437676 3.3642077 -1.9232606 133.06
34.535812 36.957458 -1.1743734 133.06
3.3402464 3.5744638 -1.9103574 133.06
3.5608144 3.8104978 -1.8982118 133.06
3.8072736 4.0742388 -1.8842086 133.06
4.054008 4.338274 -1.8527809 133.06
4.3802447 4.6873865 -1.8396037 133.06
4.6829882 5.0113583 -1.7955527 133.06
5.0943818 5.4515986 -1.7679284 133.06
5.5778317 5.9689479 -1.7364784 133.06
6.2117367 6.6473022 -1.7141382 133.06
7.0831304 7.5374932 -1.6993473 133.22
8.3465109 8.881917 -1.7129425 133.22
10.326288 10.98869 -1.7634 133.22
12.755874 13.574127 -1.7378223 133.22
17.258682 18.365778 -1.7623276 133.22
2.9828479 3.1741893 -1.9393203 133.22
3.1544137 3.3567605 -1.9240314 133.22
34.74979 36.978893 -1.1781335 133.22
3.3438363 3.5583341 -1.9067199 133.22
3.5727284 3.801909 -1.8988959 133.22
3.8173387 4.0622101 -1.8835684 133.22
4.0634918 4.3241539 -1.8515894 133.22
4.3920007 4.6737351 -1.8390524 133.22
4.6916642 4.9926214 -1.7935268 133.22
5.1069202 5.434515 -1.7670062 133.22
5.5931387 5.9519229 -1.7360626 133.22
6.2195077 6.6184716 -1.7111757 133.22
7.1013055 7.5067949 -1.697726 133.41
8.3759184 8.8541899 -1.7129425 133.41
10.35721 10.948615 -1.7624707 133.41
12.798079 13.528859 -1.7374507 133.41
2.9946132 3.1656077 -1.9401338 133.41
3.1706007 3.3516443 -1.9271147 133.41
34.773296 36.758873 -1.1747911 133.41
3.3594587 3.5512862 -1.9089023 133.41
3.5814416 3.7859445 -1.8968437 133.41
14.820593 15.66686 0.50070328 133.41
3.8307884 4.0495291 -1.8835684 133.41
4.0751848 4.3078809 -1.8503979 133.41
4.4061542 4.6577487 -1.8385012 133.41
4.7108541 4.979847 -1.7945398 133.41
5.1262507 5.4189634 -1.7674673 133.41
5.6115007 5.9319215 -1.7356468 133.41
6.2414212 6.5978107 -1.7111757 133.41
7.123601 7.4883652 -1.6980503 133.57001
8.3992462 8.8293304 -1.7126641 133.57001
10.376791 10.908135 -1.7606122 133.57001
12.839927 13.497396 -1.7380081 133.57001
17.305918 18.192068 -1.7557704 133.57001
3.0021822 3.1559091 -1.9393203 133.57001
3.1799479 3.3427773 -1.9271147 133.57001
35.143162 36.942669 -1.1837969 133.57001
3.3655105 3.5378416 -1.9067199 133.57001
3.592 3.7759285 -1.8968437 133.57001
14.875311 15.637001 0.50107461 133.57001
3.8420818 4.038816 -1.8835684 133.57001
4.0937786 4.3034005 -1.8533766 133.57001
4.4058928 4.6314969 -1.8329884 133.57001
4.7167406 4.9582615 -1.7915008 133.57001
5.1346569 5.3975773 -1.7651618 133.57001
5.6253471 5.9133935 -1.7348151 133.57001
6.257112 6.5775075 -1.710435 133.57001
7.1429968 7.4616718 -1.6970775 133.75
8.4214649 8.7971773 -1.7115508 133.75
10.402767 10.866872 -1.7592185 133.75
12.893284 13.468499 -1.7394943 133.75
17.336771 18.110228 -1.7531197 133.75
3.0095551 3.1438222 -1.9376934 133.75
3.1929862 3.3354368 -1.9286565 133.75
35.971115 37.575916 -1.2077041 133.75
3.379185 3.5299425 -1.9081749 133.75
3.602545 3.7632678 -1.8961596 133.75
3.8508205 4.0226197 -1.8816477 133.75
4.0967159 4.2794852 -1.8486106 133.75
4.4190917 4.6162438 -1.8324372 133.75
4.7242665 4.9350333 -1.7884617 133.75
5.1502428 5.3800139 -1.7647005 133.75
5.6438971 5.8956919 -1.7348151 133.75
6.2736673 6.5535588 -1.7093241 133.75
7.1624374 7.4402742 -1.6967533 133.91
8.4405041 8.7679186 -1.7104374 133.91
10.431695 10.836349 -1.7589861 133.91
12.917033 13.418096 -1.7376366 133.91
17.311174 17.982689 -1.7454464 133.91
3.0170555 3.1340895 -1.9368799 133.91
26.030315 27.040052 -1.7503257 133.91
3.1946087 3.3185301 -1.9240314 133.91
36.068974 37.468117 -1.207472 133.91
3.3851531 3.5164659 -1.9059924 133.91
3.6104331 3.7504849 -1.8947916 133.91
3.8554683 4.0050249 -1.8784465 133.91
4.1086507 4.2680283 -1.8486106 133.91
4.4306321 4.6025 -1.8318858 133.91
4.7407131 4.9246092 -1.7894747 133.91
5.1679459 5.3684149 -1.7656229 133.91
5.6508417 5.8700423 -1.7319044 133.91
6.291944 6.5360136 -1.7093241 133.91
7.1857762 7.4177361 -1.6967533 134.09
8.4611177 8.7342463 -1.7090456 134.09
10.458776 10.79639 -1.7578247 134.09
12.942497 13.360287 -1.7354071 134.09
17.174625 17.729031 -1.7260542 134.09
3.0357854 3.1337819 -1.9425743 134.09
26.149887 26.994017 -1.7526548 134.09
3.2050183 3.3084776 -1.9240314 134.09
36.037643 37.200954 -1.2025049 134.09
3.4078498 3.5178566 -1.9125397 134.09
3.6261208 3.7431734 -1.8968437 134.09
3.8640764 3.9888103 -1.8765258 134.09
4.1220384 4.2550998 -1.8486106 134.09
4.4410567 4.5844154 -1.830232 134.09
4.7507758 4.9041328 -1.7874488 134.09
5.1834316 5.3507547 -1.7651618 134.09
5.6760607 5.8592863 -1.7339835 134.09
6.2987714 6.5020981 -1.7056211 134.09
7.2021561 7.3880587 -1.6951321 134.27
8.487133 8.7062035 -1.7087673 134.27
10.494028 10.764901 -1.758057 134.27
12.987186 13.322412 -1.7357787 134.27
17.148071 17.590698 -1.7178229 134.27
3.0328617 3.1111462 -1.9344394 134.27
3.2153964 3.2983925 -1.9240314 134.27
36.104092 37.036015 -1.2008337 134.27
3.4136829 3.5017972 -1.9096298 134.27
3.6339269 3.727726 -1.8947916 134.27
3.8832016 3.9834352 -1.879727 134.27
15.338824 15.734751 1.0247422 134.27
4.1340532 4.2407618 -1.848015 134.27
4.4661732 4.5814543 -1.8346423 134.27
4.7634583 4.8864126 -1.7864357 134.27
5.1988573 5.3330507 -1.7647005 134.27
5.6944404 5.8414254 -1.7339835 134.27
6.3150511 6.478056 -1.7045102 134.27
7.2199965 7.365099 -1.6944836 134.42999
8.5030937 8.6739826 -1.7070973 134.42999
10.524049 10.735555 -1.758057 134.42999
13.010398 13.271873 -1.7339208 134.42999
17.201317 17.547016 -1.7182415 134.42999
3.0389798 3.1000552 -1.9328126 134.42999
14.121207 14.405006 -0.94070572 134.42999
3.2220109 3.2867649 -1.9224896 134.42999
36.175182 36.902206 -1.1997659 134.42999
3.4156234 3.4842684 -1.905265 134.42999
3.6416912 3.7148795 -1.8934236 134.42999
3.8929839 3.9712226 -1.8790867 134.42999
15.565914 15.878748 1.0369471 134.42999
4.1432066 4.2264738 -1.8468235 134.42999
4.4789495 4.5689645 -1.8346423 134.42999
4.7757306 4.8717098 -1.7859292 134.42999
5.2096429 5.314343 -1.7633172 134.42999
5.7121 5.8268981 -1.7343993 134.42999
6.3317409 6.458992 -1.7041398 134.42999
7.2417126 7.3409753 -1.6941594 134.61
8.5275192 8.6444073 -1.7065406 134.61
10.557724 10.702439 -1.758057 134.61
13.045036 13.223845 -1.7329919 134.61
17.407679 17.646288 -1.7333089 134.61
3.0487039 3.0904927 -1.9328126 134.61
14.110271 14.303681 -0.93697906 134.61
3.237505 3.2818816 -1.9255731 134.61
36.352718 36.851009 -1.2018086 134.61
3.4304776 3.4774995 -1.9074473 134.61
3.6493843 3.6994066 -1.8913714 134.61
3.90411 3.957624 -1.8784465 134.61
15.764443 15.980528 1.0468228 134.61
4.1564641 4.2134371 -1.8468235 134.61
4.491931 4.5535021 -1.8340909 134.61
4.7882943 4.8539281 -1.7849162 134.61
5.2263126 5.2979498 -1.7633172 134.61
5.7262559 5.8047462 -1.7331519 134.61
6.3547616 6.4418669 -1.7048805 134.61
7.264852 7.3208575 -1.6944836 134.78
8.5447598 8.6106329 -1.7048705 134.78
10.602025 10.683757 -1.7601477 134.78
13.074396 13.175188 -1.7316915 134.78
17.472609 17.607306 -1.7345644 134.78
3.0604341 3.0840271 -1.9344394 134.78
14.135762 14.244736 -0.93586105 134.78
3.2407284 3.2657115 -1.9217188 134.78
36.63372 36.916134 -1.207472 134.78
3.4381559 3.4646611 -1.9059924 134.78
29.136242 29.360857 0 134.78
3.6590207 3.6872284 -1.8906873 134.78
29.152336 29.377073 0.96088046 134.78
3.9145007 3.9446778 -1.8778063 134.78
15.913111 16.035786 1.0535308 134.78
4.1662574 4.1983757 -1.845632 134.78
4.5000048 4.5346956 -1.8318858 134.78
4.7985864 4.8355794 -1.7833967 134.78
5.2420087 5.2824197 -1.7633172 134.78
5.7420754 5.7863417 -1.732736 134.78
6.3669252 6.4160085 -1.7030289 134.78
7.2921185 7.3048568 -1.6957806 134.95
8.5688715 8.5838404 -1.7045921 134.95
10.643501 10.662094 -1.7617738 134.95
13.102175 13.125063 -1.7302052 134.95
17.505039 17.535618 -1.7326113 134.95
3.0721526 3.0775192 -1.9360664 134.95
3.2530115 3.2586939 -1.9232606 134.95
29.181454 29.23243 -0.95897716 134.95
3.4497368 3.4557631 -1.9067199 134.95
29.077692 29.128487 0 134.95
3.6699448 3.6763556 -1.8906873 134.95
29.051495 29.102243 0.95470637 134.95
3.9208331 3.9276822 -1.8752453 134.95
15.462379 15.48939 1.0206429 134.95
4.1813936 4.1886978 -1.8468235 134.95
29.085794 29.136604 2.8788497 134.95
4.4998574 4.5077181 -1.8263731 134.95
4.8033442 4.8117352 -1.7798512 134.95
5.2562842 5.2654662 -1.7628561 134.95
5.7606006 5.7706637 -1.7331519 134.95
6.3873224 6.3984799 -1.7033993 134.95
7.3011746 7.2706556 -1.6928624 135.12
8.5985126 8.5625706 -1.7054272 135.12
10.673682 10.629066 -1.7615415 135.12
13.149527 13.094561 -1.7313199 135.12
17.562647 17.489233 -1.7331693 135.12
3.0773864 3.0645227 -1.9336261 135.12
3.2626657 3.2490277 -1.9232606 135.12
29.173136 29.051189 -0.95586693 135.12
3.4599752 3.4455123 -1.9067199 135.12
29.088881 28.967287 0 135.12
3.6808367 3.6654506 -1.8906873 135.12
29.095211 28.973593 0.95331377 135.12
3.927099 3.9106836 -1.8726844 135.12
29.058718 28.93725 1.912436 135.12
4.1910977 4.1735787 -1.845632 135.12
29.155151 29.033283 2.8771756 135.12
4.5118499 4.49299 -1.8258219 135.12
29.272125 29.149765 3.8540864 135.12
4.8175998 4.7974625 -1.7798512 135.12
5.271884 5.2498469 -1.7628561 135.12
5.7832422 5.759068 -1.7348151 135.12
6.4007082 6.3739529 -1.701918 135.12
7.3227148 7.2489605 -1.6928624 135.28999
8.6266956 8.5398073 -1.7059839 135.28999
10.702349 10.594555 -1.7610769 135.28999
13.188321 13.055488 -1.7313199 135.28999
14.280998 14.13716 -1.4051744 135.28999
3.0851669 3.0540931 -1.9328126 135.28999
3.2696683 3.2367363 -1.9217188 135.28999
29.235046 28.94059 -0.95507777 135.28999
3.468859 3.4339206 -1.9059924 135.28999
29.147694 28.854118 0 135.28999
3.6903603 3.6531909 -1.8900033 135.28999
29.176786 28.882917 0.95317447 135.28999
3.9373384 3.8976815 -1.8720442 135.28999
29.12599 28.832632 1.9112248 135.28999
4.2048192 4.1624684 -1.8462276 135.28999
29.180199 28.886293 2.8711765 135.28999
4.5224285 4.4768786 -1.8247193 135.28999
29.347162 29.051579 3.8526001 135.28999
4.8386884 4.7899528 -1.7823837 135.28999
5.2819052 5.2287054 -1.7610116 135.28999
5.7947431 5.7363782 -1.7331519 135.28999
6.4167981 6.3521681 -1.7011775 135.28999
7.3454518 7.2259197 -1.6928624 135.47
8.6506577 8.5098858 -1.7054272 135.47
8.6992044 8.557642 -1.4270275 135.47
13.202298 12.987458 -1.72779 135.47
3.0921414 3.0418231 -1.9311856 135.47
3.2811363 3.2277424 -1.9224896 135.47
29.314419 28.837385 -0.95470637 135.47
3.4769735 3.420393 -1.9045374 135.47
29.2439 28.768015 0 135.47
3.7004793 3.6402614 -1.8893193 135.47
29.273083 28.796722 0.9533602 135.47
3.9549668 3.8906078 -1.8746051 135.47
15.778921 15.522151 1.0321956 135.47
4.2151532 4.1465602 -1.8450361 135.47
29.322004 28.844849 2.876199 135.47
4.5364704 4.4626489 -1.8247193 135.47
4.8550916 4.7760849 -1.7828902 135.47
5.2996926 5.2134509 -1.7614727 135.47
5.7987895 5.7044258 -1.7289937 135.47
6.432519 6.3278427 -1.7000666 135.47
7.3610606 7.1959095 -1.6912413 135.64999
8.6702681 8.4757442 -1.7040354 135.64999
8.7018976 8.5066643 -1.4230783 135.64999
13.245882 12.948702 -1.7281616 135.64999
17.81498 17.415289 -1.7420982 135.64999
3.1042953 3.0346482 -1.9328126 135.64999
3.2833424 3.2096782 -1.9178646 135.64999
3.4863696 3.4081504 -1.90381 135.64999
29.361307 28.702564 0 135.64999
3.7092092 3.6259904 -1.8879511 135.64999
29.363405 28.704617 0.9533602 135.64999
3.9658151 3.8768392 -1.8739649 135.64999
15.966183 15.60797 1.0412327 135.64999
4.2145066 4.1199512 -1.8390787 135.64999
4.550468 4.4483752 -1.8247193 135.64999
15.904457 15.547629 2.0750201 135.64999
4.8700724 4.7608085 -1.7828902 135.64999
5.3174367 5.1981363 -1.7619339 135.64999
5.8166819 5.6861806 -1.7289937 135.64999
6.4523668 6.3076034 -1.7000666 135.64999
7.3837938 7.1754127 -1.6915655 135.82001
8.6911173 8.4458418 -1.7032005 135.82001
8.75844 8.5112648 -1.428189 135.82001
13.281387 12.906568 -1.72779 135.82001
17.918083 17.412409 -1.7471206 135.82001
3.1106651 3.0228777 -1.9311856 135.82001
21.214741 20.61603 -1.3795216 135.82001
3.2928512 3.1999223 -1.9178646 135.82001
3.4937944 3.3951945 -1.9023551 135.82001
29.519489 28.686407 0 135.82001
3.7212992 3.6162789 -1.8886353 135.82001
29.568893 28.734417 0.9572596 135.82001
3.9745827 3.8624144 -1.8726844 135.82001
15.204351 14.775263 0.98868662 135.82001
4.2308197 4.1114202 -1.840866 135.82001
4.5608892 4.4321742 -1.8236167 135.82001
15.969083 15.518413 2.0774353 135.82001
4.8841763 4.7463379 -1.7828902 135.82001
5.3300452 5.1796236 -1.7610116 135.82001
5.8265128 5.6620803 -1.7269145 135.82001
6.466825 6.2843218 -1.6989557 135.82001
7.402041 7.148068 -1.6905928 136
8.7119093 8.4129925 -1.702087 136
10.825665 10.454223 -1.7599154 136
13.320436 12.863396 -1.7276042 136
18.022928 17.404539 -1.7520036 136
3.1201463 3.0130904 -1.9311856 136
3.3068705 3.1934075 -1.9201771 136
3.5084639 3.3880842 -1.9045374 136
29.678522 28.660215 0 136
3.7272341 3.5993481 -1.8858991 136
3.9894233 3.8525412 -1.8739649 136
15.288059 14.763507 0.99110901 136
4.242342 4.0967822 -1.8402702 136
4.5734076 4.4164886 -1.8230655 136
16.049271 15.498601 2.0815225 136
4.9046302 4.7363467 -1.7849162 136
5.3462911 5.1628532 -1.7610116 136
5.8555298 5.6546192 -1.7302411 136
6.4808807 6.2585135 -1.6974744 136
7.4189458 7.121974 -1.68962 136.17
8.7268314 8.3775063 -1.7001386 136.17
10.860934 10.426184 -1.7606122 136.17
13.347052 12.812784 -1.726118 136.17
18.094639 17.370331 -1.7539568 136.17
3.1290727 3.0038195 -1.9311856 136.17
3.3163309 3.1835818 -1.9201771 136.17
3.5171571 3.3763692 -1.90381 136.17
53.605621 51.45985 0 136.17
3.7406087 3.5908763 -1.8872671 136.17
16.537193 15.875228 0.53222352 136.17
3.995369 3.8354387 -1.8714039 136.17
15.295765 14.683493 0.98877984 136.17
4.2517242 4.0815325 -1.8390787 136.17
4.5851045 4.4015679 -1.8225142 136.17
16.141155 15.495043 2.0874677 136.17
4.9270363 4.7298126 -1.7879553 136.17
5.3545666 5.1402292 -1.7587061 136.17
5.8652253 5.6304469 -1.7281619 136.17
6.4994216 6.2392569 -1.6974744 136.17
7.4528942 7.1121926 -1.6925381 136.34
8.7416191 8.3420048 -1.6981902 136.34
10.906193 10.407627 -1.7629353 136.34
13.374925 12.763503 -1.7248174 136.34
18.157644 17.327585 -1.7550728 136.34
3.1353278 2.9919991 -1.9295586 136.34
3.3270972 3.1750021 -1.920948 136.34
3.5258117 3.3646326 -1.9030825 136.34
53.640873 51.188732 0 136.34
3.7485273 3.577167 -1.8858991 136.34
16.574099 15.816429 0.53189856 136.34
4.0094728 3.8261836 -1.8726844 136.34
14.305855 13.651876 0.92216551 136.34
4.2638154 4.0688996 -1.8390787 136.34
4.5981441 4.3879442 -1.8225142 136.34
15.669868 14.953536 2.0207713 136.34
4.9648438 4.7378807 -1.7965658 136.34
5.3754258 5.1296935 -1.7605505 136.34
5.8804898 5.6116691 -1.7277461 136.34
6.5136395 6.2158747 -1.6963634 136.34
7.4698629 7.0886354 -1.6918896 136.5
8.7576971 8.3107443 -1.6967984 136.5
10.933773 10.375763 -1.7627029 136.5
13.404737 12.72062 -1.7240744 136.5
18.207409 17.278187 -1.7552124 136.5
3.1436708 2.983232 -1.9295586 136.5
3.3292572 3.1593471 -1.9170938 136.5
3.5297883 3.3496439 -1.9001726 136.5
53.673351 50.934109 0 136.5
3.758502 3.5666852 -1.8858991 136.5
16.590645 15.743934 0.53101653 136.5
4.0160189 3.8110595 -1.8707637 136.5
15.326462 14.54427 0.98533267 136.5
4.2820859 4.0635476 -1.8420575 136.5
4.6103797 4.3750868 -1.8225142 136.5
15.772233 14.967291 2.028574 136.5
4.9962997 4.7413116 -1.8031503 136.5
5.3869061 5.1119833 -1.7596283 136.5
5.8890424 5.5884929 -1.725667 136.5
6.5281205 6.1949549 -1.6956229 136.5
7.4777374 7.0515933 -1.6886473 136.67999
8.7837629 8.2831907 -1.6967984 136.67999
10.959089 10.334548 -1.7615415 136.67999
13.44898 12.682545 -1.7246317 136.67999
18.252892 17.212688 -1.7543753 136.67999
3.1503687 2.9708343 -1.9279317 136.67999
3.3351381 3.1450739 -1.9147812 136.67999
3.5348725 3.3334258 -1.8972627 136.67999
53.786537 50.721329 0 136.67999
3.7683213 3.5535705 -1.885215 136.67999
16.365089 15.432469 0.5222429 136.67999
4.0197005 3.7906244 -1.8669223 136.67999
15.319754 14.446705 0.98197865 136.67999
4.2948308 4.0500751 -1.8420575 136.67999
16.062544 15.147165 1.5438503 136.67999
4.6255002 4.3619003 -1.8230655 136.67999
15.843805 14.940892 2.0317323 136.67999
5.0182085 4.7322288 -1.8056828 136.67999
5.4029393 5.0950346 -1.7596283 136.67999
5.9065704 5.5699644 -1.725667 136.67999
6.5489802 6.1757641 -1.6959932 136.67999
7.5113745 7.0388622 -1.6912413 136.86
8.8256388 8.2704515 -1.6998602 136.86
10.977007 10.286486 -1.7592185 136.86
13.464055 12.617083 -1.7214733 136.86
18.356375 17.201645 -1.7591188 136.86
3.163686 2.9646704 -1.9303721 136.86
3.3503888 3.1396284 -1.9178646 136.86
3.543968 3.3210301 -1.8965352 136.86
54.148472 50.742195 0 136.86
3.7753525 3.5378592 -1.8831629 136.86
16.881823 15.819851 0.53714418 136.86
4.0302067 3.7766817 -1.866282 136.86
16.351984 15.323342 1.0450526 136.86
4.3047471 4.0339518 -1.840866 136.86
16.123154 15.108907 1.5451059 136.86
4.6349721 4.3434038 -1.8214116 136.86
16.213245 15.193331 2.0729764 136.86
5.0344625 4.7177634 -1.8061893 136.86
16.069075 15.05823 2.5752933 136.86
5.414659 5.0740433 -1.7582449 136.86
5.9211845 5.5487056 -1.7248354 136.86
6.5669155 6.1538157 -1.6956229 136.86
7.5252261 7.0124774 -1.6899443 137.02
8.8269663 8.2255201 -1.695685 137.02
10.973718 10.225998 -1.7541078 137.02
13.483211 12.564501 -1.7194297 137.02
18.475861 17.216965 -1.7659549 137.02
3.1652691 2.9495962 -1.9263047 137.02
3.3537426 3.1252277 -1.9147812 137.02
21.406458 19.94788 -0.67933351 137.02
3.5518651 3.3098507 -1.8958077 137.02
54.567963 50.84985 0 137.02
3.787967 3.5298653 -1.884531 137.02
16.646542 15.512291 0.5282777 137.02
4.0393515 3.7641208 -1.8656418 137.02
4.3132014 4.0193114 -1.8396745 137.02
4.6456766 4.329133 -1.8208604 137.02
16.452286 15.331271 2.0980573 137.02
5.0476174 4.7036862 -1.8061893 137.02
16.135769 15.036321 2.5792425 137.02
5.4359264 5.065537 -1.7605505 137.02
5.9366565 5.5321488 -1.7248354 137.02
6.5840745 6.1354532 -1.6956229 137.02
7.5486674 6.9901423 -1.6902685 137.2
8.8643885 8.2085142 -1.6979119 137.2
10.998502 10.184724 -1.7529464 137.2
13.515311 12.515315 -1.7185009 137.2
18.55328 17.180525 -1.768187 137.2
3.1745198 2.9396377 -1.9263047 137.2
21.282919 19.708199 -1.3526895 137.2
3.3662524 3.1171839 -1.9163229 137.2
3.5677135 3.3037391 -1.8987176 137.2
54.910877 50.84803 0 137.2
3.7990377 3.5179474 -1.884531 137.2
4.053937 3.7539871 -1.8669223 137.2
15.27433 14.144185 0.97079861 137.2
4.3174024 3.9979584 -1.8361 137.2
15.553779 14.402957 1.4823251 137.2
4.6578436 4.3132105 -1.820309 137.2
16.457996 15.240272 2.0926695 137.2
5.0652084 4.6904345 -1.8072023 137.2
16.210619 15.011198 2.5836561 137.2
5.4503851 5.047112 -1.7600894 137.2
5.9511361 5.5108123 -1.7240038 137.2
6.6018748 6.1134033 -1.6952525 137.2
7.5606618 6.9596949 -1.688323 137.37
8.8741331 8.1687632 -1.6951283 137.37
9.0117664 8.2954569 -1.4323704 137.37
13.558246 12.480555 -1.7192439 137.37
18.59243 17.114592 -1.767071 137.37
3.1818838 2.9289684 -1.9254912 137.37
3.3754864 3.1071823 -1.9163229 137.37
3.5651641 3.2817831 -1.8921703 137.37
55.354328 50.95443 0 137.37
3.8066936 3.5041144 -1.8831629 137.37
4.0650578 3.7419422 -1.8669223 137.37
15.357387 14.136688 0.97340727 137.37
4.3306503 3.9864237 -1.8366957 137.37
4.6692061 4.2980695 -1.8197578 137.37
16.487026 15.176538 2.090626 137.37
5.1047263 4.6989717 -1.8163193 137.37
16.300394 15.004741 2.5908575 137.37
5.461041 5.0269642 -1.7587061 137.37
5.964582 5.4904809 -1.7231721 137.37
6.6142006 6.0884638 -1.6937714 137.37
7.5885582 6.9438925 -1.6899443 137.53999
8.8881035 8.1330385 -1.69318 137.53999
9.0436678 8.2753868 -1.4335319 137.53999
13.580525 12.426828 -1.7173861 137.53999
18.674038 17.087635 -1.7700008 137.53999
3.1932559 2.9219813 -1.9271182 137.53999
21.34938 19.535702 -1.3495219 137.53999
3.3765218 3.0896783 -1.9116979 137.53999
3.5913787 3.2862828 -1.9009001 137.53999
3.8156872 3.4915357 -1.8824788 137.53999
17.348652 15.874844 0.5459643 137.53999
4.0747442 3.7285855 -1.866282 137.53999
15.344729 14.041159 0.96996009 137.53999
4.3382335 3.9696903 -1.8349085 137.53999
16.491205 15.09024 1.5631031 137.53999
4.6819382 4.2841964 -1.8197578 137.53999
16.72003 15.299624 2.1144061 137.53999
5.1115088 4.6772742 -1.8137869 137.53999
5.4773679 5.0120525 -1.7591672 137.53999
5.979403 5.4714389 -1.7227563 137.53999
6.6278863 6.0648317 -1.6926605 137.53999
7.5991616 6.9147053 -1.6879988 137.7
8.9093161 8.1068535 -1.6929016 137.7
9.0873108 8.2688169 -1.4367841 137.7
13.610756 12.384835 -1.7168287 137.7
18.745293 17.056904 -1.772233 137.7
3.2014031 2.9130528 -1.9271182 137.7
21.397942 19.470629 -1.3491492 137.7
3.3933265 3.0876894 -1.9163229 137.7
21.476059 19.54171 -0.67413431 137.7
3.5881402 3.2649565 -1.8943528 137.7
3.8240323 3.4796019 -1.8817948 137.7
16.597286 15.102369 0.52098948 137.7
4.0837393 3.7159169 -1.8656418 137.7
15.333639 13.952538 0.96679246 137.7
4.3535385 3.9614151 -1.8366957 137.7
17.483604 15.908856 1.6529495 137.7
4.6910396 4.2685175 -1.8186553 137.7
5.1460161 4.6825142 -1.8213844 137.7
5.4884639 4.9941177 -1.7582449 137.7
5.9932122 5.4534035 -1.7223405 137.7
6.6447968 6.0462999 -1.6926605 137.7
7.6235142 6.8907905 -1.688323 137.89
8.9243956 8.0666399 -1.6906748 137.89
11.073195 10.008911 -1.7455127 137.89
13.631068 12.320938 -1.7142278 137.89
18.818035 17.009365 -1.7737676 137.89
3.2096903 2.9011953 -1.9263047 137.89
21.521675 19.45315 -1.3528758 137.89
3.3994396 3.0727074 -1.9140104 137.89
3.5975654 3.2517905 -1.8936253 137.89
3.8285789 3.4606006 -1.8783746 137.89
17.433435 15.757846 0.54559296 137.89
4.0988507 3.7048953 -1.8669223 137.89
15.523588 14.03156 0.9758296 137.89
4.3666511 3.9469564 -1.8366957 137.89
15.715737 14.205242 1.4813485 137.89
4.7023163 4.25036 -1.8175527 137.89
16.498512 14.912782 2.0748343 137.89
5.1686921 4.6719108 -1.8239169 137.89
5.4992199 4.9706702 -1.7564005 137.89
6.0083609 5.4308758 -1.7215087 137.89
6.6604362 6.020278 -1.6915495 137.89
7.6439257 6.8681412 -1.688323 138.06
8.9365053 8.0295362 -1.6884481 138.06
9.047473 8.1292419 -1.4223814 138.06
13.658678 12.272454 -1.7131131 138.06
18.850611 16.937456 -1.7720934 138.06
3.2169251 2.8904381 -1.9254912 138.06
21.626852 19.431936 -1.3558573 138.06
3.400305 3.0552068 -1.9093853 138.06
3.6155126 3.2485728 -1.8979902 138.06
3.8458197 3.4555061 -1.8817948 138.06
17.523245 15.744804 0.54693913 138.06
4.105597 3.6889184 -1.8650016 138.06
14.963291 13.444662 0.93809706 138.06
4.3740821 3.9301548 -1.8349085 138.06
15.463971 13.894527 1.4537249 138.06
4.7120466 4.2338195 -1.8164501 138.06
16.64045 14.951605 2.087096 138.06
5.1810923 4.6552615 -1.8234104 138.06
5.5124965 4.9530311 -1.7559394 138.06
6.0259032 5.4143319 -1.7219247 138.06
6.6768074 5.999176 -1.6911793 138.06
8.8759995 7.9249158 -1.672304 138.24001
11.119312 9.9278526 -1.7431897 138.24001
13.686768 12.2202 -1.7118126 138.24001
18.879915 16.85689 -1.7698612 138.24001
3.2273526 2.8815346 -1.9263047 138.24001
3.4181461 3.0518842 -1.9140104 138.24001
3.622921 3.2347169 -1.8965352 138.24001
3.8538527 3.4409037 -1.8804268 138.24001
17.426456 15.559173 0.54238987 138.24001
4.1171656 3.676002 -1.8650016 138.24001
4.3807106 3.9113078 -1.8325254 138.24001
15.486711 13.827274 1.4517717 138.24001
4.7267585 4.2202754 -1.8170015 138.24001
16.767553 14.970872 2.0971284 138.24001
5.2043509 4.6466932 -1.8264495 138.24001
5.5338364 4.9408731 -1.7577838 138.24001
6.037046 5.3901629 -1.7202613 138.24001
6.6941552 5.9768615 -1.6908089 138.24001
8.8713293 7.8735666 -1.6670154 138.41
11.154662 9.9000921 -1.7441189 138.41
13.709561 12.16764 -1.7101405 138.41
18.892544 16.767689 -1.7663734 138.41
3.235888 2.8719461 -1.9263047 138.41
21.782507 19.332617 -1.3581864 138.41
3.4230454 3.0380538 -1.9116979 138.41
3.6213558 3.2140601 -1.8907154 138.41
3.8640451 3.4294541 -1.8804268 138.41
4.1238031 3.659997 -1.8630809 138.41
15.27226 13.554581 0.95225841 138.41
4.4037199 3.9084313 -1.8372915 138.41
16.561752 14.699043 1.5484542 138.41
4.7392592 4.2062325 -1.8170015 138.41
16.491686 14.636858 2.0571847 138.41
5.2007504 4.6158195 -1.8203714 138.41
5.5368276 4.9140978 -1.7540948 138.41
6.7059798 5.9517546 -1.6893277 138.41
7.7000237 6.7932625 -1.687026 138.58
8.9139595 7.864244 -1.6706339 138.58
11.203352 9.8840361 -1.7471389 138.58
13.73963 12.121639 -1.7093974 138.58
18.978117 16.743238 -1.7697217 138.58
3.2375445 2.8562887 -1.9222374 138.58
3.4334283 3.0291049 -1.9124687 138.58
3.6294792 3.2020686 -1.8899879 138.58
3.867157 3.4117572 -1.8770065 138.58
16.49292 14.550699 0.51063746 138.58
4.1346445 3.6477451 -1.8630809 138.58
15.445744 13.62684 0.96055025 138.58
4.4081388 3.8890326 -1.8343127 138.58
15.809363 13.947639 1.4742333 138.58
4.7459521 4.1870646 -1.8147963 138.58
5.2245789 4.6093283 -1.8239169 138.58
5.5499244 4.8963604 -1.7536337 138.58
4.8415294 4.2713866 -1.2164493 138.58
7.7082753 6.7599764 -1.6844321 138.75
8.923852 7.8260083 -1.6681287 138.75
11.265487 9.8795662 -1.7522495 138.75
13.775535 12.08082 -1.7093974 138.75
18.985712 16.650023 -1.7658154 138.75
3.2460051 2.8466702 -1.9222374 138.75
3.4410133 3.0176876 -1.9116979 138.75
3.6417651 3.1937423 -1.8914429 138.75
3.8758497 3.399029 -1.8763225 138.75
16.514975 14.483243 0.50998759 138.75
4.1426001 3.6329629 -1.8618004 138.75
15.806043 13.861527 0.98039478 138.75
4.4225292 3.878454 -1.8355042 138.75
16.536184 14.501844 1.5379907 138.75
4.7554636 4.1704297 -1.8136938 138.75
16.768394 14.705486 2.0807793 138.75
5.2425961 4.5976334 -1.8254365 138.75
4.8216724 4.2284932 -1.2083026 138.75
4.8839278 4.2575207 -1.0644833 138.92
8.8947811 7.7539458 -1.6583867 138.92
11.327692 9.874815 -1.7573601 138.92
13.811318 12.039894 -1.7093974 138.92
18.988409 16.552975 -1.7614905 138.92
3.254437 2.8370264 -1.9222374 138.92
22.292562 19.433344 -1.379149 138.92
3.4374318 2.9965506 -1.9047602 138.92
3.6568425 3.1878197 -1.8943528 138.92
3.8873346 3.3887491 -1.8770065 138.92
16.57596 14.449945 0.51054466 138.92
4.1547894 3.6219006 -1.8624406 138.92
15.05949 13.127976 0.93166852 138.92
4.4296999 3.8615513 -1.833717 138.92
17.168673 14.966638 1.5926799 138.92
4.7692657 4.1575646 -1.8142451 138.92
16.657341 14.520889 2.0616436 138.92
5.2532973 4.5795155 -1.8244234 138.92
4.7955332 4.1804633 -1.3522576 138.92
4.810493 4.1935043 -1.2023777 138.92
4.8929372 4.2398901 -0.90991372 139.09
13.839457 11.992341 -1.7084684 139.09
19.013313 16.475658 -1.7592583 139.09
3.2669828 2.8309474 -1.9246778 139.09
22.436186 19.441689 -1.3844595 139.09
3.4574652 2.9960067 -1.9109269 139.09
3.6564293 3.1684155 -1.8892604 139.09
3.8959517 3.3759696 -1.8763225 139.09
16.614227 14.396771 0.51040536 139.09
4.1569257 3.6021123 -1.8585992 139.09
15.901608 13.779264 0.9812333 139.09
4.4425807 3.8496413 -1.8343127 139.09
16.86018 14.609898 1.5600338 139.09
4.7743158 4.1371007 -1.8114887 139.09
16.992311 14.724394 2.0976856 139.09
5.2624755 4.5601072 -1.822904 139.09
4.904973 4.2503195 -1.5378302 139.09
4.7872176 4.1482806 -1.3464361 139.09
4.7976632 4.1573324 -1.1960826 139.09
4.8597612 4.1859603 -1.0537833 139.25999
4.8844872 4.2072582 -0.90601689 139.25999
11.413183 9.8307571 -1.7615415 139.25999
13.867434 11.944728 -1.7075396 139.25999
19.068161 16.424381 -1.7598163 139.25999
3.2670619 2.8140872 -1.9197969 139.25999
3.464941 2.9845307 -1.9101561 139.25999
3.6629908 3.1551211 -1.8878055 139.25999
3.9073751 3.3656218 -1.8770065 139.25999
4.1647239 3.5872893 -1.8573188 139.25999
15.352075 13.223526 0.94489825 139.25999
4.4481969 3.831459 -1.8319297 139.25999
16.729612 14.410069 1.5439898 139.25999
4.7996798 4.1342092 -1.8164501 139.25999
5.2774482 4.5457358 -1.8234104 139.25999
4.7802358 4.1174612 -1.3410304 139.25999
4.7995534 4.1341004 -1.1934904 139.25999
4.8511219 4.1505766 -1.0489197 139.45
4.872829 4.1691489 -0.90128499 139.45
9.1363506 7.8169794 -1.4061203 139.45
13.909993 11.901266 -1.7079111 139.45
17.113853 14.642459 -1.5749617 139.45
3.2791524 2.8056133 -1.9214239 139.45
17.133984 14.659682 -1.0515742 139.45
3.4621987 2.9622262 -1.9032185 139.45
17.068981 14.604067 -0.52154654 139.45
3.6720178 3.1417456 -1.887078 139.45
17.02799 14.568996 0 139.45
3.9142303 3.3489804 -1.8749545 139.45
4.1780367 3.5746908 -1.857959 139.45
15.426202 13.19852 0.94676155 139.45
4.4594274 3.8154461 -1.8313339 139.45
4.8045979 4.1107707 -1.8131425 139.45
5.286613 4.5231786 -1.8213844 139.45
4.8088465 4.1144061 -1.4995574 139.45
4.7775121 4.0875964 -1.3364563 139.45
4.8027821 4.1092176 -1.1908983 139.45
4.8423681 4.1182647 -1.0443803 139.62
4.8685818 4.1405582 -0.89822322 139.62
11.501964 9.7820177 -1.7657229 139.62
13.943727 11.858651 -1.7077253 139.62
17.129866 14.568351 -1.5724504 139.62
3.2874622 2.7958715 -1.9214239 139.62
17.122616 14.562185 -1.0482203 139.62
3.482219 2.9615054 -1.9093853 139.62
17.119852 14.559835 -0.52177864 139.62
3.6926768 3.1404922 -1.8928978 139.62
17.054384 14.504156 0 139.62
3.9255815 3.3385696 -1.8756385 139.62
16.932508 14.400506 0.51606882 139.62
4.1886244 3.5622785 -1.857959 139.62
15.418117 13.112568 0.94387341 139.62
4.4707284 3.8021979 -1.8313339 139.62
17.067553 14.515357 1.5667304 139.62
4.8065219 4.0877786 -1.8092836 139.62
5.2351604 4.4523206 -1.7990983 139.62
4.7839708 4.0685997 -1.4880295 139.62
4.7747169 4.0607295 -1.3322982 139.62
4.8029757 4.0847631 -1.1879358 139.62
4.8394942 4.0911379 -1.0411379 139.78999
4.8657207 4.1133084 -0.89543974 139.78999
11.590101 9.7978621 -1.7747827 139.78999
13.968205 11.808228 -1.7064248 139.78999
17.16235 14.508446 -1.5714738 139.78999
3.2915573 2.7825665 -1.9189835 139.78999
17.177954 14.521636 -1.0489656 139.78999
3.4881721 2.9487777 -1.9078436 139.78999
17.167559 14.512848 -0.52191794 139.78999
3.6891739 3.1186974 -1.8863505 139.78999
17.11109 14.465112 0 139.78999
3.9297287 3.3220541 -1.8729023 139.78999
4.1977286 3.5486116 -1.8573188 139.78999
15.485943 13.091269 0.94564354 139.78999
4.4761577 3.7839859 -1.8289509 139.78999
17.041983 14.406691 1.5604523 139.78999
4.8112884 4.0672936 -1.8065273 139.78999
5.1582155 4.3605733 -1.7682016 139.78999
4.7826457 4.0430803 -1.4838794 139.78999
4.7718043 4.033915 -1.3281399 139.78999
4.8075695 4.0641499 -1.1860843 139.78999
4.8349915 4.0627952 -1.0375713 139.96001
4.8688059 4.0912089 -0.89376968 139.96001
4.9700637 4.1762948 -0.75916094 139.96001
13.986409 11.75264 -1.7043812 139.96001
17.397781 14.619183 -1.5890524 139.96001
3.299799 2.772788 -1.9189835 139.96001
3.4898412 2.9324789 -1.9039893 139.96001
3.6998372 3.1089363 -1.887078 139.96001
3.9352517 3.3067527 -1.8708502 139.96001
16.198698 13.611604 0.49123326 139.96001
4.205338 3.5337033 -1.8560383 139.96001
15.656257 13.155796 0.9536559 139.96001
4.4873652 3.7706883 -1.8289509 139.96001
17.090763 14.361197 1.5610104 139.96001
4.8174477 4.0480533 -1.8043221 139.96001
5.1533556 4.3303132 -1.7621236 139.96001
4.7767415 4.0138483 -1.478346 139.96001
4.7657795 4.0046368 -1.32315 139.96001
4.8090739 4.0410171 -1.1834922 139.96001
4.8342023 4.0391541 -1.0349773 140.12
4.8634934 4.0636277 -0.89070785 140.12
4.9649382 4.1483889 -0.75660563 140.12
13.999309 11.696939 -1.701966 140.12
17.738623 14.821273 -1.616397 140.12
3.3089311 2.764734 -1.9197969 140.12
3.5050979 2.9286385 -1.9078436 140.12
3.7042158 3.0950086 -1.8848956 140.12
3.9459128 3.2969556 -1.8715342 140.12
16.207493 13.541958 0.49035123 140.12
4.2195516 3.5255907 -1.857959 140.12
15.699065 13.117147 0.95402861 140.12
4.5022731 3.7618151 -1.8307382 140.12
4.8198814 4.0271883 -1.8010144 140.12
5.1416721 4.2960563 -1.7540195 140.12
4.7744908 3.9892631 -1.474196 140.12
4.7664351 3.9825323 -1.3202392 140.12
4.8007326 4.011189 -1.1786783 140.12
4.8294649 4.0109229 -1.0314107 140.28999
4.852675 4.0301991 -0.88653266 140.28999
14.030889 11.652805 -1.7015945 140.28999
3.3143086 2.7525694 -1.91817 140.28999
3.512352 2.9170465 -1.9070728 140.28999
3.7219815 3.0911462 -1.8892604 140.28999
3.9571235 3.2864339 -1.8722183 140.28999
16.236834 13.484867 0.4900263 140.28999
4.2270784 3.5106344 -1.8566785 140.28999
4.5104771 3.7460003 -1.8295467 140.28999
4.8244143 4.0067282 -1.7982581 140.28999
5.1320696 4.2622395 -1.7464221 140.28999
4.7683406 3.9601588 -1.4686625 140.28999
4.7616763 3.9546237 -1.3156651 140.28999
4.8065653 3.9919045 -1.177197 140.28999
4.8268199 3.9831698 -1.0281683 140.47
4.8592019 4.009892 -0.88541925 140.47
14.064356 11.606133 -1.7012229 140.47
3.3215306 2.7409806 -1.9173565 140.47
3.5229223 2.9071724 -1.9078436 140.47
3.7244897 3.0735092 -1.8856231 140.47
3.9630799 3.2703977 -1.8701662 140.47
16.291454 13.443972 0.49039766 140.47
4.2380862 3.4973373 -1.8566785 140.47
15.749623 12.996843 0.95225841 140.47
4.5236959 3.733027 -1.8301424 140.47
4.8310466 3.9866576 -1.7960531 140.47
4.7642469 3.9315338 -1.4635901 140.47
4.7589879 3.9271936 -1.311507 140.47
4.8069549 3.9667771 -1.1742346 140.47
4.8248839 3.9575665 -1.0252502 140.64
4.8481083 3.9766161 -0.88124406 140.64
4.9824166 4.086781 -0.75358576 140.64
5.0839801 4.1700878 -0.61345834 140.64
19.24222 15.783254 -1.7402846 140.64
3.3338866 2.7345896 -1.9197969 140.64
3.5243981 2.8908551 -1.9039893 140.64
3.7292712 3.0589004 -1.8834406 140.64
3.9727659 3.2586246 -1.8701662 140.64
16.400839 13.452637 0.49248663 140.64
4.2469797 3.4835458 -1.8560383 140.64
15.802018 12.961459 0.95309693 140.64
4.5332761 3.7183776 -1.8295467 140.64
4.8369079 3.9674292 -1.7938479 140.64
4.7974882 3.9350953 -1.6243548 140.64
4.7608442 3.9050386 -1.458979 140.64
4.7691064 3.9118154 -1.3110911 140.64
4.809586 3.9450183 -1.1720128 140.64
4.8204651 3.9286745 -1.0216835 140.82001
4.8529015 3.9551098 -0.87985235 140.82001
4.9598145 4.042244 -0.7482428 140.82001
19.294804 15.725245 -1.7405635 140.82001
3.338212 2.7206395 -1.9173565 140.82001
3.534893 2.8809345 -1.9047602 140.82001
3.7403069 3.0483463 -1.884168 140.82001
3.9829836 3.2461276 -1.8701662 140.82001
4.2564335 3.4689891 -1.8553981 140.82001
16.01301 13.050588 0.96334529 140.82001
4.541975 3.7017052 -1.8283552 140.82001
4.8284845 3.93521 -1.7861301 140.82001
17.206808 14.023531 2.0709329 140.82001
4.8263245 3.9334497 -1.6299263 140.82001
4.7549863 3.875309 -1.4534456 140.82001
4.7889543 3.9029932 -1.3131702 140.82001
4.8128147 3.9224391 -1.169791 140.82001
4.8121648 3.898205 -1.0174683 140.99001
4.8538423 3.9319668 -0.87790394 140.99001
5.0227237 4.0687728 -0.75590873 140.99001
5.1140008 4.142714 -0.6140157 140.99001
19.304169 15.637787 -1.7372153 140.99001
3.3491092 2.7130232 -1.9189835 140.99001
3.5405574 2.8681102 -1.9032185 140.99001
3.7507825 3.0384078 -1.8848956 140.99001
3.9882164 3.2307467 -1.868114 140.99001
15.896983 12.877718 0.47498569 140.99001
4.2681799 3.4575377 -1.8560383 140.99001
16.045452 12.997989 0.96297258 140.99001
4.5499716 3.6858091 -1.8271637 140.99001
17.310499 14.02277 1.5578016 140.99001
4.8371515 3.9184461 -1.7850275 140.99001
4.840981 3.9215481 -1.6309394 140.99001
4.7513413 3.8489337 -1.4488344 140.99001
4.8005137 3.8887668 -1.3131702 140.99001
4.8167953 3.9019563 -1.1679394 140.99001
4.8120885 3.8731685 -1.0148745 141.17
4.853828 3.906764 -0.87567717 141.17
5.0416713 4.0579557 -0.75683796 141.17
19.328333 15.557049 -1.734983 141.17
3.3561926 2.7013426 -1.91817 141.17
3.5481129 2.8558159 -1.9024477 141.17
3.7588582 3.0254414 -1.884168 141.17
3.9954183 3.2158446 -1.8667459 141.17
4.2790208 3.4441116 -1.8560383 141.17
16.559332 13.328326 0.99129534 141.17
4.5630155 3.672694 -1.8277594 141.17
17.230131 13.86824 1.5466405 141.17
4.8509355 3.9044359 -1.7855788 141.17
4.7824373 3.8493028 -1.6071337 141.17
4.7573457 3.829107 -1.4469899 141.17
4.8213749 3.8806429 -1.1660879 141.17
4.8143129 3.8514767 -1.012929 141.34
4.8483863 3.8787358 -0.87261534 141.34
5.0769567 4.0615931 -0.76032245 141.34
19.400892 15.52082 -1.7373548 141.34
3.362766 2.6902313 -1.9173565 141.34
3.5594525 2.8475816 -1.9039893 141.34
3.763454 3.0107839 -1.8819857 141.34
4.0049424 3.2039759 -1.8667459 141.34
16.125238 12.900278 0.47944218 141.34
4.2833028 3.4266658 -1.8534774 141.34
16.311758 13.049496 0.97415262 141.34
4.5738926 3.6591392 -1.8277594 141.34
17.247833 13.798362 1.5445478 141.34
4.8594961 3.8876235 -1.7844763 141.34
17.076799 13.661533 2.0402784 141.34
4.819521 3.8556435 -1.6157442 141.34
17.225666 13.780626 2.5797069 141.34
4.7519693 3.8016016 -1.4419177 141.34
4.8027925 3.8422606 -1.3073487 141.34
4.8267288 3.8614094 -1.1646067 141.34
4.8102717 3.8248925 -1.0096866 141.50999
4.8459215 3.8532395 -0.87011021 141.50999
5.1169724 4.0687656 -0.7645039 141.50999
5.0687785 4.0304441 -0.60416913 141.50999
11.154654 8.8696337 -0.99654096 141.50999
3.3693032 2.6791048 -1.916543 141.50999
3.5678859 2.837008 -1.9039893 141.50999
3.7709124 2.9984448 -1.8812581 141.50999
4.0173731 3.1944182 -1.868114 141.50999
16.118057 12.816289 0.47809595 141.50999
4.2904849 3.4115834 -1.8521969 141.50999
16.212795 12.891621 0.96595395 141.50999
4.587718 3.6479285 -1.8289509 141.50999
17.232479 13.702423 1.5395254 141.50999
4.8710093 3.873188 -1.7844763 141.50999
17.142197 13.630635 2.043251 141.50999
4.8642569 3.8678186 -1.6268873 141.50999
4.7510419 3.7777958 -1.4382287 141.50999
4.8080468 3.8231232 -1.3056854 141.50999
4.8335495 3.8434014 -1.1634958 141.50999
4.8138576 3.8044848 -1.0080653 141.67999
4.8464561 3.8302481 -0.8681618 141.67999
5.1321387 4.0560288 -0.76496851 141.67999
5.0572796 3.996866 -0.60138237 141.67999
3.3772373 2.669096 -1.916543 141.67999
11.222702 8.8695192 -0.66707468 141.67999
3.5733919 2.8241208 -1.9024477 141.67999
48.229595 38.116783 -1.4272318 141.67999
3.7783308 2.9860878 -1.8805307 141.67999
4.0253592 3.181319 -1.86743 141.67999
16.960754 13.404412 0.50191021 141.67999
4.3035617 3.4011879 -1.8534774 141.67999
16.539379 13.071391 0.98309666 141.67999
4.5970235 3.6331167 -1.8283552 141.67999
17.248014 13.63144 1.5372932 141.67999
4.8794637 3.8563344 -1.7833737 141.67999
17.315363 13.684667 2.0590427 141.67999
17.176224 13.574701 2.5601938 141.67999
4.7500153 3.754029 -1.4345397 141.67999
4.7994161 3.7930715 -1.3002797 141.67999
4.8279696 3.8156378 -1.1594224 141.67999
4.8149204 3.7808111 -1.0057957 141.86
4.846004 3.8052185 -0.86593503 141.86
5.0448647 3.9613698 -0.75010121 141.86
5.135592 4.0326114 -0.60918534 141.86
3.3856061 2.658473 -1.916543 141.86
11.181375 8.7799292 -0.66297531 141.86
3.5822465 2.8128808 -1.9024477 141.86
3.7876933 2.9742031 -1.8805307 141.86
4.0249863 3.1605325 -1.8626417 141.86
16.556168 13.000369 0.4887265 141.86
4.3037939 3.3794599 -1.8489957 141.86
15.88899 12.476482 0.94210321 141.86
4.6024079 3.6139402 -1.8259722 141.86
17.275063 13.564865 1.5358981 141.86
4.8930664 3.8421733 -1.7839249 141.86
4.7480097 3.728271 -1.4303896 141.86
4.794384 3.7646852 -1.2957057 141.86
4.8260207 3.7895272 -1.1560897 141.86
4.8090034 3.7531519 -1.002229 142.03
4.8447824 3.7810752 -0.86370826 142.03
5.0252762 3.9219406 -0.74545521 142.03
5.1459646 4.0161309 -0.60899955 142.03
5.1635857 4.0298829 -0.45802101 142.03
3.3877175 2.6439197 -1.9132892 142.03
11.180601 8.7258196 -0.6613915 142.03
3.587667 2.7999687 -1.900906 142.03
3.7979698 2.964098 -1.8812581 142.03
4.0373092 3.1508889 -1.8640097 142.03
16.161201 12.612893 0.47596055 142.03
4.3182831 3.3701727 -1.8509164 142.03
15.955863 12.452638 0.94387341 142.03
4.6055851 3.5943956 -1.8229934 142.03
17.294786 13.497592 1.5340843 142.03
4.8968668 3.8217244 -1.7811686 142.03
17.455149 13.622745 2.0657308 142.03
5.0715141 3.9580266 -1.6841221 142.03
4.7467775 3.7045882 -1.4267007 142.03
4.797822 3.7444253 -1.2936265 142.03
4.8202 3.7618899 -1.1520163 142.03
4.8138804 3.7340283 -1.0009321 142.2
4.848155 3.7606144 -0.86231655 142.2
4.9584103 3.8461373 -0.73384011 142.2
5.1909008 4.0264754 -0.61290097 142.2
5.1566024 3.9998708 -0.45634684 142.2
3.3955472 2.6338563 -1.9132892 142.2
11.138562 8.6399546 -0.65738529 142.2
3.5915842 2.7859185 -1.8985934 142.2
3.8038037 2.9505324 -1.8798032 142.2
4.0481253 3.140048 -1.8646939 142.2
16.290186 12.635964 0.47865301 142.2
4.3312578 3.359668 -1.8521969 142.2
16.071671 12.466465 0.94853175 142.2
4.6117039 3.5772042 -1.8212062 142.2
17.322147 13.436435 1.5329683 142.2
4.9081845 3.8071783 -1.7811686 142.2
17.338144 13.448843 2.0471525 142.2
5.116869 3.9690506 -1.6952652 142.2
17.377195 13.479135 2.5718088 142.2
4.7515974 3.6857166 -1.4248562 142.2
17.34882 13.457125 3.085746 142.2
4.7949986 3.719382 -1.2898841 142.2
4.8235755 3.7415485 -1.1501648 142.2
4.8139973 3.7112942 -0.99866235 142.37
4.8451748 3.7353299 -0.85981143 142.37
5.2185955 4.0232143 -0.61475885 142.37
5.1542268 3.9735899 -0.45509124 142.37
3.4062412 2.6260011 -1.9149162 142.37
11.130922 8.5812521 -0.65542883 142.37
3.5998344 2.7752497 -1.8985934 142.37
3.8199184 2.9449208 -1.8834406 142.37
4.0559359 3.1268756 -1.8640097 142.37
4.3397064 3.3456452 -1.8515567 142.37
4.6283455 3.5681682 -1.8235892 142.37
17.39986 13.414216 1.5363166 142.37
4.9164138 3.790251 -1.780066 142.37
5.1087031 3.938494 -1.6886806 142.37
17.456442 13.457837 2.5776162 142.37
4.7455583 3.6585319 -1.4197839 142.37
17.346321 13.372941 3.0782306 142.37
4.7982664 3.6991665 -1.287805 142.37
4.8190899 3.7152202 -1.1464617 142.37
4.8099651 3.6841516 -0.99541998 142.55
4.8474517 3.7128642 -0.85814136 142.55
4.9881206 3.8206081 -0.73476934 142.55
5.2043338 3.9862149 -0.61160052 142.55
5.1571813 3.9500988 -0.45425415 142.55
3.4159245 2.6163981 -1.9157296 142.55
11.124518 8.52073 -0.6534723 142.55
3.6114657 2.7661712 -1.9001352 142.55
3.8306303 2.9340384 -1.884168 142.55
4.0642471 3.1129754 -1.8633257 142.55
26.140329 20.021961 0.7644707 142.55
4.3426747 3.3262343 -1.8483555 142.55
16.380672 12.546635 0.96222728 142.55
4.6319542 3.5478055 -1.8206104 142.55
4.928297 3.7747869 -1.780066 142.55
17.576483 13.462557 2.0655451 142.55
5.117979 3.9200721 -1.6876676 142.55
17.454479 13.369108 2.5711119 142.55
4.7477584 3.6365049 -1.4170172 142.55
4.7989926 3.6757472 -1.2848942 142.55
4.8198156 3.6916964 -1.1438696 142.55
4.8101745 3.664371 -0.99347454 142.7
4.8508534 3.6953602 -0.85702795 142.7
5.0154877 3.8207777 -0.73732466 142.7
5.1532211 3.9257026 -0.45299855 142.7
3.4227626 2.6074464 -1.9157296 142.7
11.12295 8.4734173 -0.65207481 142.7
3.618695 2.756707 -1.9001352 142.7
3.8264427 2.9149683 -1.8783482 142.7
4.0678983 3.0989079 -1.8612736 142.7
4.354382 3.3171504 -1.849636 142.7
16.297449 12.415329 0.9554261 142.7
4.6336327 3.5298822 -1.8176317 142.7
4.9366331 3.7607067 -1.7795148 142.7
17.568899 13.383914 2.060529 142.7
5.2528896 4.0016298 -1.7286944 142.7
4.7433295 3.6134489 -1.4128672 142.7
4.8039308 3.6596143 -1.2836468 142.7
4.8138294 3.6671555 -1.1401666 142.7
4.8081346 3.6376832 -0.99055636 142.89
4.8488665 3.6684992 -0.85452282 142.89
4.9806051 3.7681689 -0.73035556 142.89
5.1503 3.8965547 -0.45160341 142.89
3.4270191 2.5927746 -1.9132892 142.89
11.109564 8.4051456 -0.64965248 142.89
3.6263449 2.7435782 -1.8993644 142.89
3.8301454 2.8977671 -1.8754383 142.89
4.0796509 3.0865352 -1.8619577 142.89
16.511333 12.491954 0.48069555 142.89
4.3638473 3.3015492 -1.8489957 142.89
16.384733 12.396173 0.95812792 142.89
4.6559706 3.5225604 -1.8218019 142.89
4.9598093 3.7524352 -1.7833737 142.89
5.1612096 3.9048083 -1.6942523 142.89
4.7444224 3.5894804 -1.4096394 142.89
4.7957587 3.6283197 -1.278241 142.89
4.8118572 3.6404996 -1.1368339 142.89
4.808496 3.6142595 -0.98828667 143.07001
4.8492851 3.6449182 -0.85257441 143.07001
5.1513524 3.871964 -0.45062682 143.07001
3.4351478 2.5819955 -1.9132892 143.07001
11.103974 8.3461943 -0.64778912 143.07001
3.6378968 2.7343898 -1.900906 143.07001
3.8511438 2.894675 -1.8812581 143.07001
79.051315 59.418156 0 143.07001
4.0878248 3.0725741 -1.8612736 143.07001
4.3757124 3.2889619 -1.849636 143.07001
17.5415 13.184899 1.0233448 143.07001
4.66854 3.509063 -1.8223977 143.07001
17.382225 13.065182 1.5205516 143.07001
4.965426 3.7322145 -1.7811686 143.07001
4.7494531 3.5698805 -1.4077948 143.07001
4.7993145 3.6073585 -1.2761619 143.07001
4.8138442 3.6182792 -1.1346121 143.07001
4.8106656 3.5949106 -0.98666543 143.23
4.8499255 3.6242487 -0.85090435 143.23
5.0267467 3.7563837 -0.73384011 143.23
5.1493592 3.8480093 -0.44951072 143.23
3.4438081 2.5734863 -1.9141027 143.23
11.124037 8.3127623 -0.6476028 143.23
3.6410835 2.7209063 -1.8985934 143.23
11.235632 8.3961554 -0.32564744 143.23
3.8621969 2.8861396 -1.8827131 143.23
4.0963893 3.0611467 -1.8612736 143.23
79.043434 59.06752 2.2909517 143.23
4.3803267 3.2733274 -1.8477153 143.23
4.6676154 3.4880123 -1.8182274 143.23
17.401062 13.003453 1.519017 143.23
4.966589 3.7114289 -1.777861 143.23
4.9843578 3.7247071 -1.6289133 143.23
17.67079 13.205014 2.5797069 143.23
4.746932 3.5472839 -1.4041059 143.23
4.8015342 3.5880868 -1.2740829 143.23
4.8144832 3.5977633 -1.1323903 143.23
4.8098822 3.5695293 -0.98407155 143.42
4.849194 3.5987036 -0.84867758 143.42
5.0280094 3.7314069 -0.73221397 143.42
5.1540809 3.8249674 -0.44881314 143.42
3.4523232 2.5620522 -1.9141027 143.42
11.111434 8.2460632 -0.64527363 143.42
3.6456404 2.7055175 -1.8962809 143.42
11.244145 8.3445511 -0.32509038 143.42
3.8627703 2.8666549 -1.8783482 143.42
4.1050086 3.0464258 -1.8605896 143.42
16.97781 12.599641 0.49086189 143.42
4.3911572 3.2587836 -1.8477153 143.42
17.607275 13.066783 1.0225062 143.42
4.6730242 3.4679637 -1.8158444 143.42
4.9865885 3.7006674 -1.7806174 143.42
4.8009162 3.5628757 -1.565094 143.42
4.7492924 3.5245643 -1.4013392 143.42
4.8039804 3.5651495 -1.2715878 143.42
4.8169174 3.5747504 -1.1301684 143.42
4.8077455 3.545871 -0.98147762 143.59
4.8486929 3.576071 -0.84672916 143.59
5.0502496 3.7247257 -0.73384011 143.59
5.1525617 3.8001842 -0.44769704 143.59
3.4525576 2.5463753 -1.9100353 143.59
11.121382 8.2023859 -0.64443511 143.59
3.6551371 2.6957841 -1.8970518 143.59
3.8697593 2.8540754 -1.8776208 143.59
4.1170545 3.0364637 -1.8619577 143.59
17.053738 12.577695 0.49197599 143.59
4.3947072 3.2412419 -1.8451543 143.59
26.903872 19.842493 1.5589609 143.59
4.6909757 3.4597495 -1.8188232 143.59
5.0161133 3.6995492 -1.7872326 143.59
4.791224 3.5336859 -1.5585095 143.59
4.7518978 3.5046818 -1.3990335 143.59
4.8050909 3.5439131 -1.2690929 143.59
4.8195939 3.5546098 -1.1283169 143.59
4.8134699 3.5280905 -0.98050487 143.75999
4.851295 3.5558147 -0.84533739 143.75999
4.9923849 3.6592286 -0.72385114 143.75999
5.1557684 3.7789824 -0.44699949 143.75999
3.4615712 2.5372002 -1.9108487 143.75999
11.108608 8.1421881 -0.64229226 143.75999
3.6646078 2.6860182 -1.8978226 143.75999
