# .PCD v0.7 - Point Cloud Data file format
VERSION 0.7
FIELDS x y z intensity
SIZE 4 4 4 4
TYPE F F F F
COUNT 1 1 1 1
WIDTH 1189
HEIGHT 1
VIEWPOINT 0 0 0 1 0 0 0
POINTS 1189
DATA ascii
3.3672395 -0.17175542 -1.2271683 182.92
9.5010843 -0.48462924 0.22087392 182.92
3.3966713 -0.17325667 -1.14922 182.92
3.3882611 -0.17282769 -1.0586468 182.92
3.4022882 -0.17354318 -0.97685879 182.92
4.3495822 -0.22186255 -1.140138 182.92
5.8085141 -0.29627943 -1.2362429 182.92
8.104682 -0.41340184 -1.528986 182.92
8.7911701 -0.47457394 -1.4464393 183.09
9.1881924 -0.4960064 -1.2931964 183.09
9.9496126 -0.53711015 -1.1652238 183.09
2.9720037 -0.16043775 -1.325148 183.09
3.2359514 -0.17468643 -1.3536054 183.09
18.595905 -1.0038631 -0.43237069 183.09
3.4043365 -0.18377636 -1.3312848 183.09
25.339106 -1.3678814 0 183.09
3.4342747 -0.18539251 -1.2517937 183.09
9.46766 -0.5110929 0.22013117 183.09
3.4131703 -0.18425325 -1.1549821 183.09
9.4579353 -0.5105679 0.44170406 183.09
3.4029849 -0.18370341 -1.0634128 183.09
4.3682246 -0.23580997 -1.1452031 183.09
4.3937721 -0.2371891 -1.0425889 183.09
5.8037028 -0.31330141 -1.2354113 183.09
8.081831 -0.43628165 -1.5249126 183.09
8.7995758 -0.50121689 -1.4480604 183.25999
9.2361135 -0.5260818 -1.3001552 183.25999
9.9618578 -0.56741959 -1.16685 183.25999
11.057979 -0.62985373 -1.0333298 183.25999
11.853794 -0.67518276 -0.83024156 183.25999
2.8675389 -0.16333276 -1.27878 183.25999
13.824544 -0.78743511 -0.64573944 183.25999
3.325701 -0.18942931 -1.3913769 183.25999
19.165762 -1.0916667 -0.44569367 183.25999
3.2586973 -0.18561283 -1.2745415 183.25999
23.701584 -1.3500235 0 183.25999
3.3868008 -0.19290951 -1.2346927 183.25999
3.4315255 -0.19545698 -1.1613845 183.25999
3.389082 -0.19303945 -1.0592426 183.25999
4.3225164 -0.24620713 -1.2414707 183.25999
4.3481894 -0.24766943 -1.140138 183.25999
4.3852773 -0.24978194 -1.0407445 183.25999
8.0589161 -0.45902953 -1.5208393 183.25999
8.8097773 -0.52956957 -1.4500059 183.44
9.2324381 -0.5549764 -1.2998768 183.44
10.069085 -0.60526854 -1.1796265 183.44
11.704241 -0.70356029 -0.81991762 183.44
2.956378 -0.17771253 -1.3186402 183.44
11.993294 -0.72093576 -0.56030548 183.44
3.2256131 -0.19389668 -1.3497511 183.44
2.9828706 -0.17930505 -1.1668748 183.44
30.21546 -1.8162987 0 183.44
3.328022 -0.20005263 -1.2134875 183.44
26.417183 -1.5879784 0.61443615 183.44
3.5349183 -0.2124895 -1.1965973 183.44
9.4705935 -0.56929231 0.44244939 183.44
4.300612 -0.25851655 -1.2354066 183.44
4.3396645 -0.26086405 -1.1381121 183.44
7.4283381 -0.44652909 -1.5817921 183.44
7.9985785 -0.48080713 -1.5097302 183.44
8.8100395 -0.55736822 -1.4503301 183.62
9.2346029 -0.58422828 -1.3004334 183.62
10.039378 -0.63514251 -1.1763743 183.62
10.962383 -0.69353652 -1.0247838 183.62
11.480955 -0.72634405 -0.80443168 183.62
3.1126385 -0.19692145 -1.3027296 183.62
13.988257 -0.88496882 -0.32541534 183.62
3.0008855 -0.18985139 -1.1741495 183.62
24.898222 -1.5751891 0 183.62
3.1004252 -0.19614878 -1.1307186 183.62
3.5758348 -0.22622561 -1.2106824 183.62
9.460783 -0.59853762 0.44207671 183.62
4.3805161 -0.27713388 -1.3696281 183.62
4.2767544 -0.27056938 -1.2287914 183.62
7.4288511 -0.46998718 -1.5822079 183.62
8.1166801 -0.51350272 -1.5323187 183.62
8.8084488 -0.58196831 -1.4503301 183.78
9.2270069 -0.60962212 -1.2995985 183.78
10.130727 -0.6693303 -1.1872925 183.78
11.006105 -0.727166 -1.0290569 183.78
11.626201 -0.76813525 -0.81475562 183.78
2.7182662 -0.17959403 -1.2128887 183.78
13.549702 -0.89521968 -0.63325512 183.78
2.9794908 -0.19685295 -1.2472286 183.78
16.320011 -1.0782522 -0.37972859 183.78
3.0059204 -0.19859914 -1.176332 183.78
9.5232372 -0.6291939 0 183.78
2.989223 -0.19749595 -1.0903602 183.78
9.5027161 -0.62783808 0.22110602 183.78
9.4869833 -0.62679863 0.44338104 183.78
4.353054 -0.28760338 -1.3612876 183.78
4.3162675 -0.28517288 -1.2403681 183.78
5.782927 -0.38207412 -1.3732109 183.78
7.4255576 -0.49060163 -1.5817921 183.78
8.1152143 -0.53616673 -1.5323187 183.78
8.8065767 -0.60963798 -1.4503301 183.96001
9.2467794 -0.64011109 -1.3026602 183.96001
10.1365 -0.7017023 -1.1882217 183.96001
10.987874 -0.76063889 -1.0275706 183.96001
11.709316 -0.81058091 -0.82075465 183.96001
2.7596114 -0.19103493 -1.2315985 183.96001
9.5607042 -0.66184258 -0.44692141 183.96001
2.8186843 -0.19512427 -1.1801651 183.96001
14.980103 -1.0370021 -0.34862614 183.96001
2.9643934 -0.20521103 -1.1603274 183.96001
30.105949 -2.0840936 0 183.96001
2.9417152 -0.20364113 -1.0732592 183.96001
2.9487624 -0.20412897 -0.99876499 183.96001
9.4869604 -0.65673774 0.44347423 183.96001
5.1477942 -0.35635763 -1.3508432 183.96001
5.8011131 -0.40158379 -1.3778222 183.96001
7.4278831 -0.51419747 -1.5826238 183.96001
8.138979 -0.56342328 -1.5371327 183.96001
8.8066978 -0.63590699 -1.4506544 184.13
9.2448397 -0.66754401 -1.3026602 184.13
10.027384 -0.72404927 -1.1756774 184.13
10.987555 -0.79338056 -1.0277563 184.13
11.784467 -0.85092336 -0.82619566 184.13
2.7225854 -0.19659027 -1.2153291 184.13
9.5985508 -0.69308448 -0.44878474 184.13
2.711333 -0.19577776 -1.135456 184.13
18.983446 -1.3707415 -0.44188711 184.13
2.9470482 -0.21279809 -1.1537801 184.13
26.716442 -1.9291195 0 184.13
2.9354746 -0.2119624 -1.071207 184.13
26.793005 -1.9346478 0.62367404 184.13
2.9405844 -0.21233137 -0.99620408 184.13
9.4431248 -0.68186164 0.44151771 184.13
2.9496865 -0.2129886 -0.92281598 184.13
5.8105578 -0.4195641 -1.5250802 184.13
5.8154244 -0.41991553 -1.3815111 184.13
7.4204712 -0.53581142 -1.5813763 184.13
8.1470728 -0.58827734 -1.5389842 184.13
8.820632 -0.66167849 -1.4532483 184.28999
9.2784891 -0.6960246 -1.3076705 184.28999
9.9044876 -0.74298376 -1.161507 184.28999
10.999197 -0.82510322 -1.0290569 184.28999
11.766129 -0.88263452 -0.82507956 184.28999
2.7657533 -0.20747259 -1.2348524 184.28999
2.7070951 -0.20307235 -1.1339144 184.28999
13.91913 -1.0441417 -0.32406911 184.28999
2.8869934 -0.2165674 -1.1305008 184.28999
26.573338 -1.9933952 0 184.28999
2.9404936 -0.22058071 -1.0732592 184.28999
26.376762 -1.9786491 0.61411119 184.28999
2.9380906 -0.22040045 -0.99556381 184.28999
2.9414649 -0.22065356 -0.92043298 184.28999
6.1103468 -0.45836681 -1.6040946 184.28999
5.7773566 -0.43338761 -1.3727498 184.28999
7.4443064 -0.55843359 -1.586782 184.28999
8.1512785 -0.611467 -1.5400951 184.28999
8.8186302 -0.68784684 -1.4532483 184.46001
9.406703 -0.73371613 -1.3260413 184.46001
10.009184 -0.78070921 -1.1740513 184.46001
2.7414451 -0.21383077 -1.2242773 184.46001
9.5784655 -0.74711353 -0.44803941 184.46001
2.7819161 -0.21698749 -1.165519 184.46001
9.5284834 -0.74321491 -0.22189519 184.46001
2.7841833 -0.21716431 -1.0904895 184.46001
26.587246 -2.0737863 0 184.46001
2.9808712 -0.23250583 -1.0102892 184.46001
4.267487 -0.33286095 -1.3356704 184.46001
5.1885114 -0.40470022 -1.4923006 184.46001
6.297996 -0.49123922 -1.6537319 184.46001
5.7857466 -0.45128411 -1.3750554 184.46001
7.4523687 -0.58127946 -1.5888611 184.46001
8.1415901 -0.63503826 -1.5386139 184.46001
8.8241682 -0.71772671 -1.4545453 184.64999
9.4476461 -0.76843816 -1.3321649 184.64999
10.141174 -0.82484728 -1.1898477 184.64999
2.788069 -0.22677168 -1.2454276 184.64999
9.565979 -0.77806294 -0.44757357 184.64999
2.810612 -0.22860524 -1.1778525 184.64999
15.0024 -1.2202423 -0.34946173 184.64999
2.7741635 -0.22564064 -1.0868522 184.64999
30.744471 -2.5006466 0 184.64999
3.2331419 -0.26297233 -1.1806536 184.64999
9.5140095 -0.77383584 0.22161667 184.64999
3.0065229 -0.24453996 -1.0192525 184.64999
9.45646 -0.76915509 0.44244939 184.64999
5.1855555 -0.42177474 -1.3619863 184.64999
7.4679489 -0.60741657 -1.5926036 184.64999
8.1649065 -0.66410458 -1.5434278 184.64999
8.8121672 -0.74307615 -1.452924 184.82001
9.358489 -0.78914416 -1.3199177 184.82001
10.128785 -0.85409856 -1.1886863 184.82001
11.584498 -0.97684991 -0.81294197 184.82001
2.7928457 -0.2355036 -1.2478681 184.82001
13.829835 -1.1661854 -0.64723015 184.82001
2.7933707 -0.23554786 -1.1709149 184.82001
14.992737 -1.2642457 -0.34932247 184.82001
2.7660561 -0.23324458 -1.0839423 184.82001
30.639263 -2.5836215 0 184.82001
2.8278358 -0.2384541 -1.0329008 184.82001
3.9233792 -0.33083457 -1.3304062 184.82001
4.0826755 -0.34426704 -1.2784784 184.82001
4.0843248 -0.34440613 -1.1753176 184.82001
5.1331534 -0.43284741 -1.2205807 184.82001
7.4680629 -0.62973607 -1.5930194 184.82001
8.1785679 -0.68964857 -1.5463903 184.82001
8.7882967 -0.76733083 -1.4493574 184.99001
9.4271355 -0.82310963 -1.3299382 184.99001
10.114333 -0.8831107 -1.1872925 184.99001
10.912911 -0.95283681 -1.0219971 184.99001
11.635214 -1.015903 -0.8167088 184.99001
3.003274 -0.26222426 -1.3422309 184.99001
13.758645 -1.2013059 -0.64406246 184.99001
2.833106 -0.24736643 -1.1878735 184.99001
17.231779 -1.5045549 -0.40159318 184.99001
2.7672079 -0.24161266 -1.0846697 184.99001
26.865788 -2.3457272 0 184.99001
2.7484808 -0.23997755 -1.0041711 184.99001
3.9582441 -0.34560537 -1.3425707 184.99001
4.1445723 -0.36187422 -1.1929585 184.99001
4.1170712 -0.35947302 -1.0818902 184.99001
7.4778552 -0.65291244 -1.5955143 184.99001
8.1843176 -0.71459562 -1.5478715 184.99001
8.7840166 -0.79322529 -1.4490331 185.16
9.4443769 -0.85285807 -1.3327216 185.16
9.9158058 -0.89542955 -1.1642946 185.16
9.7617159 -0.88151473 -0.91442823 185.16
11.902386 -1.0748242 -0.83568257 185.16
9.582552 -0.86533564 -0.44869158 185.16
2.9389639 -0.265398 -1.2325826 185.16
17.097801 -1.5439873 -0.39857575 185.16
2.7998769 -0.25283802 -1.0977644 185.16
30.60148 -2.7634134 0 185.16
2.7702179 -0.25015971 -1.0123796 185.16
2.75702 -0.2489679 -0.93538183 185.16
3.5937834 -0.32453036 -1.1259665 185.16
4.1300774 -0.37295946 -1.1890996 185.16
4.1005712 -0.37029493 -1.0778382 185.16
5.1304941 -0.46330035 -1.2205807 185.16
7.4700398 -0.67456895 -1.5942669 185.16
8.1958628 -0.74011314 -1.5504637 185.16
8.810955 -0.82357216 -1.4538968 185.34
9.4830618 -0.88639492 -1.3385669 185.34
9.8753643 -0.92306393 -1.1598809 185.34
9.9194975 -0.92718911 -0.92947668 185.34
9.982008 -0.93303204 -0.70105255 185.34
2.8269765 -0.2642414 -1.2641375 185.34
13.770942 -1.287189 -0.64499414 185.34
2.9785399 -0.27840823 -1.2495412 185.34
9.5040007 -0.88835204 -0.22161667 185.34
2.771245 -0.2590321 -1.0868522 185.34
9.5065613 -0.88859141 0 185.34
2.9696398 -0.27757633 -1.0855719 185.34
9.5258989 -0.89039892 0.2221273 185.34
2.7430186 -0.25639373 -0.93090022 185.34
9.4843063 -0.88651121 0.44421956 185.34
4.2781916 -0.39988846 -1.2320989 185.34
4.1070929 -0.38389567 -1.0798641 185.34
6.9329844 -0.64803565 -1.6498821 185.34
7.4639883 -0.69766927 -1.5934352 185.34
8.1954546 -0.76604044 -1.5508339 185.34
8.7732611 -0.84476894 -1.4480604 185.5
9.4549217 -0.9104054 -1.3349484 185.5
9.8767033 -0.95101833 -1.1603454 185.5
3.0281012 -0.29157299 -1.3544331 185.5
13.659907 -1.3152995 -0.63996309 185.5
3.1173615 -0.30016777 -1.3081255 185.5
14.192516 -1.3665838 -0.33103234 185.5
3.0412569 -0.29283974 -1.193064 185.5
27.552567 -2.6530104 0 185.5
3.5338144 -0.34026763 -1.292152 185.5
26.874428 -2.587713 0.6268307 185.5
2.7385199 -0.26368946 -0.92961973 185.5
4.5086122 -0.43412998 -1.2988032 185.5
4.0925236 -0.39406523 -1.0763186 185.5
4.1242075 -0.39711601 -0.98172134 185.5
7.4717469 -0.71944743 -1.5955143 185.5
8.2050219 -0.79005373 -1.5530558 185.5
8.8373346 -0.87896782 -1.4590846 185.67999
9.4263945 -0.93755609 -1.3313299 185.67999
9.8756437 -0.98223877 -1.1605778 185.67999
9.969305 -0.99155444 -0.93467867 185.67999
11.790889 -1.1727306 -0.82856739 185.67999
3.1271667 -0.31103033 -1.3991741 185.67999
3.1788414 -0.31616992 -1.3343343 185.67999
15.344136 -1.5261391 -0.35800329 185.67999
3.0273449 -0.30110195 -1.1879716 185.67999
27.534145 -2.7385664 0 185.67999
3.4878442 -0.34690356 -1.2757351 185.67999
3.6096885 -0.35902229 -1.131924 185.67999
4.8764515 -0.48501545 -1.4051993 185.67999
6.9619384 -0.69243956 -1.657721 185.67999
7.4811301 -0.74407876 -1.5980092 185.67999
8.2122774 -0.81679922 -1.5549073 185.67999
8.7933025 -0.90249538 -1.4522756 185.86
9.4923582 -0.97424263 -1.341072 185.86
9.8487959 -1.0108254 -1.1577902 185.86
3.195241 -0.32794166 -1.430086 185.86
13.4109 -1.3764198 -0.62868994 185.86
3.0988915 -0.31805289 -1.3011879 185.86
14.945441 -1.5339166 -0.34881181 185.86
3.0875418 -0.31688803 -1.2119784 185.86
30.11381 -3.090713 0 185.86
3.2792156 -0.33656037 -1.1998067 185.86
4.1806078 -0.4290742 -1.4200389 185.86
5.4276094 -0.55705953 -1.5645176 185.86
5.0734839 -0.52071404 -1.3351417 185.86
6.946177 -0.71291679 -1.6544932 185.86
5.9997406 -0.61577988 -1.2819835 185.86
6.0355453 -0.61945462 -1.143129 185.86
8.7945108 -0.92899626 -1.452924 186.03
9.4165516 -0.99470472 -1.3307732 186.03
9.8576059 -1.0412949 -1.159184 186.03
9.905632 -1.046368 -0.92929089 186.03
3.072516 -0.32456106 -1.3755833 186.03
13.643183 -1.4411792 -0.63977677 186.03
3.0226882 -0.31929758 -1.2695832 186.03
9.5403347 -1.0077803 -0.22273079 186.03
9.487215 -1.0021691 0 186.03
3.0987799 -0.32733542 -1.1341388 186.03
9.5124969 -1.0048398 0.22208089 186.03
5.1812115 -0.54731023 -1.4939544 186.03
5.0930815 -0.53800076 -1.3407131 186.03
6.9498372 -0.7341367 -1.6558766 186.03
5.9842691 -0.63214016 -1.2790728 186.03
7.9784532 -0.84279311 -1.5115817 186.03
8.7171602 -0.94698662 -1.4406029 186.2
9.4371862 -1.0252066 -1.3341134 186.2
9.8386745 -1.068822 -1.1573255 186.2
9.8331938 -1.0682267 -0.9227885 186.2
3.2186682 -0.34965926 -1.4414747 186.2
3.0162234 -0.32766673 -1.2672707 186.2
13.858706 -1.5055373 -0.32365131 186.2
3.0911634 -0.3358078 -1.2141608 186.2
30.939966 -3.361156 0 186.2
3.0660324 -0.3330777 -1.1225101 186.2
9.501523 -1.0321957 0.22189519 186.2
3.1024103 -0.33702961 -1.0544654 186.2
3.0577471 -0.33217764 -0.95975244 186.2
5.1795645 -0.56268078 -1.4939544 186.2
5.9628491 -0.64777273 -1.4211673 186.2
5.9882016 -0.65052688 -1.2803202 186.2
8.1459093 -0.88492888 -1.5437982 186.2
8.704505 -0.97175193 -1.4389817 186.37
9.4931526 -1.0597948 -1.3424637 186.37
9.8374338 -1.0982296 -1.1575578 186.37
9.8378973 -1.0982814 -0.92353159 186.37
3.1050363 -0.34663948 -1.3910394 186.37
13.366349 -1.49219 -0.62719923 186.37
14.472172 -1.6156416 -0.33808842 186.37
3.1290348 -0.34931862 -1.2294378 186.37
30.069204 -3.3568602 0 186.37
3.0706339 -0.34279886 -1.1245623 186.37
9.4984188 -1.0603827 0.22189519 186.37
3.0995135 -0.34602293 -1.0538251 186.37
3.0681326 -0.34251961 -0.96332693 186.37
3.4754796 -0.38799497 -1.0027688 186.37
3.5015204 -0.3909021 -0.92234176 186.37
5.9628348 -0.66567791 -1.4216284 186.37
5.9843011 -0.66807431 -1.2799044 186.37
8.0729294 -0.90124416 -1.5304673 186.37
8.6582747 -0.99414039 -1.4318484 186.55
9.4878082 -1.0893872 -1.3421854 186.55
9.7174988 -1.1157602 -1.1438521 186.55
9.7995281 -1.1251788 -0.68975198 186.55
2.7808328 -0.31929433 -1.2462411 186.55
13.506485 -1.5508103 -0.63400042 186.55
2.9316609 -0.3366124 -1.2325826 186.55
21.167187 -2.4304097 -0.49466845 186.55
3.2038064 -0.36786008 -1.2592645 186.55
26.861515 -3.0842307 0 186.55
3.151695 -0.36187664 -1.15466 186.55
9.4890814 -1.0895333 0.22175594 186.55
3.2715909 -0.37564307 -1.1127267 186.55
3.4217331 -0.39288235 -1.0747321 186.55
3.4876134 -0.40044668 -1.0066277 186.55
3.4829755 -0.39991418 -0.91778326 186.55
6.960289 -0.79917824 -1.6600267 186.55
7.536993 -0.86539525 -1.6125631 186.55
7.9509501 -0.9129256 -1.5078787 186.55
8.6415672 -1.018209 -1.4295787 186.72
9.5160055 -1.1212415 -1.3466389 186.72
9.7378197 -1.147377 -1.1466397 186.72
10.052505 -1.1844554 -0.94433939 186.72
9.6316891 -1.1348721 -0.67817241 186.72
2.7816875 -0.32775763 -1.2470546 186.72
13.561347 -1.5978914 -0.63679546 186.72
2.8518388 -0.33602333 -1.1994362 186.72
3.1953001 -0.37649229 -1.2563546 186.72
31.134621 -3.6684959 0 186.72
3.2457976 -0.38244227 -1.1895461 186.72
9.4838209 -1.1174492 0.2217095 186.72
3.3438499 -0.39399546 -1.1376958 186.72
3.452786 -0.40683109 -1.0848598 186.72
4.0725698 -0.47985825 -1.175869 186.72
3.4933026 -0.41160503 -0.92082226 186.72
6.9617529 -0.82028174 -1.6609489 186.72
7.5479922 -0.88935655 -1.6154739 186.72
7.975533 -0.93973231 -1.513063 186.72
8.6524048 -1.0439917 -1.4318484 186.88
9.5187359 -1.1485225 -1.347474 186.88
9.870656 -1.1909848 -1.1626685 186.88
10.003686 -1.2070361 -0.9400664 186.88
2.7807615 -0.33552426 -1.2470546 186.88
13.479478 -1.6264222 -0.63316196 186.88
2.7721052 -0.33447981 -1.1662898 186.88
13.702893 -1.6533792 -0.32044822 186.88
2.9186478 -0.35216153 -1.1479603 186.88
9.4653473 -1.1420807 0 186.88
3.205534 -0.38677695 -1.1751813 186.88
9.4528723 -1.1405754 0.22105961 186.88
3.3145199 -0.39992711 -1.1280923 186.88
9.4352379 -1.1384476 0.44319472 186.88
3.3777134 -0.40755197 -1.0616256 186.88
4.0578532 -0.48961705 -1.1720101 186.88
4.0799255 -0.49228027 -1.0758121 186.88
4.0863976 -0.49306121 -0.97526568 186.88
7.5551906 -0.91160274 -1.617553 186.88
8.0880022 -0.97589135 -1.5349109 186.88
8.6606464 -1.0741358 -1.4337938 187.07001
9.5011168 -1.178375 -1.3455255 187.07001
9.8291969 -1.2190651 -1.1582547 187.07001
10.00951 -1.2414284 -0.94099528 187.07001
11.87579 -1.4728935 -0.83679867 187.07001
2.7778203 -0.34451887 -1.2462411 187.07001
13.549351 -1.6804568 -0.6367023 187.07001
2.7691493 -0.34344345 -1.165519 187.07001
13.681461 -1.6968418 -0.32007685 187.07001
2.8305688 -0.35106099 -1.1137688 187.07001
26.381868 -3.2720087 0 187.07001
3.0718122 -0.38098118 -1.1266143 187.07001
9.456975 -1.1729003 0.22124529 187.07001
3.2041152 -0.39739007 -1.0909587 187.07001
3.3744488 -0.41851565 -1.0610298 187.07001
4.0600228 -0.50354391 -1.1731126 187.07001
4.0847402 -0.5066095 -0.97526568 187.07001
7.5734816 -0.9393003 -1.6221271 187.07001
8.1549387 -1.0114155 -1.5482419 187.07001
8.7474804 -1.1112688 -1.4487089 187.24001
9.540803 -1.2120514 -1.3516492 187.24001
9.8176537 -1.2472222 -1.1573255 187.24001
10.096654 -1.282666 -0.94954133 187.24001
9.7239122 -1.2353133 -0.68542713 187.24001
2.7840359 -0.35368034 -1.2494949 187.24001
9.5567217 -1.2140737 -0.44925058 187.24001
2.7754412 -0.35258847 -1.1686023 187.24001
14.908132 -1.8939099 -0.34890467 187.24001
2.7463479 -0.34889251 -1.0810324 187.24001
26.284746 -3.3391805 0 187.24001
2.906601 -0.36925083 -1.0664188 187.24001
9.4455194 -1.1999466 0.22105961 187.24001
3.0149572 -0.38301629 -1.0269353 187.24001
3.5303931 -0.44849661 -1.1104771 187.24001
3.774339 -0.47948718 -1.0909727 187.24001
4.7350974 -0.60154068 -1.2495426 187.24001
7.578424 -0.96275324 -1.6237903 187.24001
8.1265554 -1.0323871 -1.5434278 187.24001
8.8007002 -1.1461353 -1.4581119 187.42
9.5448036 -1.2430418 -1.3527626 187.42
9.8136873 -1.278059 -1.1573255 187.42
10.003715 -1.3028066 -0.94118106 187.42
2.8155234 -0.36667207 -1.2641375 187.42
2.8566711 -0.37203082 -1.2032905 187.42
14.965555 -1.9489986 -0.35039017 187.42
2.7323065 -0.35583454 -1.07594 187.42
24.873951 -3.2393916 0 187.42
2.9054265 -0.37838036 -1.0664188 187.42
9.4575644 -1.2316804 0.22143097 187.42
3.2222958 -0.41964695 -1.0980012 187.42
9.4716358 -1.2335129 0.44543073 187.42
3.7308726 -0.48588011 -1.0788447 187.42
6.3524818 -0.82729828 -1.677031 187.42
6.9396329 -0.90376431 -1.6581823 187.42
7.5656624 -0.98529357 -1.6217111 187.42
8.1719961 -1.0642577 -1.5526855 187.42
8.8305168 -1.1766739 -1.463624 187.59
9.5469637 -1.272141 -1.3535975 187.59
9.9102745 -1.3205525 -1.1691729 187.59
9.9484835 -1.3256439 -0.9363507 187.59
11.713609 -1.5608484 -0.82633519 187.59
2.8669446 -0.3820228 -1.2877282 187.59
9.5570488 -1.2734848 -0.44962323 187.59
2.7476251 -0.36612341 -1.1578106 187.59
9.5133266 -1.2676589 -0.22282362 187.59
2.7256987 -0.36320168 -1.0737575 187.59
9.4544334 -1.2598114 0 187.59
2.7533946 -0.36689219 -1.0110116 187.59
9.4439592 -1.2584156 0.22119887 187.59
3.3449945 -0.44572338 -1.1402568 187.59
9.4382296 -1.257652 0.44403324 187.59
3.2891347 -0.43828002 -1.0354127 187.59
3.323633 -0.44287694 -0.87776953 187.59
3.3064189 -0.44058314 -0.79035717 187.59
7.5607667 -1.0074786 -1.6212953 187.59
8.1610098 -1.0874615 -1.5512042 187.59
8.8524075 -1.2063335 -1.4678391 187.75999
9.5372591 -1.2996595 -1.3527626 187.75999
9.9004078 -1.3491464 -1.168476 187.75999
11.855214 -1.6155313 -0.83665913 187.75999
3.115628 -0.42457223 -1.3999876 187.75999
2.8598988 -0.38972354 -1.205603 187.75999
2.8021386 -0.38185245 -1.1043116 187.75999
25.100018 -3.4204247 0 187.75999
2.7113261 -0.36947727 -0.99596268 187.75999
9.4778252 -1.2915603 0.22208089 187.75999
3.3117416 -0.45129699 -1.1293727 187.75999
9.4304972 -1.2851108 0.44384688 187.75999
3.2613356 -0.44442809 -1.0270721 187.75999
3.2669337 -0.44519091 -0.94543612 187.75999
3.3280556 -0.45352012 -0.87928903 187.75999
3.3205235 -0.4524937 -0.7940461 187.75999
7.5751896 -1.0322847 -1.6250378 187.75999
8.223959 -1.1206937 -1.5637946 187.75999
8.8663816 -1.2350442 -1.4707574 187.92999
9.8471746 -1.3716639 -1.1626685 187.92999
10.070614 -1.402788 -0.94861245 187.92999
11.856297 -1.651525 -0.83707768 187.92999
3.1161642 -0.43406665 -1.4008009 187.92999
2.966572 -0.4132292 -1.2510829 187.92999
14.189144 -1.9764794 -0.3326107 187.92999
2.9301562 -0.40815666 -1.1552351 187.92999
25.31954 -3.52689 0 187.92999
3.2481663 -0.45245394 -1.1936502 187.92999
9.4739513 -1.3196758 0.22208089 187.92999
3.2953749 -0.45902985 -1.1242509 187.92999
9.4266424 -1.3130859 0.44384688 187.92999
3.2675664 -0.4551563 -1.0294551 187.92999
3.259886 -0.45408642 -0.94378233 187.92999
3.3036997 -0.46018946 -0.87321103 187.92999
6.9370961 -0.96630412 -1.6595656 187.92999
7.5798435 -1.0558357 -1.6267011 187.92999
8.2361708 -1.147259 -1.5667571 187.92999
8.8570366 -1.2589658 -1.4697846 188.09
9.4943209 -1.3495514 -1.3477523 188.09
9.8275719 -1.3969207 -1.1608101 188.09
10.037085 -1.4267014 -0.9458257 188.09
11.750899 -1.6703082 -0.82996255 188.09
3.133029 -0.44533816 -1.4089358 188.09
2.9909861 -0.42514777 -1.2618748 188.09
3.0156949 -0.42865995 -1.1894265 188.09
24.959116 -3.5477638 0 188.09
3.0291903 -0.43057823 -1.1136175 188.09
9.4920044 -1.3492222 0.22259152 188.09
3.2771971 -0.46583065 -1.1184888 188.09
9.4387627 -1.3416542 0.44459224 188.09
3.3456717 -0.47556382 -1.0544766 188.09
3.3880358 -0.48158562 -0.981269 188.09
6.3442893 -0.9017964 -1.6775376 188.09
6.9343705 -0.98567235 -1.6595656 188.09
7.5729918 -1.0764478 -1.6258694 188.09
8.273798 -1.1760626 -1.5745335 188.09
8.8610744 -1.2863737 -1.4710816 188.25999
9.4863548 -1.3771466 -1.3471956 188.25999
9.8214178 -1.425788 -1.1605778 188.25999
9.957921 -1.4456043 -0.93876588 188.25999
11.844613 -1.719498 -0.83693814 188.25999
3.1009555 -0.45016974 -1.3951067 188.25999
9.5335951 -1.3840045 -0.44925058 188.25999
3.0116274 -0.43720189 -1.2711248 188.25999
16.536158 -2.4005756 -0.3879452 188.25999
2.9922855 -0.434394 -1.1806968 188.25999
29.79369 -4.3251891 0 188.25999
2.9795423 -0.43254405 -1.0958326 188.25999
9.4780664 -1.3759432 0.2223594 188.25999
3.3133025 -0.48099646 -1.1312934 188.25999
9.4149694 -1.3667834 0.44366056 188.25999
3.3612504 -0.48795712 -1.0598383 188.25999
5.9550748 -0.86450595 -1.7254899 188.25999
6.3320122 -0.91922647 -1.6750051 188.25999
6.9294896 -1.0059631 -1.6591045 188.25999
7.5794449 -1.100318 -1.6279485 188.25999
8.2663822 -1.2000415 -1.5737928 188.25999
8.8430948 -1.3137211 -1.4688119 188.45
9.3583164 -1.3902618 -1.3296598 188.45
9.9227409 -1.474112 -1.173122 188.45
10.020043 -1.4885672 -0.94508255 188.45
11.838846 -1.7587667 -0.83693814 188.45
3.0090828 -0.44702619 -1.3544331 188.45
3.0795281 -0.45749149 -1.3004171 188.45
13.806714 -2.0511112 -0.32406911 188.45
3.0037282 -0.44623071 -1.1857892 188.45
9.4245682 -1.4001042 0 188.45
2.9892454 -0.44407922 -1.0999367 188.45
9.4398289 -1.4023713 0.22157024 188.45
3.238596 -0.48112246 -1.1063243 188.45
9.4202662 -1.3994648 0.4441264 188.45
3.3558369 -0.49853963 -1.0586468 188.45
3.7329457 -0.55456251 -1.0821522 188.45
6.2963943 -0.93538582 -1.6663946 188.45
6.9261155 -1.0289365 -1.6591045 188.45
7.5815597 -1.1263086 -1.629196 188.45
8.2370844 -1.2236927 -1.5689789 188.45
8.884037 -1.3467565 -1.4762694 188.62
9.4618492 -1.4343487 -1.3449688 188.62
9.886899 -1.4987831 -1.1694052 188.62
11.847383 -1.7959787 -0.83791476 188.62
2.5705817 -0.38968179 -1.1575725 188.62
12.218968 -1.8523082 -0.57633018 188.62
3.2606206 -0.49428675 -1.3775016 188.62
3.0410719 -0.46100476 -1.2010663 188.62
23.17127 -3.5125988 0 188.62
3.3000848 -0.50026929 -1.2148556 188.62
9.4593496 -1.4339697 0.2221273 188.62
3.257761 -0.49385327 -1.1133668 188.62
9.4002695 -1.4250137 0.44338104 188.62
3.4034216 -0.51593441 -1.0741364 188.62
3.4681706 -0.52574986 -0.91828978 188.62
6.9307289 -1.0506489 -1.6609489 188.62
7.5569081 -1.1455733 -1.624622 188.62
8.1498585 -1.2354603 -1.5530558 188.62
8.8878031 -1.3743163 -1.4775664 188.78999
9.3342438 -1.4433491 -1.327433 188.78999
9.8824081 -1.5281115 -1.1694052 188.78999
9.9165707 -1.5333941 -0.93616492 188.78999
11.761164 -1.8186225 -0.83219475 188.78999
2.5730255 -0.39786553 -1.1591995 188.78999
3.1387684 -0.48534608 -1.3266258 188.78999
16.368999 -2.5311296 -0.38455644 188.78999
3.2495785 -0.50248063 -1.2839987 188.78999
22.395836 -3.4630563 0 188.78999
3.1648595 -0.48938057 -1.1656046 188.78999
9.4412212 -1.459891 0.22180235 188.78999
3.3105841 -0.51191384 -1.1319337 188.78999
9.4256163 -1.4574779 0.44477856 188.78999
3.3169703 -0.51290137 -1.0473276 188.78999
3.3192012 -0.5132463 -0.96307695 188.78999
3.4627712 -0.53544647 -0.91727674 188.78999
6.9083486 -1.0682342 -1.6563377 188.78999
7.5747423 -1.1712784 -1.629196 188.78999
8.0723486 -1.2482229 -1.5389842 188.78999
8.8875856 -1.4012955 -1.4782149 188.96001
9.3084002 -1.467645 -1.3243712 188.96001
9.8444729 -1.5521669 -1.1654561 188.96001
10.081144 -1.5894827 -0.95214236 188.96001
2.9382071 -0.46326381 -1.3243345 188.96001
3.0042384 -0.47367489 -1.270354 188.96001
15.113177 -2.3828776 -0.35521799 188.96001
3.4928291 -0.55071044 -1.3807533 188.96001
3.2710679 -0.51574558 -1.205279 188.96001
9.4348726 -1.4875858 0.22175594 188.96001
3.1873944 -0.50255287 -1.0903184 188.96001
9.4192762 -1.4851267 0.4446854 188.96001
3.4059579 -0.53701353 -1.0759236 188.96001
3.4297085 -0.54075831 -0.99560213 188.96001
6.3585329 -1.0025427 -1.6851351 188.96001
6.9262943 -1.092061 -1.6614101 188.96001
7.5615716 -1.1922245 -1.6271169 188.96001
8.1559744 -1.2859433 -1.5556479 188.96001
8.8928814 -1.4307773 -1.4798361 189.14
9.3584948 -1.5056897 -1.3321649 189.14
9.9434938 -1.5998105 -1.1777681 189.14
3.1351655 -0.5044173 -1.4138166 189.14
3.022778 -0.48633528 -1.2788334 189.14
9.4992456 -1.5283352 -0.22338068 189.14
3.2556453 -0.52380133 -1.2876362 189.14
9.4879837 -1.5265232 0 189.14
3.3269527 -0.53527397 -1.2264842 189.14
9.4301529 -1.5172189 0.22175594 189.14
3.3073952 -0.53212738 -1.1319337 189.14
9.3908949 -1.5109026 0.4435674 189.14
3.528662 -0.56772703 -1.1152431 189.14
3.4393816 -0.55336267 -0.99890977 189.14
6.328609 -1.018211 -1.6780441 189.14
6.9132223 -1.1122695 -1.6591045 189.14
7.5790348 -1.2193922 -1.631691 189.14
8.2139893 -1.3215501 -1.5674976 189.14
8.9044323 -1.4581567 -1.48243 189.3
9.4363422 -1.5452603 -1.3438555 189.3
9.8723354 -1.6166569 -1.1698698 189.3
9.7924795 -1.60358 -0.92576104 189.3
10.214672 -1.6727166 -0.72379315 189.3
2.9462247 -0.48246279 -1.3292154 189.3
13.773379 -2.2554774 -0.65086365 189.3
3.0596538 -0.50103754 -1.2950211 189.3
15.009978 -2.4579782 -0.35312903 189.3
3.0574489 -0.50067645 -1.209796 189.3
9.4377184 -1.5454857 0.22203445 189.3
3.4012587 -0.55697745 -1.1645856 189.3
9.4024115 -1.539704 0.44431272 189.3
3.4743075 -0.56893969 -1.098562 189.3
3.409364 -0.55830479 -0.99064064 189.3
6.3448343 -1.0390065 -1.6831092 189.3
6.9139304 -1.1321995 -1.6600267 189.3
7.5756001 -1.2405521 -1.631691 189.3
8.1869917 -1.3406713 -1.563054 189.3
8.9095402 -1.4877489 -1.4840512 189.48
9.425581 -1.5739192 -1.3430204 189.48
9.8260622 -1.6407931 -1.1649915 189.48
10.298074 -1.7196114 -0.97406483 189.48
2.769887 -0.46252623 -1.2503084 189.48
13.801696 -2.3046594 -0.65254062 189.48
2.9615901 -0.49453753 -1.2541662 189.48
15.05543 -2.5140128 -0.3543824 189.48
2.9823585 -0.49800551 -1.1806968 189.48
23.039003 -3.8471401 0 189.48
2.9474127 -0.49217016 -1.0876241 189.48
9.4229555 -1.5734808 0.22180235 189.48
3.2836215 -0.54831159 -1.124891 189.48
9.3935871 -1.5685767 0.4441264 189.48
3.459321 -0.57765055 -1.0943918 189.48
3.462585 -0.57819557 -1.0066277 189.48
3.4198129 -0.57105333 -0.90765321 189.48
6.9141784 -1.1545558 -1.6609489 189.48
7.569736 -1.2640232 -1.6312752 189.48
8.2040634 -1.3699456 -1.5671273 189.48
8.9145508 -1.5173874 -1.4856724 189.66
9.4244947 -1.6041874 -1.3435771 189.66
9.7934427 -1.6669878 -1.1617392 189.66
10.23569 -1.7422649 -0.9686771 189.66
2.716186 -0.46233475 -1.2267177 189.66
13.796356 -2.3483424 -0.65263379 189.66
3.0964704 -0.52706474 -1.3119798 189.66
2.9642498 -0.50455886 -1.1741495 189.66
23.05835 -3.9248698 0 189.66
2.932883 -0.49921975 -1.0828358 189.66
9.4258509 -1.6044182 0.22198804 189.66
3.2986939 -0.56148612 -1.1306533 189.66
9.3827038 -1.597074 0.44384688 189.66
3.4913678 -0.59428209 -1.1051153 189.66
3.4228461 -0.58261871 -0.99560213 189.66
3.4294462 -0.58374208 -0.91069221 189.66
3.4303179 -0.5838905 -0.82447994 189.66
7.5753703 -1.2894393 -1.6333542 189.66
8.1474056 -1.386808 -1.5571291 189.66
8.920001 -1.5439585 -1.4872936 189.82001
9.4902325 -1.6426597 -1.3535975 189.82001
9.831811 -1.7017832 -1.16685 189.82001
10.248445 -1.7738981 -0.97034913 189.82001
9.8294821 -1.70138 -0.69756472 189.82001
2.9345236 -0.50793517 -1.3259615 189.82001
13.746437 -2.3793638 -0.65058416 189.82001
3.1168077 -0.53948665 -1.3212298 189.82001
9.4666471 -1.6385772 -0.22305574 189.82001
3.0858216 -0.5341233 -1.2228906 189.82001
23.029564 -3.9861755 0 189.82001
2.961107 -0.51253653 -1.0937804 189.82001
9.4272442 -1.6317569 0.2221273 189.82001
2.9890587 -0.51737469 -1.0250146 189.82001
9.3939562 -1.6259952 0.44459224 189.82001
3.5348444 -0.61184442 -1.1194133 189.82001
3.4609873 -0.59906054 -1.0071789 189.82001
3.4926221 -0.60453618 -0.92791331 189.82001
3.5130484 -0.6080718 -0.84476912 189.82001
7.5698123 -1.3102551 -1.6329384 189.82001
8.2132196 -1.4216219 -1.5704601 189.82001
8.9284372 -1.5759312 -1.4895633 190.00999
9.457428 -1.6693017 -1.3497007 190.00999
9.8261137 -1.7343774 -1.16685 190.00999
10.126805 -1.7874514 -0.9593879 190.00999
3.1217473 -0.55101007 -1.4113761 190.00999
13.738471 -2.4249356 -0.65058416 190.00999
3.1840622 -0.5620091 -1.350522 190.00999
3.1207263 -0.55082989 -1.2374401 190.00999
22.862593 -4.0354066 0 190.00999
2.9371817 -0.51843297 -1.0855719 190.00999
9.4198122 -1.6626623 0.22208089 190.00999
3.0283768 -0.53452951 -1.0390997 190.00999
9.3983498 -1.658874 0.44505805 190.00999
3.1680474 -0.55918241 -1.0038379 190.00999
3.6563635 -0.64537352 -0.97197908 190.00999
3.4669335 -0.61193782 -0.83416343 190.00999
7.5634995 -1.3350102 -1.6325226 190.00999
8.293622 -1.4638819 -1.5867535 190.00999
8.9220591 -1.6005094 -1.4892391 190.17
9.4780722 -1.7002515 -1.3533193 190.17
9.9092188 -1.7775939 -1.1773034 190.17
10.29818 -1.8473688 -0.97610843 190.17
10.431604 -1.8713037 -0.7410928 190.17
3.100414 -0.55617678 -1.4024279 190.17
10.463424 -1.8770115 -0.49574083 190.17
3.173398 -0.56926918 -1.3466678 190.17
14.374608 -2.5786307 -0.33906329 190.17
3.043993 -0.5460555 -1.2076135 190.17
23.118961 -4.1472621 0 190.17
2.9394224 -0.52729678 -1.0869401 190.17
9.4230042 -1.6903729 0.22226657 190.17
2.9914374 -0.53662771 -1.0269353 190.17
9.4271097 -1.6911094 0.44664189 190.17
2.9747939 -0.53364199 -0.94307142 190.17
3.7732801 -0.67688084 -1.0992417 190.17
3.8145168 -0.68427813 -1.0145253 190.17
3.7946839 -0.68072039 -0.91347581 190.17
3.4120893 -0.61208755 -0.73683906 190.17
8.2875671 -1.4866892 -1.5863831 190.17
8.9228106 -1.6295946 -1.4902117 190.35001
9.4668388 -1.7289518 -1.3524842 190.35001
9.8586397 -1.8005073 -1.1719606 190.35001
10.378519 -1.8954542 -0.98428297 190.35001
10.433525 -1.9055001 -0.74165082 190.35001
3.1184225 -0.56952506 -1.4113761 190.35001
10.457475 -1.9098741 -0.49574083 190.35001
3.0572205 -0.55834758 -1.2981045 190.35001
14.374304 -2.6252141 -0.33924899 190.35001
3.0770836 -0.56197524 -1.2214355 190.35001
3.0948997 -0.56522906 -1.1450834 190.35001
9.4235487 -1.7210455 0.22240584 190.35001
3.0531104 -0.55759698 -1.0487033 190.35001
9.38834 -1.7146153 0.44505805 190.35001
2.939296 -0.53681076 -0.93234795 190.35001
3.3947783 -0.61999655 -0.98953813 190.35001
3.9379673 -0.71920049 -1.0479544 190.35001
3.9705706 -0.72515494 -0.9563598 190.35001
3.6699522 -0.67025226 -0.79297519 190.35001
8.2635212 -1.509187 -1.5826801 190.35001
8.9240465 -1.6555854 -1.4911845 190.50999
9.4931307 -1.7611616 -1.3569378 190.50999
9.8594332 -1.8291179 -1.1726575 190.50999
9.9757233 -1.8506919 -0.94656885 190.50999
9.7435455 -1.8076185 -0.6929608 190.50999
3.0054407 -0.55756807 -1.3609408 190.50999
13.801252 -2.5604024 -0.65459031 190.50999
3.0955687 -0.57428861 -1.3150631 190.50999
14.270587 -2.6474733 -0.33697432 190.50999
2.9692609 -0.55085605 -1.1792419 190.50999
22.700655 -4.2114158 0 190.50999
3.1524405 -0.58483946 -1.1669728 190.50999
9.4147739 -1.7466248 0.22231299 190.50999
3.1670454 -0.58754891 -1.0883977 190.50999
9.3894081 -1.7419192 0.44533756 190.50999
3.1292579 -0.58053857 -0.99311441 190.50999
3.2569342 -0.60422504 -0.94984633 190.50999
3.6981509 -0.68607938 -0.98464161 190.50999
6.9037881 -1.2807878 -1.6637156 190.50999
3.9604342 -0.73473811 -0.85618037 190.50999
8.2360849 -1.5279551 -1.5782365 190.50999
8.9246197 -1.6847111 -1.4921572 190.69
9.4856052 -1.790609 -1.3566594 190.69
9.9902773 -1.8858767 -1.1889186 190.69
2.8528621 -0.53853822 -1.2926091 190.69
13.799029 -2.6048594 -0.65486979 190.69
2.8706946 -0.54190451 -1.2202491 190.69
9.4563942 -1.785095 -0.2234271 190.69
3.0974932 -0.58471751 -1.2308928 190.69
9.4569769 -1.785205 0 190.69
3.1321199 -0.59125406 -1.1601323 190.69
9.4328175 -1.7806443 0.22287005 190.69
3.1260846 -0.59011477 -1.0749528 190.69
9.3917427 -1.7728906 0.44571024 190.69
3.2474875 -0.6130321 -1.0312424 190.69
3.5289478 -0.66616374 -1.0297811 190.69
3.6693602 -0.69266951 -0.97755057 190.69
6.8844314 -1.2995824 -1.6600267 190.69
7.5452003 -1.4243165 -1.6321068 190.69
4.0055375 -0.75613016 -0.76801091 190.69
8.9231586 -1.7134846 -1.4928057 190.87
9.4235277 -1.8095688 -1.3485874 190.87
9.9686966 -1.9142557 -1.1870601 190.87
10.622943 -2.0398884 -1.0091779 190.87
2.8816595 -0.55335552 -1.3064381 190.87
13.720147 -2.6346343 -0.65151578 190.87
2.8381679 -0.54500395 -1.2071447 190.87
14.245816 -2.7355769 -0.33678862 190.87
2.9401271 -0.56458288 -1.1690571 190.87
22.881943 -4.3939433 0 190.87
3.0914881 -0.5936482 -1.1457675 190.87
9.4232492 -1.8095154 0.2227772 190.87
3.1316583 -0.60136199 -1.0775138 190.87
9.3822021 -1.8016332 0.44552389 190.87
3.3374183 -0.64087337 -1.0604341 190.87
3.623127 -0.69573706 -1.0578961 190.87
3.7678704 -0.72353166 -1.0043952 190.87
5.2099271 -1.000445 -1.2570091 190.87
7.5445309 -1.4487513 -1.6329384 190.87
3.9819105 -0.76463312 -0.76393753 190.87
8.9238462 -1.7410864 -1.4937785 191.03999
9.4647703 -1.8466232 -1.3552676 191.03999
10.005866 -1.9521937 -1.1921707 191.03999
10.007039 -1.9524226 -0.95121342 191.03999
2.8800049 -0.56190312 -1.3064381 191.03999
13.812273 -2.6948423 -0.65626734 191.03999
2.8673308 -0.55943036 -1.2202491 191.03999
14.840112 -2.8953788 -0.35104007 191.03999
2.854327 -0.55689323 -1.1355932 191.03999
22.829544 -4.4541564 0 191.03999
3.0897131 -0.60281819 -1.1457675 191.03999
9.406064 -1.8351694 0.22249867 191.03999
3.1391587 -0.61246532 -1.0807149 191.03999
9.3787766 -1.8298454 0.44561705 191.03999
3.1443665 -0.6134814 -0.99966764 191.03999
3.5946295 -0.70132989 -1.0501783 191.03999
3.7429192 -0.73026192 -0.99831724 191.03999
5.1935654 -1.0132902 -1.2537813 191.03999
7.5363588 -1.4703807 -1.6321068 191.03999
8.2254572 -1.6048272 -1.5789771 191.03999
8.9186411 -1.7675563 -1.4937785 191.21001
9.4747915 -1.8777778 -1.3574945 191.21001
9.8324537 -1.9486617 -1.1721928 191.21001
10.253186 -2.0320451 -0.97517955 191.21001
3.102354 -0.61484534 -1.4081223 191.21001
13.853209 -2.745522 -0.65859652 191.21001
2.8493659 -0.56470644 -1.2133114 191.21001
14.009665 -2.7765296 -0.3315894 191.21001
2.8636267 -0.56753278 -1.139958 191.21001
22.776991 -4.5140972 0 191.21001
3.1782439 -0.62988567 -1.1792854 191.21001
9.4182291 -1.866568 0.22291647 191.21001
3.1559138 -0.62546015 -1.0871173 191.21001
9.3831043 -1.8596066 0.44608289 191.21001
3.1537693 -0.62503517 -1.0032421 191.21001
3.505784 -0.69479984 -1.0248197 191.21001
3.7426338 -0.74174029 -0.9988237 191.21001
6.8838072 -1.3642792 -1.6627934 191.21001
7.5319633 -1.492735 -1.6321068 191.21001
8.230299 -1.6311359 -1.5808285 191.21001
8.9133577 -1.7940106 -1.4937785 191.38
9.4808283 -1.9082265 -1.3591645 191.38
9.8422079 -1.9809623 -1.1740513 191.38
10.229542 -2.0589218 -0.97350746 191.38
3.0181222 -0.60746396 -1.3707025 191.38
13.856753 -2.7889783 -0.65915549 191.38
2.9073813 -0.58517486 -1.2387494 191.38
14.463962 -2.9111924 -0.34254491 191.38
2.8235765 -0.56830722 -1.124681 191.38
9.4406757 -1.9001449 0 191.38
3.5079997 -0.70606256 -1.3024127 191.38
9.4126501 -1.8945042 0.22291647 191.38
3.2394893 -0.65201896 -1.1165681 191.38
9.3618774 -1.884285 0.44533756 191.38
3.3540418 -0.67507517 -1.0675831 191.38
3.2756553 -0.65929812 -0.95811546 191.38
3.7461069 -0.75398695 -1.0003432 191.38
3.7813709 -0.76108462 -0.91393691 191.38
7.5179119 -1.5131462 -1.6300277 191.38
8.2273502 -1.6559362 -1.5811989 191.38
8.8983278 -1.8184733 -1.4921572 191.55
9.4945288 -1.9403137 -1.361948 191.55
9.8460178 -2.0121446 -1.1752127 191.55
10.098522 -2.0637465 -0.96161729 191.55
13.889523 -2.83848 -0.66111201 191.55
2.8712783 -0.58677799 -1.2241033 191.55
2.7890227 -0.56996816 -1.1115865 191.55
22.728249 -4.6447735 0 191.55
2.8153911 -0.57535684 -1.0458976 191.55
9.4128647 -1.9236246 0.22305574 191.55
3.2728119 -0.66883594 -1.1287324 191.55
9.3621178 -1.913254 0.44561705 191.55
3.3389301 -0.68234795 -1.0634128 191.55
3.2699175 -0.66824442 -0.95701289 191.55
3.7324796 -0.76277417 -0.9973042 191.55
3.7752826 -0.77152145 -0.91301465 191.55
3.7758615 -0.77163976 -0.81917208 191.55
8.1935158 -1.6744372 -1.5756444 191.55
8.8970795 -1.8441162 -1.4928057 191.71001
9.4890738 -1.9668199 -1.361948 191.71001
9.8403606 -2.0396318 -1.1752127 191.71001
10.06737 -2.0866847 -0.95920211 191.71001
2.5333152 -0.52508551 -1.1518781 191.71001
13.930448 -2.8873928 -0.66344118 191.71001
2.8551719 -0.59179741 -1.2179365 191.71001
14.699517 -3.0467992 -0.3485333 191.71001
2.8111353 -0.58266979 -1.1210437 191.71001
22.546768 -4.6733155 0 191.71001
9.4368238 -1.95599 0.22375205 191.71001
3.4100804 -0.70681441 -1.1767501 191.71001
9.362607 -1.9406068 0.44589657 191.71001
3.7221234 -0.77149218 -1.1861372 191.71001
3.7876115 -0.78506607 -1.1091647 191.71001
3.7530694 -0.77790648 -1.0033822 191.71001
6.8868847 -1.4274589 -1.6664823 191.71001
7.5263124 -1.5599943 -1.6337701 191.71001
3.775897 -0.78263795 -0.72653681 191.71001
8.8870535 -1.8727959 -1.4921572 191.89999
9.470871 -1.9958255 -1.3602779 191.89999
9.8024426 -2.0656986 -1.1714959 191.89999
10.023374 -2.1122561 -0.9556722 191.89999
2.5226209 -0.53159958 -1.1478108 191.89999
13.856285 -2.9199772 -0.66036665 191.89999
2.6942816 -0.56777418 -1.1501021 191.89999
14.076951 -2.9664788 -0.33400333 191.89999
2.8274171 -0.59583026 -1.1283184 191.89999
22.895153 -4.8247657 0 191.89999
2.8007898 -0.59021902 -1.0417933 191.89999
9.4165897 -1.9843867 0.2234271 191.89999
3.3724911 -0.71069533 -1.1645856 191.89999
9.35221 -1.9708198 0.44571024 191.89999
3.6840491 -0.77635092 -1.174818 191.89999
3.8320174 -0.80753273 -1.1229466 191.89999
3.7750809 -0.79553431 -1.0099667 191.89999
6.880209 -1.4498874 -1.6660212 191.89999
7.5421548 -1.5893812 -1.6383442 191.89999
3.752126 -0.79069692 -0.72246349 191.89999
8.8872471 -1.9003941 -1.49313 192.07001
9.4532871 -2.0214326 -1.3586078 192.07001
9.8098679 -2.0976815 -1.173122 192.07001
10.059903 -2.1511476 -0.95975947 192.07001
2.5281794 -0.54061025 -1.1510648 192.07001
13.997992 -2.9932442 -0.66754049 192.07001
2.6691244 -0.57074904 -1.140081 192.07001
9.4556313 -2.0219338 -0.2244948 192.07001
2.8730042 -0.61434543 -1.1472329 192.07001
16.006151 -3.4226563 0 192.07001
2.7953508 -0.59774053 -1.0404253 192.07001
9.4419451 -2.0190072 0.22416985 192.07001
9.3678122 -2.003155 0.44673505 192.07001
3.5043643 -0.74935156 -1.1182218 192.07001
3.8070443 -0.81407481 -1.1163313 192.07001
3.8786576 -0.82938814 -1.0383309 192.07001
6.8663611 -1.4682603 -1.6637156 192.07001
7.5393186 -1.6121613 -1.63876 192.07001
8.2164211 -1.7569488 -1.5830504 192.07001
8.8912134 -1.9288467 -1.4947511 192.24001
9.4588614 -2.0519915 -1.3602779 192.24001
9.869606 -2.1410978 -1.1810203 192.24001
10.098236 -2.1906965 -0.96403253 192.24001
11.630408 -2.5230837 -0.83219475 192.24001
2.5497763 -0.55314475 -1.1616398 192.24001
2.6565979 -0.57631844 -1.135456 192.24001
2.9986143 -0.65051496 -1.1981564 192.24001
9.454092 -2.0509567 0 192.24001
3.0139644 -0.65384501 -1.1225101 192.24001
9.4183264 -2.0431979 0.22375205 192.24001
2.8478911 -0.61781728 -0.98467988 192.24001
9.3969707 -2.0385649 0.44841206 192.24001
3.4853332 -0.75610304 -1.1128601 192.24001
3.5415773 -0.76830459 -1.0391529 192.24001
3.8818521 -0.84212327 -1.0398505 192.24001
3.8988492 -0.84581065 -0.94529295 192.24001
5.7087092 -1.238439 -1.2416487 192.24001
8.2111721 -1.7813196 -1.5830504 192.24001
8.875473 -1.9546474 -1.49313 192.42
9.4504337 -2.0812712 -1.3599995 192.42
9.8608904 -2.1716661 -1.180788 192.42
10.274111 -2.2626698 -0.98149621 192.42
11.410045 -2.5128367 -0.81698781 192.42
13.936522 -3.0692434 -0.66549081 192.42
2.95035 -0.64975625 -1.2618748 192.42
15.28744 -3.3667564 -0.36343461 192.42
3.0056529 -0.66193563 -1.2017937 192.42
16.03182 -3.5306916 0 192.42
3.0798054 -0.67826623 -1.1478196 192.42
9.4411516 -2.079227 0.22444838 192.42
2.966213 -0.65324974 -1.0262951 192.42
9.3671074 -2.0629201 0.44729406 192.42
3.5410237 -0.77984041 -1.0397041 192.42
3.9113092 -0.8613885 -1.048461 192.42
6.8800712 -1.5151997 -1.6692491 192.42
5.7105222 -1.2576295 -1.2428961 192.42
8.1901798 -1.8037252 -1.580088 192.42
8.8600035 -1.9788219 -1.4915087 192.59
9.4345522 -2.1071434 -1.3586078 192.59
9.8427715 -2.1983163 -1.1793942 192.59
10.832023 -2.4192591 -0.77611053 192.59
13.954652 -3.116677 -0.66679519 192.59
3.0186522 -0.67419559 -1.2919377 192.59
3.0127666 -0.67288107 -1.2054311 192.59
3.0410955 -0.6792081 -1.1341388 192.59
9.4329891 -2.1067944 0.22440197 192.59
2.8292704 -0.6318984 -0.97955799 192.59
9.3745937 -2.0937521 0.44794622 192.59
3.4880342 -0.77902883 -1.0248197 192.59
3.8992949 -0.87088114 -1.0459285 192.59
5.6941671 -1.2717537 -1.3824333 192.59
7.5301046 -1.681798 -1.6400074 192.59
8.1560202 -1.821592 -1.5745335 192.59
8.8460445 -2.0049016 -1.4902117 192.77
9.4259539 -2.1363347 -1.3583294 192.77
9.8842497 -2.2402046 -1.1852018 192.77
9.8949833 -2.2426372 -0.94656885 192.77
3.0256631 -0.68574798 -1.3812777 192.77
13.989605 -3.1706581 -0.66893798 192.77
3.0939121 -0.70121622 -1.3250841 192.77
14.359837 -3.2545688 -0.34184858 192.77
3.010638 -0.68234259 -1.2054311 192.77
23.384909 -5.3000464 0 192.77
3.0829363 -0.69872856 -1.1505557 192.77
9.4497242 -2.141722 0.22495902 192.77
3.2744606 -0.74213636 -1.1344947 192.77
9.381608 -2.1262839 0.44859838 192.77
3.604805 -0.81700695 -1.153371 192.77
3.4911945 -0.7912578 -1.0264735 192.77
3.5361333 -0.80144292 -0.94918644 192.77
5.6711636 -1.2853345 -1.3778222 192.77
7.5171523 -1.7037165 -1.6383442 192.77
8.1272554 -1.8419926 -1.5700898 192.77
8.8577223 -2.033571 -1.49313 192.92999
9.4276733 -2.1644213 -1.3594428 192.92999
9.8876362 -2.2700202 -1.1863632 192.92999
3.0059288 -0.69010627 -1.373143 192.92999
13.80545 -3.1694789 -0.66055298 192.92999
3.1782787 -0.72967464 -1.3620847 192.92999
19.263525 -4.4225526 -0.45887741 192.92999
3.0504832 -0.70033514 -1.2221631 192.92999
22.800825 -5.2346525 0 192.92999
3.0663192 -0.70397079 -1.1450834 192.92999
9.4183722 -2.162286 0.22435553 192.92999
3.2317476 -0.74195015 -1.1204095 192.92999
9.3970528 -2.1573915 0.44962323 192.92999
3.6304214 -0.83347833 -1.1623073 192.92999
3.5714176 -0.8199321 -1.0507296 192.92999
3.4773092 -0.79832655 -0.93399137 192.92999
3.5450654 -0.81388211 -0.86183053 192.92999
7.5371523 -1.7303922 -1.6437498 192.92999
8.1508141 -1.8712777 -1.5756444 192.92999
8.8416796 -2.0591502 -1.4915087 193.11
9.4246845 -2.194927 -1.3599995 193.11
9.8146763 -2.2857525 -1.178465 193.11
10.032778 -2.3365464 -0.96105999 193.11
10.799905 -2.5152037 -0.77541298 193.11
3.0428944 -0.70866352 -1.3910394 193.11
3.1436179 -0.73212123 -1.3482095 193.11
2.9956491 -0.69766057 -1.2010663 193.11
23.501085 -5.4731979 0 193.11
2.9542682 -0.68802333 -1.104041 193.11
9.4446383 -2.1995738 0.2251447 193.11
3.3475046 -0.77960461 -1.1613845 193.11
9.3688259 -2.1819179 0.44859838 193.11
3.6333635 -0.84617865 -1.1640944 193.11
3.6362309 -0.84684646 -1.0705755 193.11
3.5181246 -0.81934053 -0.94564092 193.11
3.4932108 -0.81353831 -0.84984142 193.11
7.5450163 -1.7571684 -1.6466606 193.11
5.5990171 -1.3039622 -1.0831398 193.11
8.8570242 -2.0888157 -1.4950753 193.27
9.4416504 -2.2266924 -1.3633397 193.27
9.8623905 -2.3259187 -1.1849694 193.27
10.874396 -2.5645871 -0.78127253 193.27
3.0426817 -0.71757752 -1.3918527 193.27
3.0427699 -0.71759832 -1.305813 193.27
15.050936 -3.5495706 -0.35902455 193.27
3.0208881 -0.71243775 -1.2119784 193.27
23.522696 -5.5475264 0 193.27
2.992578 -0.70576119 -1.11909 193.27
9.465704 -2.2323649 0.22579461 193.27
3.6791081 -0.86767054 -1.2772667 193.27
9.3704739 -2.2099063 0.44897106 193.27
3.5566571 -0.83879203 -1.1402645 193.27
3.6057839 -0.85037798 -1.0623064 193.27
3.6966043 -0.87179679 -0.9942652 193.27
6.8776722 -1.6220108 -1.6743213 193.27
5.8492742 -1.3794763 -1.2774094 193.27
5.5781374 -1.3155322 -1.079807 193.27
8.8558073 -2.1195533 -1.4960481 193.46001
9.4708109 -2.2667487 -1.3686283 193.46001
9.9203081 -2.3743317 -1.1928676 193.46001
10.285576 -2.461755 -0.98669815 193.46001
9.5696936 -2.2904155 -0.68807787 193.46001
3.0438392 -0.72851408 -1.3934797 193.46001
13.610391 -3.2575181 -0.65263379 193.46001
3.0062726 -0.71952283 -1.2911669 193.46001
15.134365 -3.6222668 -0.36129922 193.46001
3.1091003 -0.74413371 -1.2483523 193.46001
23.523621 -5.6301551 0 193.46001
3.0286043 -0.72486764 -1.1334548 193.46001
9.3999128 -2.2497799 0.22440197 193.46001
3.4937823 -0.83620363 -1.2138836 193.46001
9.3669806 -2.2418978 0.44915739 193.46001
3.5037231 -0.83858287 -1.1241792 193.46001
3.5879865 -0.85875052 -1.0578961 193.46001
3.7181544 -0.88990498 -1.0008497 193.46001
6.8495436 -1.6393733 -1.668788 193.46001
5.8351545 -1.3965889 -1.2753303 193.46001
5.5909472 -1.3381401 -1.0831398 193.46001
8.8690338 -2.1489224 -1.4992906 193.62
9.3989992 -2.2773304 -1.3591645 193.62
9.8383455 -2.3837819 -1.183808 193.62
10.487679 -2.5411122 -1.0067627 193.62
3.0826344 -0.74690688 -1.4121896 193.62
13.374068 -3.2404697 -0.64173329 193.62
2.9450634 -0.71357411 -1.265729 193.62
9.4849253 -2.2981498 -0.22658378 193.62
3.0762298 -0.74535507 -1.2359852 193.62
23.538906 -5.7033591 0 193.62
3.0210886 -0.73199463 -1.1314026 193.62
9.4480038 -2.2892041 0.22570176 193.62
3.0550044 -0.7402122 -1.0621482 193.62
9.3995161 -2.2774556 0.45102075 193.62
3.5329115 -0.85600674 -1.134307 193.62
3.5295208 -0.85518515 -1.0413579 193.62
3.5840275 -0.86839187 -0.9653945 193.62
3.8414123 -0.9307549 -0.93653172 193.62
5.8407383 -1.4151816 -1.2774094 193.62
5.7571917 -1.3949387 -1.1160969 193.62
8.8814049 -2.1814823 -1.502533 193.8
9.4706564 -2.3262165 -1.3705767 193.8
9.9369097 -2.4407392 -1.1965845 193.8
10.315266 -2.5336723 -0.99097115 193.8
10.77077 -2.6455548 -0.77555245 193.8
3.12818 -0.76835471 -1.4341534 193.8
13.297857 -3.2662668 -0.6385656 193.8
2.9894044 -0.73426819 -1.285771 193.8
15.378623 -3.7773521 -0.36765897 193.8
3.0250242 -0.7430172 -1.2163433 193.8
23.548063 -5.7839594 0 193.8
3.0954297 -0.76031047 -1.1601323 193.8
9.4582415 -2.3231668 0.22611956 193.8
3.1593874 -0.77601999 -1.0992818 193.8
9.3573923 -2.2983959 0.44934374 193.8
3.3985639 -0.83476734 -1.0920088 193.8
3.6033647 -0.88507128 -1.0639602 193.8
3.5624921 -0.87503201 -0.96032947 193.8
7.5138092 -1.8455685 -1.6445814 193.8
5.8081331 -1.4266143 -1.1268357 193.8
8.8825541 -2.2097301 -1.50383 193.97
9.4002886 -2.3385279 -1.3613913 193.97
9.9932384 -2.4860373 -1.2042505 193.97
