# .PCD v0.7 - Point Cloud Data file format
VERSION 0.7
FIELDS x y z intensity
SIZE 4 4 4 4
TYPE F F F F
COUNT 1 1 1 1
WIDTH 1186
HEIGHT 1
VIEWPOINT 0 0 0 1 0 0 0
POINTS 1186
DATA ascii
11.069428 0.43298408 -1.0335157 177.75999
4.2812543 0.16746257 -1.9075948 177.75999
4.5732932 0.17888576 -1.9116979 177.75999
11.635963 0.45514429 -0.27035934 177.75999
4.8568578 0.18997747 -1.8979902 177.75999
5.2620134 0.20582527 -1.9166809 177.75999
5.7708035 0.22572674 -1.9514332 177.75999
6.2307148 0.24371631 -1.9457178 177.75999
6.6257162 0.25916693 -1.9013464 177.75999
7.1030269 0.27783707 -1.8608917 177.75999
7.8757496 0.30806234 -1.86753 177.75999
8.7575054 0.34255251 -1.8628887 177.75999
8.7983522 0.34415025 -1.6589627 177.75999
11.048428 0.40319654 -1.8163983 177.91
11.158834 0.4072257 -1.5693159 177.91
11.043344 0.40301102 -1.2922927 177.91
11.068534 0.40393031 -1.0333298 177.91
11.149335 0.40687901 -0.78015637 177.91
4.2853298 0.15638697 -1.9092218 177.91
4.5774345 0.16704692 -1.9132395 177.91
4.8629236 0.17746544 -1.9001726 177.91
5.2606564 0.19198012 -1.9159968 177.91
5.7789488 0.21089445 -1.9539942 177.91
6.2351475 0.22754279 -1.9469093 177.91
6.634057 0.24210042 -1.9035516 177.91
7.1037302 0.25924045 -1.8608917 177.91
7.8726392 0.28730071 -1.8666078 177.91
8.7525072 0.31941023 -1.8616413 177.91
11.035896 0.3660984 -1.8141285 178.10001
11.040648 0.36625603 -1.291828 178.10001
11.069813 0.3672235 -1.0333298 178.10001
11.146634 0.36977196 -0.77987736 178.10001
4.2858248 0.14217545 -1.9092218 178.10001
4.5816522 0.15198906 -1.9147812 178.10001
11.446617 0.3797234 -0.26590285 178.10001
4.8597612 0.16121489 -1.8987176 178.10001
5.240602 0.17384867 -1.9084724 178.10001
5.7663603 0.19128987 -1.9495125 178.10001
6.2377758 0.20692834 -1.9475051 178.10001
6.6290593 0.21990854 -1.9018978 178.10001
7.108418 0.23581052 -1.8619046 178.10001
7.877439 0.26132157 -1.86753 178.10001
8.7515631 0.29031926 -1.8612255 178.10001
11.034962 0.33329308 -1.8138043 178.27
11.03573 0.3333163 -1.2911311 178.27
11.064882 0.33419678 -1.0327725 178.27
11.143694 0.33657718 -0.77959836 178.27
4.288054 0.12951371 -1.9100353 178.27
4.5765491 0.13822722 -1.9124687 178.27
11.453689 0.34594005 -0.26604211 178.27
4.8397346 0.14617632 -1.8907154 178.27
5.2467303 0.15846896 -1.9105245 178.27
5.772584 0.17435153 -1.9514332 178.27
6.2345457 0.18830432 -1.9463136 178.27
6.6412125 0.20058703 -1.9052054 178.27
7.1071525 0.21466 -1.8613981 178.27
7.8781796 0.23794761 -1.86753 178.27
8.7621632 0.26464689 -1.8633046 178.27
9.9326324 0.29999903 -1.8722579 178.27
11.02801 0.30033538 -1.8125074 178.44
11.10471 0.30242419 -1.5612439 178.44
11.036671 0.3005712 -1.2911311 178.44
11.057862 0.30114836 -1.0320294 178.44
11.140655 0.30340311 -0.77931935 178.44
4.2847667 0.11669076 -1.9084083 178.44
11.237617 0.30604374 -0.52424991 178.44
4.5732493 0.12454727 -1.9109269 178.44
11.448668 0.31179151 -0.26590285 178.44
4.8475962 0.13201879 -1.8936253 178.44
5.2415414 0.14274743 -1.9084724 178.44
5.7749701 0.15727475 -1.9520735 178.44
6.2331686 0.16975328 -1.9457178 178.44
6.6379347 0.18077663 -1.9041028 178.44
7.105824 0.19351907 -1.8608917 178.44
7.8769054 0.21451859 -1.8670689 178.44
8.7609539 0.23859465 -1.8628887 178.44
11.024954 0.26559335 -1.8118589 178.62
11.115505 0.26777476 -1.5626355 178.62
11.03756 0.26589707 -1.2911311 178.62
11.056764 0.26635966 -1.0318437 178.62
11.139559 0.26835421 -0.77917981 178.62
4.2814589 0.10314121 -1.9067814 178.62
4.5773082 0.11026827 -1.9124687 178.62
11.389626 0.27437839 -0.26451021 178.62
4.8461246 0.11674412 -1.8928978 178.62
5.2081447 0.12546526 -1.8961596 178.62
5.7659645 0.13890325 -1.9488722 178.62
6.2279453 0.15003246 -1.9439306 178.62
6.6403918 0.15996838 -1.9046541 178.62
7.1063972 0.17119454 -1.8608917 178.62
7.8658671 0.18949033 -1.8643022 178.62
8.7812176 0.21154131 -1.867047 178.62
11.019733 0.23467883 -1.8108861 178.78
11.034287 0.23498879 -1.2906666 178.78
11.061446 0.23556715 -1.0322152 178.78
11.138269 0.23720321 -0.77904028 178.78
4.2817302 0.091184735 -1.9067814 178.78
11.221258 0.23897055 -0.52341139 178.78
4.5775981 0.097485609 -1.9124687 178.78
11.368358 0.24210323 -0.26399958 178.78
4.8445692 0.10317109 -1.8921703 178.78
5.2310224 0.11140109 -1.9043682 178.78
5.7625413 0.12272044 -1.9475918 178.78
6.216887 0.1323963 -1.9403561 178.78
6.6485009 0.14158805 -1.9068593 178.78
7.1029787 0.15126671 -1.8598787 178.78
7.8702569 0.16760685 -1.8652244 178.78
8.7837305 0.18706039 -1.8674628 178.78
9.0015469 0.19169906 -1.6963634 178.78
11.032185 0.20412411 -1.8128316 178.94
11.100986 0.20539711 -1.5604088 178.94
11.048803 0.20443161 -1.2922927 178.94
11.052106 0.2044927 -1.0312862 178.94
11.132904 0.20598769 -0.77862173 178.94
4.2837949 0.079261348 -1.9075948 178.94
11.221882 0.207634 -0.52341139 178.94
4.5760074 0.08466804 -1.9116979 178.94
11.36899 0.21035588 -0.26399958 178.94
4.8504267 0.089745507 -1.8943528 178.94
5.2425876 0.097001508 -1.9084724 178.94
5.7647557 0.10666298 -1.9482319 178.94
6.2134147 0.11496434 -1.9391646 178.94
6.656559 0.12316366 -1.9090643 178.94
7.0975699 0.1313235 -1.8583591 178.94
7.8706942 0.14562832 -1.8652244 178.94
8.7822618 0.16249469 -1.867047 178.94
8.9686403 0.16594318 -1.6900684 178.94
10.663791 0.16193534 -1.7521986 179.13
11.083783 0.16831313 -1.5579036 179.13
11.037503 0.16761036 -1.2908989 179.13
11.066661 0.16805312 -1.0325867 179.13
11.131532 0.16903822 -0.77848226 179.13
4.2822075 0.065027595 -1.9067814 179.13
11.228501 0.17051075 -0.52369088 179.13
4.576263 0.069492988 -1.9116979 179.13
11.369625 0.17265379 -0.26399958 179.13
4.8488345 0.073632129 -1.8936253 179.13
5.2391219 0.079558849 -1.9071044 179.13
5.7461324 0.087258078 -1.9418297 179.13
6.2233067 0.094504222 -1.9421433 179.13
6.6473193 0.10094308 -1.9063079 179.13
7.1018357 0.10784515 -1.8593721 179.13
7.8730798 0.1195569 -1.8656856 179.13
8.778841 0.13331136 -1.8662153 179.13
9.8888521 0.15016748 -1.8633707 179.13
11.047039 0.13690013 -1.8151013 179.28999
11.08817 0.13740984 -1.5584604 179.28999
11.04786 0.13691029 -1.2920604 179.28999
11.077043 0.13727194 -1.0335157 179.28999
11.129965 0.13792779 -0.77834272 179.28999
4.286026 0.053114459 -1.9084083 179.28999
11.228933 0.13915424 -0.52369088 179.28999
4.5856657 0.056827735 -1.915552 179.28999
11.360066 0.1407793 -0.26376748 179.28999
4.852747 0.060137533 -1.8950802 179.28999
5.2787876 0.06541723 -1.9214692 179.28999
5.7368808 0.071094133 -1.9386284 179.28999
6.2235465 0.077125125 -1.9421433 179.28999
6.6418085 0.082308426 -1.9046541 179.28999
7.0943704 0.087916784 -1.8573462 179.28999
7.8617072 0.09742599 -1.8629189 179.28999
8.7791786 0.10879572 -1.8662153 179.28999
8.7533073 0.10847512 -1.6493349 179.28999
11.090509 0.10452869 -1.5587387 179.46001
11.050204 0.10414881 -1.2922927 179.46001
11.073419 0.10436761 -1.0331441 179.46001
11.130325 0.10490395 -0.77834272 179.46001
4.2934728 0.040466227 -1.9116622 179.46001
11.233293 0.10587442 -0.5238772 179.46001
4.5839686 0.043204166 -1.9147812 179.46001
11.362433 0.10709158 -0.26381388 179.46001
4.8435898 0.045651108 -1.8914429 179.46001
5.186873 0.048886571 -1.8879511 179.46001
5.7427506 0.054125752 -1.9405491 179.46001
6.2180204 0.058605198 -1.9403561 179.46001
6.6362562 0.062547088 -1.9030004 179.46001
7.0984697 0.066903479 -1.8583591 179.46001
7.8677998 0.074154459 -1.8643022 179.46001
8.7735939 0.082691625 -1.8649678 179.46001
11.066381 0.067601509 -1.2941511 179.64999
11.071712 0.067634083 -1.0329583 179.64999
11.126622 0.067969508 -0.77806371 179.64999
4.2899294 0.026206013 -1.9100353 179.64999
4.5840869 0.028002942 -1.9147812 179.64999
11.354728 0.069362953 -0.26362821 179.64999
4.8511662 0.029634457 -1.8943528 179.64999
5.2114382 0.031835258 -1.8968437 179.64999
5.7523718 0.03513968 -1.9437504 179.64999
6.2124534 0.037950188 -1.9385688 179.64999
6.6421943 0.040575363 -1.9046541 179.64999
7.0928478 0.043328281 -1.8568397 179.64999
7.862164 0.048027825 -1.8629189 179.64999
8.7816458 0.053644687 -1.8666312 179.64999
8.7223701 0.053282589 -1.64341 179.64999
11.077084 0.034799799 -1.5567904 179.82001
11.189692 0.035153572 -1.3085538 179.82001
11.07983 0.034808427 -1.0337014 179.82001
11.12478 0.034949642 -0.77792418 179.82001
4.2808528 0.01344874 -1.905968 179.82001
4.5823045 0.014395781 -1.9140104 179.82001
11.348886 0.035653692 -0.26348895 179.82001
4.845644 0.015223089 -1.8921703 179.82001
5.2434587 0.016472867 -1.9084724 179.82001
5.7353983 0.018018344 -1.9379883 179.82001
6.2125382 0.019517329 -1.9385688 179.82001
6.6499758 0.020891583 -1.9068593 179.82001
7.1006846 0.022307532 -1.8588656 179.82001
7.8642182 0.024706252 -1.86338 179.82001
8.7817659 0.027588822 -1.8666312 179.82001
11.049411 0.001928486 -1.5528935 179.99001
11.297016 0.0019717014 -1.3210981 179.99001
11.089841 0.0019355424 -1.0346304 179.99001
11.124834 0.0019416498 -0.77792418 179.99001
4.286355 0.00074811012 -1.9084083 179.99001
4.5804815 0.00079944485 -1.9132395 179.99001
11.360938 0.0019828577 -0.26376748 179.99001
4.8400788 0.00084475311 -1.8899879 179.99001
5.2378464 0.00091417669 -1.9064202 179.99001
5.7467952 0.001003005 -1.9418297 179.99001
6.21066 0.0010839646 -1.9379731 179.99001
6.6538534 0.0011613165 -1.9079617 179.99001
7.0852408 0.0012366079 -1.8548136 179.99001
7.8623109 0.0013722321 -1.8629189 179.99001
8.7778969 0.0015320319 -1.8657995 179.99001
11.170204 -0.031193174 -1.8352042 180.16
11.061252 -0.030888921 -1.5545635 180.16
11.294986 -0.031541631 -1.3208658 180.16
11.087807 -0.030963078 -1.0344446 180.16
11.122796 -0.031060787 -0.77778471 180.16
4.2845116 -0.011964644 -1.9075948 180.16
4.5841546 -0.012801408 -1.9147812 180.16
11.350897 -0.031697765 -0.26353535 180.16
4.8381968 -0.01351083 -1.8892604 180.16
5.266017 -0.014705531 -1.9166809 180.16
5.7486672 -0.016053349 -1.9424698 180.16
6.2068172 -0.017332749 -1.9367816 180.16
6.6519051 -0.018575672 -1.9074105 180.16
7.0948877 -0.019812714 -1.8573462 180.16
7.8661723 -0.021966554 -1.8638411 180.16
8.7680807 -0.024485165 -1.8637204 180.16
11.177945 -0.066332035 -1.8365012 180.34
11.086846 -0.065791443 -1.558182 180.34
11.098174 -0.06585867 -1.2978679 180.34
11.091638 -0.065819874 -1.0348161 180.34
11.126634 -0.066027544 -0.77806371 180.34
4.2862797 -0.025435595 -1.9084083 180.34
12.266453 -0.07279145 -0.57204449 180.34
4.5785556 -0.027170014 -1.9124687 180.34
11.346743 -0.067333713 -0.26344252 180.34
4.8437195 -0.028743546 -1.8914429 180.34
5.2697034 -0.031271417 -1.918049 180.34
5.7447991 -0.034090724 -1.9411894 180.34
6.2124596 -0.036865912 -1.9385688 180.34
6.6498914 -0.039461713 -1.9068593 180.34
7.0870514 -0.042055901 -1.8553201 180.34
7.8660645 -0.046678714 -1.8638411 180.34
8.7620916 -0.051995911 -1.8624729 180.34
9.6932793 -0.057521753 -1.8263403 180.34
11.161928 -0.097408675 -1.8339072 180.5
11.254958 -0.098220535 -1.5818415 180.5
11.060206 -0.096520953 -1.2934542 180.5
11.089419 -0.096775897 -1.0346304 180.5
11.126406 -0.097098671 -0.77806371 180.5
4.2898459 -0.037436921 -1.9100353 180.5
12.320141 -0.10751624 -0.57455999 180.5
4.5821524 -0.03998784 -1.9140104 180.5
11.354507 -0.099089287 -0.26362821 180.5
4.8492088 -0.042318407 -1.8936253 180.5
5.277113 -0.046052665 -1.9207851 180.5
5.7446814 -0.050133076 -1.9411894 180.5
6.206605 -0.054164223 -1.9367816 180.5
6.6516776 -0.058048312 -1.9074105 180.5
7.0907755 -0.061880261 -1.8563331 180.5
7.8639574 -0.068627715 -1.86338 180.5
8.7677813 -0.076515265 -1.8637204 180.5
9.7756252 -0.085310593 -1.8418931 180.5
11.147753 -0.13231041 -1.8316376 180.67999
11.228849 -0.13327292 -1.578223 180.67999
11.089061 -0.13161379 -1.0346304 180.67999
11.12804 -0.13207644 -0.77820325 180.67999
4.2915344 -0.050935347 -1.9108487 180.67999
12.327733 -0.14631535 -0.57493263 180.67999
4.5949216 -0.05453619 -1.9194063 180.67999
11.350142 -0.13471252 -0.26353535 180.67999
4.8471894 -0.057530303 -1.8928978 180.67999
5.2825799 -0.062697865 -1.9228373 180.67999
5.7255497 -0.067955382 -1.934787 180.67999
6.2044954 -0.073639892 -1.9361858 180.67999
6.6553073 -0.078990482 -1.9085131 180.67999
7.0828075 -0.084064402 -1.8543071 180.67999
7.8637033 -0.093332693 -1.86338 180.67999
8.7616291 -0.10398999 -1.8624729 180.67999
9.7871008 -0.11616111 -1.8441149 180.67999
11.131525 -0.16515161 -1.8290436 180.85001
11.232365 -0.16664772 -1.5787797 180.85001
11.088621 -0.16451508 -1.0346304 180.85001
11.1276 -0.16509338 -0.77820325 180.85001
4.2913642 -0.06366834 -1.9108487 180.85001
12.321252 -0.18280287 -0.57465315 180.85001
4.5873585 -0.068059824 -1.9163229 180.85001
11.35569 -0.16847742 -0.26367462 180.85001
4.8618999 -0.072133027 -1.8987176 180.85001
5.1921701 -0.077033043 -1.8900033 180.85001
5.6969047 -0.08452148 -1.9251835 180.85001
6.2004313 -0.091991998 -1.9349943 180.85001
6.6511989 -0.098679759 -1.9074105 180.85001
7.0883307 -0.10516522 -1.8558266 180.85001
7.8672833 -0.11672206 -1.8643022 180.85001
8.751502 -0.12984067 -1.8603938 180.85001
9.7592001 -0.14479128 -1.8389306 180.85001
11.107307 -0.19775715 -1.8251528 181.02
11.100584 -0.19763745 -1.2983325 181.02
11.086093 -0.19737945 -1.0344446 181.02
11.127061 -0.19810885 -0.77820325 181.02
4.2893295 -0.07636825 -1.9100353 181.02
12.314663 -0.21925321 -0.57437366 181.02
4.5816007 -0.081571914 -1.9140104 181.02
11.361137 -0.20227641 -0.26381388 181.02
4.8430371 -0.08622659 -1.8914429 181.02
5.201314 -0.092605442 -1.8934236 181.02
5.698523 -0.10145787 -1.9258238 181.02
6.1924958 -0.11025267 -1.9326113 181.02
6.6451101 -0.11831113 -1.9057567 181.02
7.0918565 -0.12626511 -1.8568397 181.02
7.8610649 -0.13996029 -1.8629189 181.02
8.7530336 -0.15584111 -1.8608097 181.02
9.6879845 -0.17248718 -1.8255997 181.02
12.829032 -0.27096999 -1.803405 181.21001
11.101853 -0.23448917 -1.2985648 181.21001
11.089359 -0.23422529 -1.0348161 181.21001
11.128338 -0.23504856 -0.77834272 181.21001
4.289053 -0.090591758 -1.9100353 181.21001
12.31986 -0.26021546 -0.57465315 181.21001
4.5868402 -0.096881516 -1.9163229 181.21001
11.352408 -0.23978129 -0.26362821 181.21001
4.8389993 -0.10220753 -1.8899879 181.21001
5.2479525 -0.11084528 -1.9105245 181.21001
5.6886835 -0.12015424 -1.9226227 181.21001
6.1997309 -0.13094839 -1.9349943 181.21001
6.6427593 -0.14030586 -1.9052054 181.21001
7.0855956 -0.14965929 -1.8553201 181.21001
7.8586121 -0.16598666 -1.8624578 181.21001
8.754425 -0.18490767 -1.8612255 181.21001
9.7089739 -0.20506929 -1.8296731 181.21001
12.788626 -0.30584726 -1.7978381 181.37
11.103141 -0.26553792 -1.2987971 181.37
11.090653 -0.26523927 -1.035002 181.37
11.125644 -0.26607609 -0.77820325 181.37
4.2869568 -0.102525 -1.9092218 181.37
12.305105 -0.29428357 -0.57400101 181.37
4.5791721 -0.10951351 -1.9132395 181.37
11.347696 -0.27138662 -0.26353535 181.37
4.8442826 -0.11585377 -1.8921703 181.37
5.275805 -0.12617388 -1.9207851 181.37
5.6921144 -0.13613015 -1.9239031 181.37
6.1688027 -0.14753042 -1.9254624 181.37
6.6461854 -0.1589473 -1.9063079 181.37
7.0851502 -0.1694454 -1.8553201 181.37
7.8659 -0.18811747 -1.8643022 181.37
8.7538738 -0.20935388 -1.8612255 181.37
9.6788902 -0.23147616 -1.8241185 181.37
11.04587 -0.29696319 -1.8154255 181.53999
12.757965 -0.3429921 -1.7936629 181.53999
11.10429 -0.2985338 -1.2990294 181.53999
11.091807 -0.29819819 -1.0351877 181.53999
11.124804 -0.29908532 -0.77820325 181.53999
4.2829804 -0.11514599 -1.9075948 181.53999
12.304177 -0.33079222 -0.57400101 181.53999
4.5843616 -0.12324847 -1.915552 181.53999
11.346841 -0.30505466 -0.26353535 181.53999
4.8420553 -0.13017645 -1.8914429 181.53999
5.1965017 -0.13970558 -1.8920554 181.53999
5.6689563 -0.15240732 -1.9162203 181.53999
6.1855145 -0.16629474 -1.930824 181.53999
6.6418409 -0.17856286 -1.9052054 181.53999
7.0884843 -0.19057068 -1.8563331 181.53999
7.8614163 -0.2113506 -1.86338 181.53999
8.7590809 -0.23548391 -1.8624729 181.53999
9.0101595 -0.24223404 -1.698215 181.53999
9.784358 -0.29381138 -1.6082355 181.72
12.748906 -0.38283288 -1.7925495 181.72
11.107268 -0.33353665 -1.299494 181.72
11.084845 -0.3328633 -1.0346304 181.72
11.121816 -0.3339735 -0.77806371 181.72
4.2935553 -0.12892982 -1.9124757 181.72
12.317056 -0.36986497 -0.57465315 181.72
4.5876408 -0.13776082 -1.9170938 181.72
11.347825 -0.34076026 -0.26358178 181.72
4.8378978 -0.14527571 -1.8899879 181.72
5.2204585 -0.15676349 -1.9009479 181.72
5.6646619 -0.17010234 -1.9149399 181.72
6.183053 -0.18566895 -1.9302284 181.72
6.6412473 -0.19942792 -1.9052054 181.72
7.0839829 -0.21272269 -1.8553201 181.72
7.860714 -0.2360469 -1.86338 181.72
8.7582979 -0.26300016 -1.8624729 181.72
9.1286354 -0.29963806 -1.5005875 181.88
12.729972 -0.41784823 -1.7900444 181.88
11.102323 -0.36442232 -1.2990294 181.88
11.083872 -0.36381671 -1.0346304 181.88
11.126822 -0.36522648 -0.77848226 181.88
4.2877002 -0.14073935 -1.9100353 181.88
12.347923 -0.40530786 -0.5761438 181.88
4.592772 -0.15075301 -1.9194063 181.88
11.344831 -0.3723824 -0.26353535 181.88
4.8356113 -0.15872397 -1.8892604 181.88
5.1824327 -0.17010802 -1.8872671 181.88
5.662271 -0.18585822 -1.9142996 181.88
6.1786942 -0.20280927 -1.9290369 181.88
6.5657263 -0.21551321 -1.8837057 181.88
7.0814276 -0.23244056 -1.8548136 181.88
7.860024 -0.25799718 -1.86338 181.88
8.7614403 -0.28758526 -1.8633046 181.88
9.2658949 -0.30414346 -1.7467248 181.88
9.1099558 -0.32608655 -1.4976693 182.05
12.712842 -0.45505014 -1.7878176 182.05
11.103178 -0.39743298 -1.2992617 182.05
11.086724 -0.39684403 -1.035002 182.05
11.123695 -0.3981674 -0.77834272 182.05
4.2890897 -0.15352593 -1.9108487 182.05
12.300746 -0.44029936 -0.57400101 182.05
4.5720172 -0.16365318 -1.9109269 182.05
11.341679 -0.40596998 -0.26348895 182.05
4.8388429 -0.17320408 -1.8907154 182.05
5.2100782 -0.18649226 -1.8975278 182.05
5.6768432 -0.20319991 -1.9194214 182.05
6.1723413 -0.22093603 -1.9272496 182.05
6.5612154 -0.23485559 -1.8826032 182.05
7.0826402 -0.25351974 -1.8553201 182.05
7.8611689 -0.28138679 -1.8638411 182.05
8.7585936 -0.3135097 -1.8628887 182.05
9.1235323 -0.32657248 -1.720063 182.05
11.000005 -0.43026856 -1.8086165 182.24001
12.683557 -0.4961212 -1.7839208 182.24001
11.101799 -0.43425027 -1.2992617 182.24001
11.091316 -0.43384025 -1.0355593 182.24001
11.128295 -0.43528667 -0.77876127 182.24001
4.2958598 -0.16803387 -1.9141027 182.24001
12.339144 -0.48264939 -0.57586432 182.24001
4.5714493 -0.17881364 -1.9109269 182.24001
11.334276 -0.44334367 -0.26334968 182.24001
4.8289337 -0.18888523 -1.887078 182.24001
5.2376003 -0.20487033 -1.9077884 182.24001
5.6874976 -0.22246821 -1.9232628 182.24001
6.1696668 -0.2413284 -1.9266539 182.24001
6.6526113 -0.26021892 -1.9090643 182.24001
7.083694 -0.27708086 -1.8558266 182.24001
7.8621368 -0.3075299 -1.8643022 182.24001
8.7614155 -0.34270543 -1.8637204 182.24001
11.002624 -0.46307027 -1.8092649 182.41
12.672135 -0.53333545 -1.7825291 182.41
11.104431 -0.46735507 -1.2997264 182.41
11.086001 -0.46657941 -1.0351877 182.41
11.128948 -0.46838692 -0.7789008 182.41
4.289866 -0.1805487 -1.9116622 182.41
4.5708985 -0.19237658 -1.9109269 182.41
11.338903 -0.47722337 -0.26348895 182.41
4.8339362 -0.20344713 -1.8892604 182.41
5.2482357 -0.22088385 -1.9118927 182.41
5.6754541 -0.23886432 -1.9194214 182.41
6.1708312 -0.25971338 -1.9272496 182.41
6.6633348 -0.28044149 -1.912372 182.41
7.0828404 -0.29809734 -1.8558266 182.41
7.8592458 -0.3307741 -1.8638411 182.41
8.7525415 -0.36837047 -1.8620571 182.41
9.6986217 -0.40818843 -1.8289324 182.41
10.989372 -0.49518061 -1.8073195 182.58
12.650712 -0.57004046 -1.7797456 182.58
11.10498 -0.50038987 -1.2999586 182.58
11.084568 -0.49947014 -1.0351877 182.58
11.125516 -0.50131524 -0.77876127 182.58
4.2893114 -0.19327617 -1.9116622 182.58
11.320199 -0.51008761 -0.52844238 182.58
4.5721512 -0.20602092 -1.9116979 182.58
11.341433 -0.51104444 -0.26358178 182.58
4.8314505 -0.21770492 -1.888533 182.58
5.1968651 -0.23417051 -1.8934236 182.58
5.6841846 -0.25612912 -1.9226227 182.58
6.1585898 -0.27750579 -1.9236751 182.58
6.6547909 -0.29986459 -1.9101669 182.58
7.0741935 -0.31876284 -1.8538007 182.58
7.854341 -0.35391626 -1.8629189 182.58
8.7611818 -0.39477843 -1.8641362 182.58
9.5167332 -0.42882356 -1.7948644 182.58
10.964199 -0.52664822 -1.8034286 182.75
12.639073 -0.60709822 -1.7783539 182.75
11.107415 -0.53352737 -1.3004233 182.75
11.083037 -0.53235644 -1.0351877 182.75
11.12398 -0.53432304 -0.77876127 182.75
4.290544 -0.2060896 -1.9124757 182.75
11.446349 -0.54980755 -0.53440505 182.75
4.5715199 -0.21958585 -1.9116979 182.75
11.339867 -0.54469281 -0.26358178 182.75
4.8345046 -0.23221792 -1.8899879 182.75
5.1529713 -0.24751496 -1.8776906 182.75
5.6985402 -0.27372053 -1.9277445 182.75
6.1615534 -0.29596063 -1.9248666 182.75
6.6615534 -0.31997734 -1.912372 182.75
7.0732164 -0.33975095 -1.8538007 182.75
7.847425 -0.37693885 -1.8615354 182.75
8.7404308 -0.419833 -1.859978 182.75
9.3937035 -0.45121193 -1.7719055 182.75
10.968501 -0.55947894 -1.8044013 182.92
12.603591 -0.64288121 -1.773622 182.92
11.105783 -0.56648135 -1.3004233 182.92
11.083398 -0.56533957 -1.0353734 182.92
11.12633 -0.56752944 -0.77904028 182.92
4.2880888 -0.2187259 -1.9116622 182.92
11.217211 -0.57216501 -0.52378404 182.92
4.569005 -0.23305482 -1.9109269 182.92
11.344191 -0.57864201 -0.26372105 182.92
4.831934 -0.24646623 -1.8892604 182.92
5.125937 -0.26146269 -1.868114 182.92
5.7052722 -0.2910133 -1.9303055 182.92
6.1434875 -0.31336567 -1.9195049 182.92
6.6605744 -0.33974114 -1.912372 182.92
7.0625157 -0.36024329 -1.8512681 182.92
7.846272 -0.40022093 -1.8615354 182.92
8.7489157 -0.44626281 -1.8620571 182.92
9.7848969 -0.49910587 -1.8459663 182.92
10.949057 -0.59106314 -1.8014832 183.09
12.583829 -0.67931312 -1.7711169 183.09
11.106037 -0.59953743 -1.3006555 183.09
11.085649 -0.59843677 -1.035745 183.09
11.124598 -0.60053939 -0.77904028 183.09
4.2892456 -0.23154643 -1.9124757 183.09
11.223443 -0.60587537 -0.52415669 183.09
4.571979 -0.24680924 -1.9124687 183.09
11.334438 -0.61186719 -0.26353535 183.09
4.8330417 -0.2609022 -1.8899879 183.09
5.134522 -0.27717701 -1.8715342 183.09
5.7081676 -0.30814415 -1.9315859 183.09
6.1291857 -0.33087197 -1.9153346 183.09
6.6633768 -0.3597092 -1.9134746 183.09
7.0749397 -0.38192663 -1.8548136 183.09
7.8469934 -0.4236044 -1.8619965 183.09
8.731926 -0.47137573 -1.8587306 183.09
10.947364 -0.62163633 -1.8014832 183.25
12.556177 -0.71299142 -1.7674984 183.25
11.114236 -0.63111204 -1.3018171 183.25
11.085922 -0.62950432 -1.0359309 183.25
11.126861 -0.63182896 -0.77931935 183.25
4.2904062 -0.24362692 -1.9132892 183.25
11.221707 -0.63721472 -0.52415669 183.25
4.5896974 -0.26062191 -1.9201771 183.25
11.332685 -0.64351648 -0.26353535 183.25
4.8229942 -0.27386945 -1.8863505 183.25
5.1562443 -0.29279277 -1.8797427 183.25
5.7072849 -0.32408312 -1.9315859 183.25
6.1301441 -0.34809479 -1.9159304 183.25
6.6508298 -0.37766147 -1.9101669 183.25
7.0757775 -0.40179175 -1.8553201 183.25
7.839951 -0.44518468 -1.8606132 183.25
8.7442474 -0.49653435 -1.8616413 183.25
9.1323519 -0.51857251 -1.7233957 183.25
10.931452 -0.65710676 -1.7992135 183.44
12.537929 -0.75367457 -1.7652717 183.44
11.110099 -0.66784549 -1.3015847 183.44
11.083774 -0.6662631 -1.0359309 183.44
11.120722 -0.66848403 -0.77904028 183.44
4.2913985 -0.25796273 -1.9141027 183.44
11.225515 -0.67478341 -0.52443624 183.44
4.5722284 -0.27484384 -1.9132395 183.44
11.336476 -0.68145341 -0.26367462 183.44
4.8202 -0.2897498 -1.8856231 183.44
5.1683769 -0.31067926 -1.884531 183.44
5.6683521 -0.34073356 -1.9187813 183.44
6.1175213 -0.36773384 -1.9123559 183.44
6.657217 -0.40017578 -1.912372 183.44
7.0744061 -0.42525369 -1.8553201 183.44
7.8384314 -0.47118044 -1.8606132 183.44
8.732789 -0.52494168 -1.8595622 183.44
9.220829 -0.55427849 -1.7404296 183.44
10.923546 -0.68916529 -1.7982408 183.61
12.521801 -0.78999907 -1.7633232 183.61
11.110051 -0.70093191 -1.3018171 183.61
11.085723 -0.69939709 -1.0363024 183.61
11.122671 -0.70172817 -0.77931935 183.61
4.2942615 -0.27092448 -1.9157296 183.61
11.23144 -0.70859033 -0.52480888 183.61
4.5750761 -0.28864107 -1.9147812 183.61
11.334405 -0.7150864 -0.26367462 183.61
4.826756 -0.30451953 -1.888533 183.61
5.1786866 -0.32672277 -1.8886353 183.61
5.5652022 -0.35110801 -1.8842086 183.61
6.1144977 -0.38576302 -1.9117601 183.61
6.6540813 -0.41980529 -1.9118207 183.61
7.0673203 -0.44587648 -1.8538007 183.61
7.8428259 -0.49480304 -1.8619965 183.61
8.7350979 -0.55109638 -1.8603938 183.61
10.919357 -0.72334874 -1.7979165 183.78999
12.515305 -0.8290717 -1.7627665 183.78999
11.111758 -0.7360943 -1.3022816 183.78999
11.083471 -0.73422039 -1.0363024 183.78999
11.126385 -0.73706317 -0.77973789 183.78999
4.2933888 -0.28441393 -1.9157296 183.78999
4.566781 -0.30252472 -1.9116979 183.78999
11.334097 -0.75082302 -0.26372105 183.78999
4.8164811 -0.31906599 -1.8848956 183.78999
5.2076387 -0.34497809 -1.8995799 183.78999
5.6056652 -0.37134519 -1.8982937 183.78999
6.0980153 -0.40396076 -1.9069941 183.78999
6.646975 -0.44032636 -1.9101669 183.78999
7.073607 -0.46858844 -1.8558266 183.78999
7.8392906 -0.51931089 -1.8615354 183.78999
8.7411318 -0.57905298 -1.8620571 183.78999
9.380044 -0.62137747 -1.7711649 183.78999
10.921101 -0.75601649 -1.798565 183.96001
12.502911 -0.86551774 -1.7613747 183.96001
11.109526 -0.76906025 -1.3022816 183.96001
11.085217 -0.7673775 -1.036674 183.96001
11.128129 -0.77034807 -0.7800169 183.96001
4.2925262 -0.29715142 -1.9157296 183.96001
4.5787511 -0.3169654 -1.9170938 183.96001
11.339798 -0.78500098 -0.26390675 183.96001
4.8266644 -0.33412731 -1.8892604 183.96001
5.2159667 -0.36107686 -1.9030001 183.96001
5.6858187 -0.39360252 -1.9258238 183.96001
6.0986948 -0.42218399 -1.9075899 183.96001
6.6513929 -0.46044469 -1.9118207 183.96001
7.0702553 -0.48944056 -1.8553201 183.96001
7.8377151 -0.54256821 -1.8615354 183.96001
8.7452297 -0.60539114 -1.8633046 183.96001
9.9051991 -0.71348894 -1.6315808 184.12
12.480691 -0.89900613 -1.7585913 184.12
11.11526 -0.80065173 -1.3032109 184.12
11.087004 -0.79861635 -1.0370456 184.12
11.129914 -0.80170733 -0.78029591 184.12
4.2971468 -0.30953103 -1.91817 184.12
4.577848 -0.32975045 -1.9170938 184.12
11.341551 -0.81695187 -0.26399958 184.12
4.8182797 -0.34706917 -1.8863505 184.12
5.2130637 -0.37550616 -1.9023161 184.12
5.679028 -0.40907037 -1.9239031 184.12
6.0974922 -0.43921307 -1.9075899 184.12
6.6577516 -0.47956955 -1.9140258 184.12
7.0669312 -0.50904351 -1.8548136 184.12
7.8322873 -0.56417346 -1.8606132 184.12
8.7435045 -0.62981004 -1.8633046 184.12
12.468094 -0.9352923 -1.7571995 184.28999
11.112835 -0.83362776 -1.3032109 184.28999
11.086571 -0.83165759 -1.0372313 184.28999
11.125498 -0.83457762 -0.78015637 184.28999
4.2925653 -0.3220062 -1.916543 184.28999
4.5768495 -0.34333172 -1.9170938 184.28999
11.339077 -0.85059923 -0.26399958 184.28999
4.8135133 -0.36108503 -1.8848956 184.28999
5.2175488 -0.39139369 -1.9043682 184.28999
5.6740103 -0.4256351 -1.9226227 184.28999
6.0980659 -0.45744556 -1.9081856 184.28999
6.6582165 -0.49946517 -1.9145771 184.28999
7.057672 -0.52943027 -1.8527876 184.28999
7.8325195 -0.58755535 -1.8610743 184.28999
8.7298927 -0.6548717 -1.8608097 184.28999
9.1018362 -0.68277299 -1.7196927 184.28999
10.117085 -0.79090202 -1.6672474 184.47
12.449298 -0.97322243 -1.7549728 184.47
11.114122 -0.86884522 -1.3036754 184.47
11.085889 -0.86663806 -1.0374172 184.47
11.128788 -0.86999172 -0.78057492 184.47
4.2915325 -0.33549008 -1.916543 184.47
4.5720687 -0.35742095 -1.915552 184.47
11.342329 -0.88668525 -0.26413885 184.47
4.8160696 -0.37649572 -1.8863505 184.47
5.197557 -0.40631843 -1.8975278 184.47
5.683979 -0.44434443 -1.9264641 184.47
6.018559 -0.47050017 -1.8837599 184.47
6.6451144 -0.51948106 -1.9112694 184.47
7.0617609 -0.55205238 -1.8543071 184.47
7.8228745 -0.6115523 -1.8592299 184.47
8.7277927 -0.68229419 -1.8608097 184.47
8.8997831 -0.69573957 -1.6819216 184.47
9.7979956 -0.79521292 -1.6150446 184.64
12.452277 -1.0106366 -1.7558079 184.64
11.113476 -0.90197831 -1.3039078 184.64
11.089223 -0.90000999 -1.0379745 184.64
11.128146 -0.90316904 -0.78071445 184.64
4.2905183 -0.34822181 -1.916543 184.64
4.5691485 -0.37083566 -1.9147812 184.64
11.34164 -0.9204964 -0.26418525 184.64
4.8205023 -0.39123571 -1.888533 184.64
5.2094412 -0.4228023 -1.9023161 184.64
5.680747 -0.46105388 -1.9258238 184.64
6.0628076 -0.49206218 -1.8980578 184.64
6.6454601 -0.53935069 -1.9118207 184.64
7.0581636 -0.57284606 -1.8538007 184.64
7.8210254 -0.63476056 -1.8592299 184.64
8.7354794 -0.7089783 -1.8628887 184.64
9.577445 -0.77731293 -1.8104172 184.64
10.01177 -0.84423137 -1.6507111 184.82001
12.447067 -1.0495851 -1.7555295 184.82001
11.118505 -0.93755549 -1.304837 184.82001
11.090309 -0.93517798 -1.0383461 184.82001
11.131218 -0.93862754 -0.781133 184.82001
4.2894034 -0.36169913 -1.916543 184.82001
4.5697999 -0.38534328 -1.915552 184.82001
11.348655 -0.95696265 -0.26441738 184.82001
4.8229623 -0.4066909 -1.8899879 184.82001
5.2380509 -0.4416928 -1.9132607 184.82001
5.6622782 -0.47746527 -1.9200617 184.82001
6.0555243 -0.51062536 -1.8962706 184.82001
6.6418171 -0.56006378 -1.9112694 184.82001
7.0544009 -0.59485447 -1.8532941 184.82001
7.815114 -0.65900081 -1.8583076 184.82001
8.72931 -0.73608929 -1.8620571 184.82001
10.011035 -0.87585205 -1.6510353 185
12.439762 -1.0883381 -1.7549728 185
11.115504 -0.9724806 -1.304837 185
11.0893 -0.97018808 -1.0385318 185
11.13219 -0.97394037 -0.78141201 185
4.3046269 -0.37660608 -1.9238644 185
4.5832744 -0.40098456 -1.9217188 185
11.3436 -0.99243647 -0.26437095 185
4.8179488 -0.42151591 -1.888533 185
5.2422543 -0.4586378 -1.9153128 185
5.6475372 -0.4940955 -1.91558 185
6.0805178 -0.53197634 -1.9046111 185
6.6476855 -0.58159715 -1.9134746 185
7.0544248 -0.6171822 -1.8538007 185
7.8071895 -0.68304056 -1.8569243 185
8.7308521 -0.76385057 -1.8628887 185
9.3393774 -0.81708962 -1.766351 185
9.0177736 -0.81592113 -1.4876179 185.17
12.410836 -1.1229228 -1.7513543 185.17
11.116527 -1.0058147 -1.3053015 185.17
11.092323 -1.0036247 -1.0390892 185.17
11.133224 -1.0073254 -0.78169107 185.17
4.2943926 -0.38855326 -1.9197969 185.17
4.5802264 -0.41441533 -1.920948 185.17
11.344589 -1.0264496 -0.26446378 185.17
4.8203878 -0.43614492 -1.8899879 185.17
5.2427421 -0.47435921 -1.9159968 185.17
5.6290631 -0.50931323 -1.9098179 185.17
6.0732079 -0.54949909 -1.9028239 185.17
6.6440158 -0.60114539 -1.9129232 185.17
7.0448546 -0.63741297 -1.8517746 185.17
7.8109426 -0.70672798 -1.8583076 185.17
8.7304955 -0.78992844 -1.8633046 185.17
9.154871 -0.82832563 -1.7319127 185.17
12.393848 -1.1562881 -1.7494059 185.33
11.113675 -1.0368539 -1.3053015 185.33
11.091459 -1.0347813 -1.0392749 185.33
11.136328 -1.0389674 -0.78210956 185.33
4.2932906 -0.40054396 -1.9197969 185.33
4.5772138 -0.42703265 -1.9201771 185.33
11.351632 -1.0590543 -0.26469591 185.33
4.8191509 -0.44960427 -1.8899879 185.33
5.2301693 -0.48795035 -1.9118927 185.33
5.6332784 -0.52555853 -1.9117386 185.33
6.0830555 -0.56752068 -1.9063984 185.33
6.6346545 -0.61898226 -1.9107182 185.33
7.0353417 -0.6563645 -1.8497486 185.33
7.8108764 -0.72871828 -1.8587688 185.33
8.7243595 -0.81394202 -1.8624729 185.33
9.2758083 -0.86538959 -1.7552419 185.33
10.169647 -0.98280853 -1.6785958 185.52
12.380089 -1.1964287 -1.7480141 185.52
11.122039 -1.074849 -1.3066953 185.52
11.08995 -1.0717478 -1.0394608 185.52
11.136793 -1.0762749 -0.78238863 185.52
4.2937574 -0.41495457 -1.9206104 185.52
4.5831203 -0.44291899 -1.9232606 185.52
11.356019 -1.0974611 -0.26488158 185.52
4.819488 -0.4657619 -1.8907154 185.52
5.2266517 -0.50511074 -1.9112085 185.52
5.6333909 -0.54441857 -1.9123789 185.52
6.0735388 -0.58695507 -1.9040154 185.52
6.6383061 -0.64153498 -1.912372 185.52
7.027349 -0.67913258 -1.8482291 185.52
7.7967944 -0.75349283 -1.8560021 185.52
8.7255077 -0.84324491 -1.8633046 185.52
9.286582 -0.89746797 -1.757834 185.52
10.516429 -1.0459718 -1.7363107 185.67999
12.382612 -1.2315837 -1.7488492 185.67999
11.118994 -1.1059034 -1.3066953 185.67999
11.092858 -1.1033038 -1.0400181 185.67999
11.141685 -1.1081603 -0.78294665 185.67999
4.292582 -0.42694336 -1.9206104 185.67999
4.5690107 -0.45443717 -1.9178646 185.67999
11.340972 -1.1279814 -0.26460305 185.67999
4.8181686 -0.4792186 -1.8907154 185.67999
5.2308311 -0.52026236 -1.9132607 185.67999
5.6356192 -0.56052285 -1.9136593 185.67999
6.0699763 -0.6037243 -1.9034196 185.67999
6.6403151 -0.66045064 -1.9134746 185.67999
5.7624273 -0.57313526 -1.5159632 185.67999
7.8004699 -0.77584046 -1.8573854 185.67999
8.7211714 -0.86741418 -1.8628887 185.67999
8.9593821 -0.89110672 -1.6963634 185.67999
10.807769 -1.1073428 -1.7849469 185.85001
12.363142 -1.2667032 -1.7466224 185.85001
11.11764 -1.1390916 -1.3069277 185.85001
11.095479 -1.136821 -1.0405755 185.85001
11.140333 -1.1414167 -0.78308618 185.85001
4.2949314 -0.44005024 -1.9222374 185.85001
4.5804935 -0.46930838 -1.9232606 185.85001
11.413159 -1.1693699 -0.26636708 185.85001
4.8185787 -0.49370214 -1.8914429 185.85001
5.2199168 -0.53482246 -1.9098405 185.85001
5.6358166 -0.57743472 -1.9142996 185.85001
6.0833521 -0.62328839 -1.9081856 185.85001
5.9039221 -0.60490429 -1.7017851 185.85001
5.8049698 -0.59476584 -1.5276127 185.85001
7.7961974 -0.79878312 -1.8569243 185.85001
8.7205057 -0.89348596 -1.8633046 185.85001
9.2147827 -0.94412863 -1.7452437 185.85001
10.857227 -1.1468885 -1.7937014 186.03
12.351223 -1.3047048 -1.745509 186.03
11.123884 -1.1750565 -1.3080891 186.03
11.095813 -1.1720912 -1.0409471 186.03
11.142645 -1.1770382 -0.78350472 186.03
4.2953448 -0.45373294 -1.9230509 186.03
4.5661492 -0.48233902 -1.9178646 186.03
11.405452 -1.2047995 -0.26627424 186.03
4.8151512 -0.50864202 -1.8907154 186.03
5.216342 -0.55102122 -1.9091564 186.03
5.637743 -0.59553534 -1.91558 186.03
6.0604792 -0.64019048 -1.9016324 186.03
5.8866973 -0.62183332 -1.6973748 186.03
5.8146176 -0.61421925 -1.5306518 186.03
7.7878432 -0.8226583 -1.855541 186.03
8.7157106 -0.9206723 -1.8628887 186.03
9.1902714 -0.97080189 -1.7411703 186.03
10.842005 -1.1778185 -1.7917559 186.2
12.333515 -1.3398485 -1.7435606 186.2
11.126273 -1.2087001 -1.308786 186.2
11.094266 -1.205223 -1.0411328 186.2
11.14307 -1.2105248 -0.78378373 186.2
4.2903466 -0.46608081 -1.9214239 186.2
4.5665331 -0.49608421 -1.9186355 186.2
4.8154731 -0.52312779 -1.8914429 186.2
5.2165523 -0.56669891 -1.9098405 186.2
5.6529045 -0.61410195 -1.9213421 186.2
6.0395722 -0.65610754 -1.8956748 186.2
5.8313107 -0.63348305 -1.6819391 186.2
5.8050756 -0.630633 -1.5286257 186.2
7.7892375 -0.84618199 -1.8564632 186.2
8.7168303 -0.94695079 -1.8637204 186.2
9.1990738 -0.99933922 -1.7433921 186.2
10.846308 -1.2108581 -1.7930529 186.37
12.327517 -1.376217 -1.7432823 186.37
11.124612 -1.2419274 -1.3090184 186.37
11.098557 -1.2390188 -1.041876 186.37
11.147361 -1.244467 -0.78434181 186.37
4.2962084 -0.47961929 -1.9246778 186.37
4.5760455 -0.51085973 -1.9232606 186.37
11.660401 -1.3017417 -0.27240187 186.37
4.8139 -0.53741324 -1.8914429 186.37
5.2241869 -0.58321679 -1.9132607 186.37
68.221695 -7.6161208 1.5937459 186.37
5.637876 -0.62940013 -1.9168606 186.37
6.0451889 -0.67487168 -1.8980578 186.37
5.892457 -0.65782106 -1.7001312 186.37
7.7886267 -0.86950529 -1.8569243 186.37
8.7139816 -0.97280991 -1.8637204 186.37
9.7058754 -1.0835428 -1.8400415 186.37
9.2366695 -1.0605515 -1.5274994 186.55
12.299521 -1.4122272 -1.7399421 186.55
11.12855 -1.2777766 -1.3099476 186.55
11.096589 -1.2741069 -1.0420617 186.55
11.14736 -1.2799364 -0.78462082 186.55
4.2964954 -0.49332225 -1.9254912 186.55
12.565695 -1.4427892 -0.58983934 186.55
4.5762515 -0.52544373 -1.9240314 186.55
4.8140383 -0.55274642 -1.8921703 186.55
74.752861 -8.5831003 0 186.55
5.2391329 -0.60155559 -1.919417 186.55
5.6358709 -0.64710891 -1.9168606 186.55
5.957685 -0.68405956 -1.8712492 186.55
5.8349719 -0.66996968 -1.6841443 186.55
7.7877903 -0.89419168 -1.8573854 186.55
8.7128267 -1.000404 -1.8641362 186.55
8.9545813 -1.0281622 -1.698215 186.55
12.287409 -1.4477873 -1.7388288 186.72
11.126682 -1.3110224 -1.3101798 186.72
11.094737 -1.3072585 -1.0422475 186.72
11.151439 -1.3139395 -0.78517884 186.72
4.2931981 -0.50585425 -1.9246778 186.72
12.599057 -1.4845078 -0.59160954 186.72
4.5618424 -0.53750777 -1.9186355 186.72
4.8123775 -0.56702751 -1.8921703 186.72
5.2167935 -0.61467862 -1.9118927 186.72
68.406227 -8.0600939 1.5991774 186.72
5.6376896 -0.66427147 -1.918141 186.72
6.0144081 -0.70865905 -1.8897173 186.72
5.853961 -0.68975407 -1.6902083 186.72
7.7831702 -0.91706681 -1.8569243 186.72
8.7078772 -1.0260221 -1.8637204 186.72
8.8499918 -1.042767 -1.6789593 186.72
12.267329 -1.4823376 -1.7366019 186.89
11.128659 -1.344745 -1.3108767 186.89
11.096741 -1.3408881 -1.0428048 186.89
11.155415 -1.347978 -0.78573692 186.89
4.2898645 -0.51837099 -1.9238644 186.89
11.249851 -1.3593893 -0.52844238 186.89
4.5602279 -0.55104065 -1.9186355 186.89
4.8125234 -0.58152705 -1.8928978 186.89
75.151329 -9.0810022 0 186.89
5.2074838 -0.62925261 -1.9091564 186.89
68.205345 -8.2416754 1.5950458 186.89
5.6394558 -0.68145049 -1.9194214 186.89
5.9269853 -0.71619445 -1.8629086 186.89
5.8289852 -0.70435244 -1.6835929 186.89
7.7823467 -0.94038934 -1.8573854 186.89
8.7047939 -1.0518544 -1.8637204 186.89
8.8761272 -1.0725576 -1.6845138 186.89
12.260912 -1.5184855 -1.7363236 187.06
11.132506 -1.3787351 -1.311806 187.06
11.098642 -1.3745412 -1.0433623 187.06
11.159286 -1.3820517 -0.786295 187.06
4.291934 -0.53154612 -1.9254912 187.06
11.218011 -1.3893245 -0.52713805 187.06
4.5805507 -0.56729054 -1.9278857 187.06
4.8126254 -0.5960325 -1.8936253 187.06
5.2205148 -0.64654869 -1.9146287 187.06
5.6280074 -0.69701564 -1.9162203 187.06
6.0271497 -0.74644852 -1.8950791 187.06
5.8516726 -0.72471613 -1.6907595 187.06
6.9873576 -0.86536807 -1.8431641 187.06
7.7756596 -0.96299744 -1.8564632 187.06
8.7016354 -1.0776774 -1.8637204 187.06
9.0562544 -1.1215962 -1.7193223 187.06
12.246257 -1.5557487 -1.7349318 187.24001
11.118266 -1.4124503 -1.3106445 187.24001
11.100196 -1.4101546 -1.0439196 187.24001
11.160827 -1.4178571 -0.78671354 187.24001
4.2902431 -0.54502696 -1.9254912 187.24001
11.219536 -1.4253155 -0.52741754 187.24001
4.5769148 -0.5814454 -1.9271147 187.24001
4.8125772 -0.61138368 -1.8943528 187.24001
5.1979494 -0.66034085 -1.9071044 187.24001
68.330261 -8.6805887 1.5991774 187.24001
5.629549 -0.71517068 -1.9175007 187.24001
5.9603791 -0.75719893 -1.8748237 187.24001
5.8932328 -0.74866873 -1.7034389 187.24001
6.9961209 -0.88877821 -1.8462031 187.24001
7.782249 -0.98864692 -1.8587688 187.24001
8.6943254 -1.1045159 -1.8628887 187.24001
8.906455 -1.1314646 -1.6915495 187.24001
10.812512 -1.4081383 -1.7914317 187.42
12.237381 -1.5937022 -1.7343752 187.42
11.133472 -1.4499377 -1.3129675 187.42
11.09966 -1.4455342 -1.0442911 187.42
11.158296 -1.4531704 -0.78685302 187.42
4.2866979 -0.55826646 -1.9246778 187.42
4.5695758 -0.5951063 -1.9248022 187.42
4.8069382 -0.62601858 -1.8928978 187.42
5.192122 -0.67618197 -1.9057362 187.42
5.6197591 -0.73187411 -1.9149399 187.42
5.9503984 -0.77493399 -1.8724407 187.42
5.8584423 -0.76295841 -1.6940672 187.42
6.9913754 -0.91050285 -1.8456966 187.42
7.7771749 -1.0128393 -1.8583076 187.42
8.6946926 -1.1323297 -1.8637204 187.42
9.1985054 -1.2240748 -1.5245813 187.58
12.211287 -1.6249954 -1.7313133 187.58
11.113627 -1.4789262 -1.3111091 187.58
11.101501 -1.4773127 -1.0448484 187.58
11.164083 -1.4856404 -0.78755057 187.58
4.2869334 -0.570476 -1.9254912 187.58
4.5788722 -0.60932529 -1.9294273 187.58
4.8051715 -0.63943964 -1.8928978 187.58
5.1846247 -0.68993473 -1.9036841 187.58
5.5763726 -0.74206591 -1.9008547 187.58
5.9747062 -0.79507345 -1.8807812 187.58
5.8944035 -0.78438729 -1.7050927 187.58
6.9830523 -0.92925727 -1.844177 187.58
7.7704577 -1.0340399 -1.8573854 187.58
8.6953745 -1.1571215 -1.864552 187.58
9.1197357 -1.2135926 -1.7333939 187.58
9.2085218 -1.2532248 -1.5268511 187.75
12.200525 -1.6604186 -1.7304783 187.75
11.117064 -1.5129659 -1.3120383 187.75
11.106936 -1.5115876 -1.0457774 187.75
11.153694 -1.5179513 -0.78713202 187.75
4.2852216 -0.58319306 -1.9254912 187.75
4.5697293 -0.6219129 -1.9263439 187.75
4.799561 -0.65319157 -1.8914429 187.75
5.1900039 -0.70632851 -1.9064202 187.75
5.5891662 -0.76065212 -1.9059765 187.75
5.9477282 -0.80945027 -1.8730364 187.75
5.6234503 -0.76531804 -1.627363 187.75
6.9821811 -0.95023316 -1.8446835 187.75
7.7673559 -1.0570908 -1.8573854 187.75
8.6938419 -1.1831799 -1.8649678 187.75
10.768537 -1.4980894 -1.7862438 187.92
12.181813 -1.6947006 -1.7285299 187.92
11.118428 -1.5467654 -1.3127352 187.92
11.108318 -1.545359 -1.0463347 187.92
11.149141 -1.5510381 -0.78713202 187.92
4.2834725 -0.59590501 -1.9254912 187.92
11.2513 -1.5652502 -0.52974671 187.92
4.5696921 -0.63572305 -1.9271147 187.92
4.8012919 -0.66794264 -1.8928978 187.92
5.1934695 -0.72250128 -1.9084724 187.92
5.5850081 -0.77697104 -1.9053363 187.92
5.9018073 -0.82104331 -1.8593341 187.92
5.7682009 -0.80245632 -1.5245737 187.92
7.7603302 -1.0795959 -1.8564632 187.92
8.6747913 -1.2068133 -1.8616413 187.92
9.8014956 -1.3635573 -1.8644816 187.92
10.783584 -1.532811 -1.7894863 188.09
12.178692 -1.7311159 -1.7288083 188.09
11.121656 -1.5808657 -1.3136644 188.09
11.107628 -1.5788716 -1.0467063 188.09
11.156343 -1.5857961 -0.78796911 188.09
4.2853036 -0.60912591 -1.9271182 188.09
4.5714397 -0.64979821 -1.9286565 188.09
4.8066669 -0.68323416 -1.8958077 188.09
68.240067 -9.6998482 0 188.09
5.1857209 -0.73711395 -1.9064202 188.09
5.5676708 -0.7914055 -1.9002144 188.09
5.842639 -0.83049029 -1.8414617 188.09
5.7939219 -0.82356548 -1.6780802 188.09
5.7887807 -0.82283473 -1.5306518 188.09
7.7570925 -1.1026165 -1.8564632 188.09
8.6847305 -1.2344737 -1.864552 188.09
9.7974072 -1.392633 -1.8644816 188.09
10.778715 -1.566681 -1.7894863 188.27
12.161434 -1.7676586 -1.7271382 188.27
11.130396 -1.6177977 -1.3152905 188.27
11.110496 -1.6149052 -1.0474495 188.27
11.159203 -1.6219848 -0.78852719 188.27
4.2851768 -0.62284839 -1.9279317 188.27
11.223735 -1.6313645 -0.52890825 188.27
4.5748549 -0.66495293 -1.930969 188.27
4.7989659 -0.69752741 -1.8936253 188.27
5.1870995 -0.75394237 -1.9077884 188.27
5.4245281 -0.78845257 -1.8521969 188.27
68.285461 -9.9252596 3.21789 188.27
5.7171926 -0.83099127 -1.802738 188.27
5.8388691 -0.84867686 -1.6918621 188.27
6.9770989 -1.0141181 -1.8456966 188.27
7.757442 -1.1275405 -1.8573854 188.27
8.6750011 -1.2609073 -1.8633046 188.27
9.8007631 -1.4245362 -1.8659629 188.27
10.767883 -1.5996655 -1.7885135 188.45
12.146026 -1.8044009 -1.7257464 188.45
11.125258 -1.6527569 -1.3152905 188.45
11.109306 -1.650387 -1.047821 188.45
11.146158 -1.6558617 -0.78796911 188.45
4.2813916 -0.63603908 -1.9271182 188.45
11.250173 -1.671314 -0.53039891 188.45
4.5709176 -0.6790508 -1.9301981 188.45
4.8004365 -0.71314788 -1.8950802 188.45
5.1939998 -0.77161527 -1.9112085 188.45
68.131714 -10.121577 1.5991774 188.45
5.4538856 -0.81022358 -1.8630809 188.45
5.8297515 -0.86606181 -1.8390787 188.45
5.8456826 -0.86842853 -1.6946185 188.45
6.9719648 -1.0357479 -1.84519 188.45
7.7480865 -1.1510477 -1.8560021 188.45
8.6593876 -1.2864295 -1.8608097 188.45
9.7904072 -1.4544528 -1.864852 188.45
10.766993 -1.632199 -1.789162 188.62
12.134744 -1.8395404 -1.7249115 188.62
11.13209 -1.6875453 -1.3166844 188.62
11.112236 -1.6845356 -1.0485642 188.62
11.147114 -1.6898228 -0.78838766 188.62
4.281292 -0.64901328 -1.9279317 188.62
11.253065 -1.7058842 -0.53077155 188.62
4.5652337 -0.69205678 -1.9286565 188.62
4.8019834 -0.72794634 -1.8965352 188.62
5.1842551 -0.785896 -1.9084724 188.62
5.475811 -0.8300938 -1.8714039 188.62
5.8139429 -0.88135213 -1.8349085 188.62
5.7974606 -0.87885362 -1.6813879 188.62
5.782835 -0.87663639 -1.5311582 188.62
7.7484856 -1.174615 -1.8569243 188.62
8.6710062 -1.3144624 -1.8641362 188.62
9.7219229 -1.473774 -1.8526318 188.62
10.760152 -1.6638365 -1.7888378 188.78999
12.123361 -1.8746288 -1.7240764 188.78999
11.132923 -1.721478 -1.3173813 188.78999
11.117029 -1.7190204 -1.0494931 188.78999
11.147966 -1.7238041 -0.7888062 188.78999
4.2793474 -0.66171324 -1.9279317 188.78999
4.5649838 -0.70588106 -1.9294273 188.78999
4.7961202 -0.74162149 -1.8950802 188.78999
5.1781859 -0.80070013 -1.9071044 188.78999
59.955112 -9.2708273 1.4085238 188.78999
5.4826865 -0.84778494 -1.8746051 188.78999
5.8584719 -0.90589237 -1.8498021 188.78999
5.7891278 -0.89516973 -1.679734 188.78999
6.9618721 -1.0765105 -1.844177 188.78999
7.744966 -1.1976 -1.8569243 188.78999
8.6690006 -1.340483 -1.864552 188.78999
9.4921961 -1.4677732 -1.8096765 188.78999
10.762669 -1.6988631 -1.7901348 188.97
12.123281 -1.9136325 -1.7249115 188.97
11.135309 -1.7576835 -1.3183104 188.97
11.115508 -1.754558 -1.0498646 188.97
4.2826619 -0.67600852 -1.9303721 188.97
11.686449 -1.8446796 -0.55173409 188.97
4.5609207 -0.71993113 -1.9286565 188.97
4.7956066 -0.75697577 -1.8958077 188.97
5.158937 -0.81432664 -1.9009479 188.97
5.4687667 -0.86323249 -1.8707637 188.97
5.6990705 -0.89958543 -1.800355 188.97
5.772994 -0.91125411 -1.6758751 188.97
6.9603667 -1.0986782 -1.8446835 188.97
7.7430878 -1.222229 -1.8573854 188.97
8.6589499 -1.3667958 -1.8633046 188.97
9.1497374 -1.4442655 -1.7452437 188.97
10.759831 -1.7292247 -1.7904589 189.13
12.108112 -1.9459083 -1.7235197 189.13
11.126434 -1.7881418 -1.3178458 189.13
11.108599 -1.7852755 -1.0496789 189.13
4.2825613 -0.68825525 -1.9311856 189.13
4.5607147 -0.7329576 -1.9294273 189.13
4.7953138 -0.77066028 -1.8965352 189.13
5.1288095 -0.82425672 -1.8906873 189.13
5.3316407 -0.85685396 -1.8246669 189.13
5.6814561 -0.91307318 -1.795589 189.13
5.9051967 -0.94903076 -1.7150156 189.13
6.9572716 -1.1181109 -1.8446835 189.13
7.7415662 -1.2441558 -1.8578465 189.13
8.6435099 -1.3891082 -1.8608097 189.13
10.752398 -1.7626998 -1.7901348 189.31
12.094121 -1.9826558 -1.7224063 189.31
11.110796 -1.8214538 -1.050422 189.31
11.173208 -1.8316854 -0.79173601 189.31
4.2785749 -0.70141029 -1.9303721 189.31
4.5565686 -0.74698335 -1.9286565 189.31
4.7928691 -0.78572136 -1.8965352 189.31
5.1187763 -0.83914912 -1.8879511 189.31
60.657757 -9.9439592 1.4270924 189.31
5.5009437 -0.90179998 -1.8835684 189.31
60.702866 -9.951355 2.8686075 189.31
5.6917477 -0.93307954 -1.7997591 189.31
5.6195035 -0.9212361 -1.6328757 189.31
6.9556336 -1.1402752 -1.84519 189.31
7.7299376 -1.2672112 -1.8560021 189.31
8.6429644 -1.4168887 -1.8616413 189.31
9.2399225 -1.5147512 -1.7641292 189.31
10.757167 -1.7943428 -1.7917559 189.47
12.08463 -2.0157695 -1.7218496 189.47
11.386024 -1.8992388 -1.3499035 189.47
11.101738 -1.8518187 -1.0500504 189.47
11.164114 -1.8622233 -0.79145694 189.47
4.2784019 -0.71365619 -1.9311856 189.47
43.873486 -7.3182902 -2.0742669 189.47
4.5471835 -0.7584902 -1.9255731 189.47
4.7833056 -0.79787642 -1.8936253 189.47
60.691463 -10.123603 0 189.47
5.1330967 -0.85622311 -1.8941076 189.47
5.4498119 -0.90905255 -1.8669223 189.47
5.660872 -0.94425833 -1.790823 189.47
5.6036344 -0.93471086 -1.6290168 189.47
6.9524226 -1.1596947 -1.84519 189.47
7.7321272 -1.2897528 -1.8573854 189.47
8.6331854 -1.4400532 -1.8603938 189.47
9.4178877 -1.570945 -1.7989378 189.47
10.753741 -1.8265824 -1.7920802 189.64
12.074691 -2.0509531 -1.7212929 189.64
11.349004 -1.9276911 -1.3461866 189.64
11.098158 -1.8850834 -1.0502362 189.64
11.168374 -1.8970101 -0.79215449 189.64
4.2780666 -0.72665328 -1.9319991 189.64
40.257027 -6.8378787 -1.9042373 189.64
4.5612879 -0.77475995 -1.9325106 189.64
4.7790804 -0.81175327 -1.8928978 189.64
5.1453567 -0.87396723 -1.8995799 189.64
5.4769788 -0.93029511 -1.877166 189.64
5.8123903 -0.9872666 -1.8396745 189.64
5.6918144 -0.96678615 -1.655478 189.64
6.9489508 -1.1803178 -1.84519 189.64
7.7282667 -1.3126888 -1.8573854 189.64
8.6250172 -1.4650068 -1.8595622 189.64
9.3066139 -1.5807798 -1.778571 189.64
10.75184 -1.8610305 -1.7927287 189.82001
11.139266 -1.9280899 -1.5888001 189.82001
11.137369 -1.9277616 -1.321795 189.82001
11.09218 -1.91994 -1.0502362 189.82001
11.162359 -1.9320872 -0.79215449 189.82001
4.2757626 -0.7400896 -1.9319991 189.82001
4.5551944 -0.78845626 -1.930969 189.82001
4.7893567 -0.8289873 -1.8979902 189.82001
5.0851784 -0.88019091 -1.8783746 189.82001
5.3620095 -0.9281075 -1.838752 189.82001
5.7358918 -0.99282259 -1.8164402 189.82001
5.7455797 -0.9944995 -1.6720161 189.82001
6.9433022 -1.2018126 -1.8446835 189.82001
7.7241044 -1.3369614 -1.8573854 189.82001
8.6184444 -1.4917622 -1.8591464 189.82001
10.743997 -1.8944564 -1.7924044 190
