# .PCD v0.7 - Point Cloud Data file format
VERSION 0.7
FIELDS x y z intensity
SIZE 4 4 4 4
TYPE F F F F
COUNT 1 1 1 1
WIDTH 1188
HEIGHT 1
VIEWPOINT 0 0 0 1 0 0 0
POINTS 1188
DATA ascii
5.6148953 -0.18528421 -1.8982937 181.89
6.0145559 -0.19847248 -1.8778024 181.89
6.4926724 -0.2142497 -1.8627572 181.89
6.7545834 -0.22289242 -1.7692146 181.89
6.8699446 -0.22669919 -1.6286706 181.89
6.9176073 -0.22827199 -1.4711832 181.89
6.9361219 -0.22888295 -1.3075441 181.89
7.0725031 -0.25562885 -1.1627283 182.07001
8.991704 -0.32499653 -1.2645268 182.07001
13.705592 -0.49537551 -1.6038089 182.07001
12.7841 -0.46206906 -1.1934756 182.07001
12.93395 -0.46748525 -0.90502048 182.07001
4.3401608 -0.15687096 -1.9336261 182.07001
31.804646 -1.1495484 -1.484148 182.07001
4.614378 -0.16678227 -1.9286565 182.07001
4.829473 -0.17455669 -1.887078 182.07001
5.2682357 -0.19041532 -1.918733 182.07001
5.619966 -0.20312829 -1.9002144 182.07001
6.0119948 -0.21729779 -1.8772067 182.07001
6.5015736 -0.23499316 -1.8655137 182.07001
6.7267799 -0.24313302 -1.7621236 182.07001
6.8303013 -0.2468747 -1.6194483 182.07001
6.9618211 -0.25162837 -1.4807471 182.07001
7.000185 -0.25301498 -1.3197641 182.07001
8.9907007 -0.35167399 -1.2645268 182.24001
13.690167 -0.5354951 -1.6021827 182.24001
12.774714 -0.49968681 -1.1927325 182.24001
13.000289 -0.50851029 -0.90976393 182.24001
4.3524566 -0.17024766 -1.9393203 182.24001
31.96479 -1.2503126 -1.4917877 182.24001
4.6083307 -0.18025626 -1.9263439 182.24001
4.8252106 -0.1887396 -1.8856231 182.24001
5.2732811 -0.206266 -1.9207851 182.24001
5.6382718 -0.22054273 -1.9066168 182.24001
6.0170469 -0.23535863 -1.8789939 182.24001
6.4970059 -0.25413236 -1.8644111 182.24001
6.7434292 -0.2637713 -1.7666821 182.24001
6.8217602 -0.26683524 -1.6176038 182.24001
7.0196881 -0.27457723 -1.4932218 182.24001
6.9306664 -0.27109513 -1.3068035 182.24001
7.4040952 -0.31161806 -1.2175251 182.41
8.9915962 -0.37843165 -1.2648052 182.41
13.660732 -0.57494277 -1.5989305 182.41
12.771185 -0.5375042 -1.1925466 182.41
13.004703 -0.54733229 -0.91018248 182.41
4.3482809 -0.18300724 -1.9376934 182.41
32.376122 -1.3626223 -1.5111663 182.41
4.5967126 -0.19346303 -1.9217188 182.41
4.8209066 -0.20289876 -1.884168 182.41
5.2839122 -0.22238539 -1.9248893 182.41
5.6432719 -0.23750985 -1.9085375 182.41
6.0258598 -0.25361192 -1.8819727 182.41
6.4943023 -0.27332738 -1.8638598 182.41
6.7310181 -0.28329012 -1.7636431 182.41
6.9006586 -0.2904298 -1.6365097 182.41
6.8898411 -0.28997454 -1.4657774 182.41
7.1517277 -0.3009966 -1.3486478 182.41
7.3991365 -0.3346988 -1.2168766 182.59
8.992341 -0.40676716 -1.2650834 182.59
13.648937 -0.6174075 -1.597769 182.59
12.685882 -0.5738439 -1.1847438 182.59
12.8355 -0.58061182 -0.89846337 182.59
4.3422089 -0.19641915 -1.9352529 182.59
32.569263 -1.4732655 -1.5203899 182.59
4.5960817 -0.20790304 -1.9217188 182.59
68.159912 -3.0832031 -1.5840904 182.59
4.8221068 -0.21812724 -1.8848956 182.59
5.2906976 -0.23932387 -1.9276255 182.59
5.6462836 -0.25540873 -1.9098179 182.59
6.038384 -0.27314535 -1.8861428 182.59
6.5010939 -0.29407597 -1.8660649 182.59
6.7184982 -0.3039102 -1.760604 182.59
6.8141704 -0.30823794 -1.6162205 182.59
6.9318905 -0.31356299 -1.4749255 182.59
6.9485149 -0.31431499 -1.3105066 182.59
8.9970293 -0.43373224 -1.2659185 182.75999
13.645061 -0.65780628 -1.5975367 182.75999
12.69208 -0.61186463 -1.1854869 182.75999
12.738066 -0.6140815 -0.89176679 182.75999
4.3452573 -0.20947781 -1.9368799 182.75999
32.738358 -1.5782633 -1.5284954 182.75999
4.5972881 -0.22162782 -1.9224896 182.75999
4.82516 -0.23261315 -1.8863505 182.75999
5.2899642 -0.25502062 -1.9276255 182.75999
5.6417155 -0.27197799 -1.9085375 182.75999
6.0299191 -0.29069263 -1.8837599 182.75999
6.5040331 -0.31354892 -1.8671675 182.75999
6.7310948 -0.32449517 -1.7641495 182.75999
6.8482156 -0.3301414 -1.6245205 182.75999
6.8039184 -0.32800588 -1.447897 182.75999
6.823874 -0.32896793 -1.2871773 182.75999
8.9998198 -0.45748597 -1.2664752 182.91
12.710511 -0.64611083 -0.88995308 182.91
4.3410444 -0.22066742 -1.9352529 182.91
33.711788 -1.7136645 -1.5741471 182.91
4.5966921 -0.23366272 -1.9224896 182.91
4.8226738 -0.24515 -1.8856231 182.91
5.294909 -0.26915506 -1.9296776 182.91
5.652338 -0.28732416 -1.9123789 182.91
6.0291371 -0.3064779 -1.8837599 182.91
6.50703 -0.33077055 -1.86827 182.91
6.6239452 -0.33671367 -1.7362919 182.91
6.8803692 -0.3497484 -1.6323596 182.91
6.736608 -0.34244061 -1.433759 182.91
8.9605637 -0.48528677 -1.474324 183.10001
9.0041857 -0.48764926 -1.2673103 183.10001
7.190392 -0.38941771 -0.84209257 183.10001
12.66447 -0.68588316 -0.8868838 183.10001
4.342113 -0.23516044 -1.9360664 183.10001
34.082958 -1.845867 -1.5917557 183.10001
4.6106343 -0.24970303 -1.9286565 183.10001
4.8218346 -0.26114121 -1.8856231 183.10001
5.2977409 -0.28691539 -1.9310458 183.10001
5.6608143 -0.30657876 -1.91558 183.10001
6.0338068 -0.32677931 -1.8855472 183.10001
6.4444666 -0.34901986 -1.8506292 183.10001
6.7387104 -0.36495551 -1.7666821 183.10001
6.9102635 -0.37424651 -1.6397375 183.10001
6.770597 -0.36668244 -1.4412439 183.10001
6.8885283 -0.37306938 -1.2997677 183.10001
8.9452925 -0.51108313 -1.4720542 183.27
9.0303812 -0.51594466 -1.2712071 183.27
7.181272 -0.41029704 -0.84116334 183.27
12.628475 -0.72151929 -1.1800991 183.27
4.3413963 -0.2480427 -1.9360664 183.27
4.6061883 -0.2631714 -1.9271147 183.27
4.8247585 -0.27565926 -1.887078 183.27
5.3043714 -0.30306163 -1.9337819 183.27
5.6787963 -0.32445413 -1.9219824 183.27
6.0442476 -0.34533393 -1.8891217 183.27
6.3858209 -0.36484951 -1.8340909 183.27
6.6081772 -0.37755367 -1.7327464 183.27
6.942153 -0.39663514 -1.6475765 183.27
6.8554163 -0.3916795 -1.4595401 183.27
6.8677688 -0.39238527 -1.2960646 183.27
7.0958147 -0.42778352 -1.1679162 183.45
7.7891703 -0.46958366 -1.096684 183.45
7.1997762 -0.43405101 -0.84348637 183.45
12.616208 -0.76059002 -1.1791703 183.45
4.3424191 -0.26179031 -1.9368799 183.45
36.063259 -2.1741362 -1.6848294 183.45
4.6071806 -0.27775189 -1.9278857 183.45
4.8182898 -0.29047897 -1.8848956 183.45
5.3071451 -0.31995046 -1.93515 183.45
5.6739664 -0.34206492 -1.920702 183.45
6.0488501 -0.36466545 -1.8909088 183.45
6.5132189 -0.39266074 -1.8710264 183.45
6.6359282 -0.40005845 -1.7403439 183.45
6.9408727 -0.41844258 -1.6475765 183.45
6.885396 -0.41509804 -1.4661932 183.45
6.8115702 -0.41064736 -1.2856961 183.45
7.0354261 -0.44509712 -1.1581889 183.62
7.5525293 -0.47781169 -1.0635608 183.62
7.2024217 -0.45566207 -0.84395099 183.62
12.609921 -0.79776818 -1.1787987 183.62
12.637812 -0.79953271 -0.88548869 183.62
4.3507409 -0.27525014 -1.9409473 183.62
36.395603 -2.3025723 -1.7006677 183.62
4.5989695 -0.29095435 -1.9248022 183.62
4.8174067 -0.30477381 -1.8848956 183.62
5.3099236 -0.33593297 -1.9365181 183.62
5.6880546 -0.35985544 -1.9258238 183.62
6.0439305 -0.38237002 -1.8897173 183.62
6.525456 -0.41283378 -1.8748853 183.62
6.727397 -0.42560959 -1.7646561 183.62
6.9260049 -0.43817455 -1.6443486 183.62
6.9095149 -0.43713132 -1.471599 183.62
6.8789744 -0.43519914 -1.2986568 183.62
7.1816835 -0.47700688 -1.182507 183.8
7.3296585 -0.48683539 -1.0323861 183.8
7.2326679 -0.48039326 -0.84766781 183.8
12.947124 -0.85994709 -1.2105677 183.8
12.629266 -0.83883488 -0.88507015 183.8
4.3389163 -0.28819048 -1.9360664 183.8
13.96801 -0.92775416 -0.65282017 183.8
4.5925083 -0.30503407 -1.9224896 183.8
4.8238611 -0.32040048 -1.8878055 183.8
5.3050919 -0.3523638 -1.93515 183.8
5.6925673 -0.37809992 -1.9277445 183.8
6.0446048 -0.40148219 -1.8903131 183.8
6.4876795 -0.43091118 -1.8644111 183.8
6.7993875 -0.45161483 -1.7839032 183.8
6.965373 -0.46263954 -1.6540321 183.8
6.9412913 -0.46104008 -1.478668 183.8
6.9167953 -0.45941302 -1.3060629 183.8
7.0089502 -0.48642588 -1.1542981 183.97
7.1740708 -0.49788532 -1.0106751 183.97
12.95445 -0.89904749 -1.2114966 183.97
12.61876 -0.87575042 -0.88451207 183.97
4.3435102 -0.3014425 -1.9385068 183.97
13.929321 -0.96670425 -0.65114313 183.97
4.6044703 -0.31955335 -1.9278857 183.97
4.8173132 -0.33432478 -1.8856231 183.97
5.3021479 -0.36797264 -1.9344659 183.97
5.6933107 -0.39511961 -1.9283848 183.97
6.0491004 -0.41981164 -1.8921003 183.97
6.5132232 -0.45202205 -1.872129 183.97
6.8288999 -0.47393024 -1.7920072 183.97
7.2085919 -0.5002811 -1.712133 183.97
6.9945378 -0.48542562 -1.490311 183.97
6.8173666 -0.47312981 -1.2875477 183.97
6.5843549 -0.47543785 -1.0845863 184.13
6.9968424 -0.50522238 -0.98590225 184.13
7.5210328 -0.54307276 -0.88181609 184.13
12.614275 -0.91084146 -0.88437259 184.13
4.3444738 -0.31370229 -1.9393203 184.13
13.777119 -0.99480718 -0.64415562 184.13
4.6054006 -0.33254308 -1.9286565 184.13
4.8182192 -0.34791011 -1.8863505 184.13
5.2954764 -0.38237152 -1.9324138 184.13
5.6865158 -0.4106074 -1.9264641 184.13
6.049809 -0.43683976 -1.8926961 184.13
6.521523 -0.47090092 -1.8748853 184.13
6.8694215 -0.49602172 -1.6318984 184.13
6.9833989 -0.50425166 -1.4882319 184.13
6.7709312 -0.48890999 -1.2790307 184.13
6.8432407 -0.51454586 -0.96446961 184.3
7.4619431 -0.56106633 -0.87507933 184.3
11.193656 -0.84165519 -1.0472636 184.3
12.601569 -0.9475168 -0.88367504 184.3
4.345346 -0.32672819 -1.9401338 184.3
13.68645 -1.0290893 -0.64005631 184.3
4.5933518 -0.34537587 -1.9240314 184.3
4.8153081 -0.36206484 -1.8856231 184.3
5.2849479 -0.39737722 -1.9289936 184.3
5.6739359 -0.4266254 -1.9226227 184.3
6.0446787 -0.45450166 -1.8915046 184.3
6.5124288 -0.48967198 -1.8726802 184.3
6.7281938 -0.50589544 -1.5986979 184.3
6.8375134 -0.51411521 -1.457461 184.3
6.2833991 -0.47245112 -1.1871952 184.3
6.7369428 -0.52784276 -0.94971722 184.48
7.2264571 -0.56619644 -0.84766781 184.48
12.604498 -0.98756856 -0.88409352 184.48
4.3370118 -0.339807 -1.9368799 184.48
13.579579 -1.0639666 -0.63521159 184.48
4.5904045 -0.35966045 -1.9232606 184.48
4.8160043 -0.37733626 -1.8863505 184.48
5.2836733 -0.4139784 -1.9289936 184.48
5.6725678 -0.44444844 -1.9226227 184.48
6.0508342 -0.47408584 -1.8938876 184.48
6.4821086 -0.50787634 -1.8644111 184.48
6.6897078 -0.52414191 -1.5899366 184.48
6.1532536 -0.48211041 -1.3119228 184.48
6.0447946 -0.47361261 -1.1423885 184.48
6.1311955 -0.49976695 -1.0106593 184.66
6.5872021 -0.536937 -0.92884129 184.66
11.88136 -0.96847522 -1.3940407 184.66
12.597356 -1.0268376 -0.88381451 184.66
4.3395648 -0.35372728 -1.9385068 184.66
13.450723 -1.0963974 -0.62934208 184.66
4.6039672 -0.37527928 -1.9294273 184.66
4.814795 -0.39246431 -1.8863505 184.66
5.2879663 -0.43103355 -1.9310458 184.66
5.6749206 -0.46257499 -1.9239031 184.66
6.049315 -0.49309272 -1.8938876 184.66
6.4076667 -0.52230269 -1.8434626 184.66
6.2981715 -0.51337755 -1.6542385 184.66
5.8884816 -0.47998282 -1.2557867 184.66
5.8924398 -0.48030546 -1.113875 184.66
6.0215263 -0.5088169 -0.99282604 184.83
6.5007191 -0.54930854 -0.91687238 184.83
6.977417 -0.58958936 -0.81886244 184.83
12.592266 -1.0640422 -0.88367504 184.83
4.3366756 -0.36644763 -1.9376934 184.83
13.393661 -1.1317598 -0.62682658 184.83
4.5936384 -0.38816091 -1.9255731 184.83
4.8173218 -0.40706208 -1.8878055 184.83
5.2810459 -0.44624659 -1.9289936 184.83
5.6810751 -0.48004889 -1.9264641 184.83
6.0421181 -0.51055694 -1.8921003 184.83
6.5306087 -0.55183423 -1.8792955 184.83
6.1905842 -0.52310228 -1.6263808 184.83
5.7310839 -0.48427463 -1.2225207 184.83
5.7656484 -0.48719534 -1.0901755 184.83
5.931428 -0.51997584 -0.97823519 185.00999
6.3924208 -0.56038862 -0.9018417 185.00999
6.7400446 -0.59086287 -0.79121858 185.00999
7.1533823 -0.6270979 -0.66993666 185.00999
12.592835 -1.1039451 -0.88395405 185.00999
4.3318629 -0.37975076 -1.9360664 185.00999
13.320382 -1.1677251 -0.62356573 185.00999
4.5887198 -0.40226796 -1.9240314 185.00999
4.8160195 -0.42219409 -1.8878055 185.00999
75.020287 -6.5766182 0 185.00999
5.270257 -0.46201465 -1.9255733 185.00999
5.6757636 -0.49756318 -1.9251835 185.00999
6.0404844 -0.52953625 -1.8921003 185.00999
5.8910885 -0.51643956 -1.695721 185.00999
5.4535108 -0.47807947 -1.2971264 185.00999
5.6009121 -0.49100134 -1.1950763 185.00999
5.6466146 -0.49500787 -1.0679573 185.00999
5.8454356 -0.52889043 -0.96429282 185.17
6.3060145 -0.57056326 -0.88987279 185.17
7.0881391 -0.64132929 -0.66399157 185.17
12.589704 -1.1391066 -0.88395405 185.17
4.334425 -0.39217538 -1.9376934 185.17
13.277275 -1.2013175 -0.62170243 185.17
4.5986061 -0.4160783 -1.9286565 185.17
4.8148217 -0.43564129 -1.8878055 185.17
5.2614594 -0.47605273 -1.9228373 185.17
5.6441593 -0.51067913 -1.9149399 185.17
68.268631 -6.1768928 3.1966479 185.17
5.6872153 -0.51457477 -1.7818867 185.17
5.5871005 -0.50551647 -1.6086196 185.17
5.6304884 -0.50944221 -1.4800014 185.17
5.2970986 -0.47927734 -1.260237 185.17
5.4514456 -0.49324253 -1.1634738 185.17
5.5473394 -0.50191891 -1.0494421 185.17
5.7514868 -0.53759938 -0.94905353 185.34
6.1840057 -0.57802755 -0.87289369 185.34
6.5308337 -0.61044604 -0.76705921 185.34
12.586268 -1.176456 -0.88395405 185.34
4.3296037 -0.40469405 -1.9360664 185.34
13.243815 -1.2379177 -0.62030488 185.34
4.5936766 -0.42937729 -1.9271147 185.34
4.8153629 -0.4500986 -1.888533 185.34
5.2693801 -0.49253622 -1.9262575 185.34
5.4558525 -0.50996608 -1.8515567 185.34
5.4518499 -0.50959194 -1.7086096 185.34
5.4247851 -0.50706214 -1.5623125 185.34
5.3939309 -0.50417817 -1.4182081 185.34
5.379837 -0.50286078 -1.1485041 185.34
5.4597225 -0.51032782 -1.0331486 185.34
5.6711941 -0.54807192 -0.93608385 185.52
6.38059 -0.61662894 -0.74963659 185.52
6.7629862 -0.65358418 -0.63389456 185.52
12.588469 -1.2165667 -0.88437259 185.52
4.3319483 -0.41864538 -1.9376934 185.52
13.194123 -1.2750981 -0.6181621 185.52
4.5996528 -0.44451669 -1.9301981 185.52
4.8102164 -0.46486586 -1.887078 185.52
5.2846427 -0.51071507 -1.9324138 185.52
75.241089 -7.2714009 1.7550145 185.52
5.3127761 -0.51343393 -1.8035392 185.52
5.3514032 -0.51716691 -1.6776305 185.52
5.2605085 -0.50838268 -1.5154542 185.52
5.1227045 -0.49506512 -1.3472977 185.52
5.1991544 -0.50245339 -1.2376422 185.52
5.3256555 -0.5146786 -1.137277 185.52
5.3778839 -0.51972604 -1.0179663 185.52
5.5969787 -0.55667967 -0.92408693 185.67999
6.2543106 -0.62205833 -0.73500162 185.67999
6.6501665 -0.66143048 -0.62349069 185.67999
12.590978 -1.252308 -0.88479114 185.67999
4.3289442 -0.43055999 -1.9368799 185.67999
13.208404 -1.3137176 -0.61900055 185.67999
4.5983934 -0.45735958 -1.9301981 185.67999
4.8088994 -0.47829667 -1.887078 185.67999
5.2682347 -0.52398247 -1.9269415 185.67999
5.1472869 -0.511953 -1.7478387 185.67999
5.1143584 -0.5086779 -1.6037576 185.67999
5.0601077 -0.50328201 -1.4581217 185.67999
5.0539165 -0.50266623 -1.3295701 185.67999
5.1609364 -0.51331055 -1.2288809 185.67999
5.2482767 -0.52199745 -1.1210599 185.67999
5.3040481 -0.5275445 -1.004265 185.67999
5.5303164 -0.56857622 -0.913387 185.87
6.1415548 -0.63141805 -0.72199273 185.87
12.590725 -1.2944623 -0.88507015 185.87
4.3274927 -0.44491291 -1.9368799 185.87
13.337128 -1.3712006 -0.62524277 185.87
4.5968513 -0.47260591 -1.9301981 185.87
4.8072867 -0.49424094 -1.887078 185.87
5.2608595 -0.54087311 -1.9248893 185.87
5.0795922 -0.52223688 -1.7254306 185.87
5.0613651 -0.52036297 -1.5876724 185.87
5.0445228 -0.5186314 -1.3275441 185.87
5.130167 -0.52743649 -1.2219641 185.87
5.1803513 -0.53259599 -1.1069218 185.87
5.2533917 -0.54010528 -0.99500734 185.87
5.481503 -0.57999855 -0.9056052 186.03999
5.9204421 -0.62644273 -0.83670866 186.03999
6.1416297 -0.64984661 -0.72222507 186.03999
12.586829 -1.3318141 -0.88507015 186.03999
4.3261538 -0.45775089 -1.9368799 186.03999
4.5972643 -0.48643711 -1.930969 186.03999
4.818768 -0.50987446 -1.8921703 186.03999
68.064049 -7.2018657 0 186.03999
5.2648382 -0.55707324 -1.9269415 186.03999
68.115303 -7.2072887 1.5902643 186.03999
5.0572939 -0.53511292 -1.718388 186.03999
5.0275226 -0.53196281 -1.5775447 186.03999
4.9975781 -0.52879441 -1.4410321 186.03999
5.03719 -0.53298569 -1.3260245 186.03999
5.0879378 -0.53835541 -1.2122806 186.03999
5.1437306 -0.54425883 -1.099437 186.03999
5.2068124 -0.55093348 -0.98649037 186.03999
5.4189372 -0.58964193 -0.89555371 186.21001
5.8831167 -0.64014995 -0.83169848 186.21001
6.0152617 -0.6545288 -0.70759004 186.21001
12.596706 -1.3706647 -0.88604671 186.21001
4.3247762 -0.47058478 -1.9368799 186.21001
12.796479 -1.3924023 -0.60027403 186.21001
4.5921311 -0.49967605 -1.9294273 186.21001
49.732967 -5.4115119 -1.1614681 186.21001
4.8190861 -0.52437127 -1.8928978 186.21001
5.2556887 -0.57187867 -1.9242053 186.21001
5.0877056 -0.55360019 -1.729272 186.21001
4.986064 -0.54254043 -1.5650339 186.21001
4.9768748 -0.5415405 -1.4355193 186.21001
5.0105815 -0.54520816 -1.31944 186.21001
5.0553632 -0.55008096 -1.2049026 186.21001
5.0973625 -0.5546509 -1.0898731 186.21001
5.1699848 -0.56255305 -0.9798249 186.21001
5.3681312 -0.60023504 -0.88744771 186.38
6.054399 -0.67696977 -0.85619295 186.38
5.9876289 -0.66950393 -0.70457011 186.38
6.1389184 -0.68642026 -0.57630157 186.38
4.3288083 -0.48402366 -1.9393203 186.38
12.74067 -1.424592 -0.59785169 186.38
4.5851264 -0.51268375 -1.9271147 186.38
4.8119545 -0.53804642 -1.8907154 186.38
5.2539687 -0.58747005 -1.9242053 186.38
5.0634446 -0.56616664 -1.7215892 186.38
60.564342 -6.7719736 2.8419616 186.38
4.9388952 -0.55224025 -1.550736 186.38
4.965693 -0.55523664 -1.432763 186.38
4.9897137 -0.55792248 -1.314375 186.38
5.0285659 -0.56226671 -1.1989082 186.38
5.0645876 -0.56629443 -1.0832199 186.38
5.1350875 -0.57417738 -0.9735297 186.38
5.3231921 -0.61120725 -0.88031441 186.55
5.9382524 -0.68182826 -0.69899487 186.55
6.1150928 -0.70213306 -0.57425797 186.55
6.5805893 -0.75558126 -0.46318299 186.55
4.3237228 -0.49644852 -1.9376934 186.55
12.724478 -1.4610206 -0.59729272 186.55
4.5725846 -0.52502275 -1.9224896 186.55
4.8140383 -0.55274642 -1.8921703 186.55
5.2391329 -0.60155559 -1.919417 186.55
5.0673895 -0.5818361 -1.7235099 186.55
4.9467187 -0.56798071 -1.5537146 186.55
4.950654 -0.56843251 -1.4289041 186.55
4.9649701 -0.57007635 -1.308297 186.55
4.9940076 -0.57341039 -1.1910691 186.55
5.0356755 -0.57819468 -1.0773984 186.55
5.1021199 -0.58582383 -0.96760488 186.55
5.2762752 -0.62168717 -0.87285686 186.72
5.4444609 -0.64150399 -0.77046227 186.72
5.9381762 -0.69967687 -0.69922721 186.72
6.0378313 -0.71141893 -0.56719816 186.72
6.4832106 -0.76389658 -0.45648637 186.72
4.3222308 -0.50927508 -1.9376934 186.72
12.72604 -1.4994698 -0.59757221 186.72
4.5710068 -0.53858751 -1.9224896 186.72
4.8142276 -0.56724548 -1.8928978 186.72
5.2410579 -0.61753762 -1.9207851 186.72
60.296528 -7.1045527 1.4095916 186.72
5.0581141 -0.5959819 -1.7209489 186.72
4.9222584 -0.57997447 -1.5465657 186.72
4.9298525 -0.5808692 -1.4233913 186.72
4.9421201 -0.58231467 -1.3027254 186.72
4.971024 -0.58572036 -1.1859969 186.72
5.0106235 -0.59038621 -1.0724086 186.72
5.0827918 -0.59888959 -0.96427208 186.72
5.2273846 -0.63165736 -0.86507505 186.89
5.9242411 -0.71586287 -0.69783342 186.89
5.9467301 -0.71858031 -0.55883789 186.89
6.4195132 -0.77570963 -0.45216146 186.89
4.3261423 -0.52275467 -1.9401338 186.89
4.5822134 -0.55369735 -1.9278857 186.89
4.8217711 -0.58264452 -1.8965352 186.89
5.2112155 -0.62970352 -1.9105245 186.89
60.549114 -7.3165259 1.4159977 186.89
60.684139 -7.3328414 2.850533 186.89
4.9148297 -0.59388942 -1.5447785 186.89
4.9109292 -0.59341812 -1.4184299 186.89
4.9192414 -0.59442252 -1.2971539 186.89
4.9634681 -0.59976667 -1.1846135 186.89
4.9816594 -0.60196483 -1.066587 186.89
5.0575781 -0.61113858 -0.95982844 186.89
5.1920795 -0.64394712 -0.85956299 187.07001
5.3460979 -0.66304922 -0.75710166 187.07001
5.8614426 -0.72696477 -0.55103499 187.07001
6.3616056 -0.78899747 -0.44825509 187.07001
4.3190393 -0.53566837 -1.9376934 187.07001
12.72259 -1.5779179 -0.59785169 187.07001
4.582283 -0.56831717 -1.9286565 187.07001
4.8143702 -0.59710175 -1.8943528 187.07001
60.661228 -7.5235028 0 187.07001
5.1719093 -0.64144552 -1.8968437 187.07001
4.8996768 -0.60768193 -1.5406082 187.07001
4.8937778 -0.60695028 -1.4140196 187.07001
4.9000692 -0.60773057 -1.2925954 187.07001
4.9461088 -0.61344063 -1.1809245 187.07001
4.9642124 -0.61568594 -1.0632604 187.07001
5.0283265 -0.62363768 -0.9546442 187.07001
5.1567488 -0.6560213 -0.85405087 187.25
5.300765 -0.67434251 -0.75097805 187.25
5.4703336 -0.69591433 -0.64486867 187.25
5.7722106 -0.73431796 -0.54286045 187.25
6.3155537 -0.80343992 -0.44518581 187.25
4.3227725 -0.5499261 -1.9401338 187.25
12.723516 -1.6186357 -0.59813118 187.25
4.5768132 -0.58224422 -1.9271147 187.25
4.8106227 -0.61198848 -1.8936253 187.25
5.227664 -0.66504288 -1.918049 187.25
4.9471264 -0.629354 -1.6850958 187.25
4.8901677 -0.62210792 -1.5382252 187.25
53.210171 -6.7691889 3.7508056 187.25
4.8746824 -0.62013793 -1.4090582 187.25
4.8866196 -0.62165654 -1.2895564 187.25
4.9306431 -0.62725705 -1.1776967 187.25
4.948669 -0.62955022 -1.0603496 187.25
5.0068455 -0.63695115 -0.95094115 187.25
5.1136823 -0.66596657 -0.84724182 187.42
5.2574978 -0.68469602 -0.7451328 187.42
5.6929941 -0.74141169 -0.53561491 187.42
6.261703 -0.81547594 -0.44155848 187.42
4.3174982 -0.56227767 -1.9385068 187.42
12.718657 -1.6563799 -0.59813118 187.42
4.5768957 -0.59605962 -1.9278857 187.42
4.8106332 -0.62649977 -1.8943528 187.42
5.255486 -0.684434 -1.9289936 187.42
4.9302063 -0.64207208 -1.679974 187.42
4.8712616 -0.63439554 -1.5328634 187.42
4.8632889 -0.63335723 -1.4063017 187.42
4.8809166 -0.63565296 -1.2885433 187.42
4.9152517 -0.6401245 -1.1744689 187.42
4.9312601 -0.64220929 -1.057023 187.42
4.9912906 -0.65002722 -0.94834906 187.42
5.1273336 -0.68322158 -0.84983575 187.59
5.21029 -0.69427556 -0.73873085 187.59
5.6493173 -0.75277632 -0.53171343 187.59
6.2058597 -0.82693607 -0.43779162 187.59
4.3194332 -0.57556814 -1.9401338 187.59
12.729529 -1.6962206 -0.59887654 187.59
4.5787654 -0.61012441 -1.9294273 187.59
4.8161397 -0.64175469 -1.8972627 187.59
5.2497063 -0.69952786 -1.9276255 187.59
4.9207668 -0.65569639 -1.677413 187.59
4.8561101 -0.64708084 -1.5286932 187.59
4.8537655 -0.64676839 -1.4040967 187.59
4.8694196 -0.64885432 -1.2860109 187.59
4.9075437 -0.65393436 -1.1730856 187.59
4.9254546 -0.65632099 -1.0561914 187.59
4.9757028 -0.66301662 -0.94575691 187.59
5.1251621 -0.69932616 -0.84983575 187.77
5.206121 -0.71037298 -0.73845249 187.77
5.3496356 -0.72995549 -0.63139522 187.77
5.609436 -0.76540518 -0.52818352 187.77
6.2150917 -0.84804666 -0.4386287 187.77
4.3194137 -0.58938217 -1.9409473 187.77
4.5768261 -0.624506 -1.9294273 187.77
4.8140998 -0.65688187 -1.8972627 187.77
5.2307239 -0.71373004 -1.9214692 187.77
4.909296 -0.66987133 -1.6742119 187.77
51.969433 -7.091207 2.4460025 187.77
4.8464866 -0.66130108 -1.5263102 187.77
53.000263 -7.2318635 3.7404816 187.77
4.8402805 -0.66045421 -1.400789 187.77
52.830906 -7.2087545 4.9745488 187.77
4.8596892 -0.66310251 -1.2839849 187.77
4.8938956 -0.66776997 -1.1703188 187.77
4.9136767 -0.67046911 -1.0541123 187.77
4.9619107 -0.67705065 -0.94353509 187.77
5.1367469 -0.71643806 -0.85210544 187.94
5.2020288 -0.72554314 -0.73817414 187.94
5.3199024 -0.74198335 -0.62814295 187.94
5.5696673 -0.77681881 -0.52465367 187.94
6.2085962 -0.86593223 -0.43834969 187.94
4.3140268 -0.60169077 -1.9393203 187.94
12.738717 -1.7767085 -0.59980822 187.94
4.5731254 -0.63782799 -1.9286565 187.94
4.8158197 -0.67167735 -1.8987176 187.94
5.219276 -0.72794867 -1.918049 187.94
52.303497 -7.2949314 1.226087 187.94
4.8922739 -0.68234068 -1.66909 187.94
51.914528 -7.2406802 2.4444187 187.94
4.8350487 -0.67435932 -1.5233314 187.94
52.431221 -7.3127451 3.7018366 187.94
4.8325872 -0.67401594 -1.3991352 187.94
4.8519516 -0.67671674 -1.2824653 187.94
4.8822556 -0.68094331 -1.1680132 187.94
4.9039154 -0.68396437 -1.052449 187.94
4.9462543 -0.68986946 -0.94094294 187.94
5.1210494 -0.72883326 -0.84983575 188.10001
5.2117472 -0.74174142 -0.7398442 188.10001
5.2804432 -0.75151837 -0.62372923 188.10001
5.5418472 -0.78872162 -0.52223843 188.10001
6.2022033 -0.88270426 -0.43807065 188.10001
4.3123298 -0.61373544 -1.9393203 188.10001
4.5713263 -0.65059608 -1.9286565 188.10001
4.8139253 -0.68512303 -1.8987176 188.10001
5.2097802 -0.74146158 -1.9153128 188.10001
46.423561 -6.6070509 1.0886791 188.10001
4.8865976 -0.69546586 -1.6678095 188.10001
52.076069 -7.4115224 2.4529901 188.10001
4.8255863 -0.6867826 -1.5209484 188.10001
4.8230729 -0.68642491 -1.3969301 188.10001
4.8462119 -0.68971807 -1.2814523 188.10001
4.8745546 -0.69375187 -1.1666299 188.10001
4.8961763 -0.69682908 -1.0512015 188.10001
4.9345794 -0.70229465 -0.93909144 188.10001
5.191752 -0.75554395 -0.73733908 188.28
5.2682276 -0.76667327 -0.62256771 188.28
5.5156946 -0.80268663 -0.52000904 188.28
6.189528 -0.90074807 -0.4373731 188.28
4.3103805 -0.62728 -1.9393203 188.28
4.5692601 -0.66495413 -1.9286565 188.28
39.786072 -5.7899776 -0.93344533 188.28
4.8117495 -0.70024306 -1.8987176 188.28
5.183248 -0.75430638 -1.9064202 188.28
4.882514 -0.71054125 -1.6671693 188.28
46.216415 -6.725771 2.1779616 188.28
4.8120689 -0.70028955 -1.5173739 188.28
45.806458 -6.6661105 3.23684 188.28
4.8151851 -0.70074302 -1.3952763 188.28
4.8382773 -0.70410359 -1.2799329 188.28
4.8742771 -0.70934254 -1.167091 188.28
4.8900909 -0.71164393 -1.0503699 188.28
4.9206791 -0.71609533 -0.93686962 188.28
5.1418791 -0.76387221 -0.85405087 188.45
5.2012415 -0.77269107 -0.73900914 188.45
5.240386 -0.77850628 -0.61954784 188.45
5.4935913 -0.81612223 -0.51815122 188.45
6.184855 -0.91881561 -0.43723357 188.45
4.3085003 -0.64006633 -1.9393203 188.45
4.5782194 -0.68013555 -1.9332815 188.45
4.8133359 -0.71506417 -1.9001726 188.45
5.1847053 -0.77023441 -1.9077884 188.45
4.876636 -0.72446793 -1.6658888 188.45
4.8080816 -0.71428359 -1.5167782 188.45
4.8092813 -0.71446186 -1.3941737 188.45
45.327545 -6.7338133 4.2752585 188.45
4.8323393 -0.71788728 -1.2789198 188.45
4.8625259 -0.72237182 -1.1647854 188.45
4.886023 -0.7258625 -1.0499541 188.45
4.9165888 -0.7304033 -0.9364993 188.45
5.1200776 -0.77616715 -0.85080844 188.62
5.2361312 -0.79376006 -0.74429774 188.62
5.230197 -0.79286045 -0.61861861 188.62
5.4793329 -0.83062768 -0.5170365 188.62
6.1663208 -0.93477011 -0.43611747 188.62
4.3101954 -0.65339476 -1.9409473 188.62
4.5725322 -0.69316316 -1.9317398 188.62
13.656256 -2.0701907 -0.32068035 188.62
4.811193 -0.72934246 -1.9001726 188.62
53.0242 -8.0380898 0 188.62
5.2028365 -0.78871286 -1.9153128 188.62
46.56728 -7.0592666 1.0935069 188.62
4.865098 -0.73751408 -1.6626877 188.62
4.7983904 -0.72740167 -1.5143952 188.62
45.412998 -6.8842859 3.2118671 188.62
4.8052397 -0.72843999 -1.3936225 188.62
45.358559 -6.8760328 4.2800889 188.62
4.8244491 -0.73135197 -1.2774003 188.62
4.854589 -0.73592097 -1.1634021 188.62
4.876111 -0.73918355 -1.0482907 188.62
4.9085703 -0.74410415 -0.93538839 188.62
5.1078625 -0.79073888 -0.84918725 188.8
5.2375259 -0.81081188 -0.74485445 188.8
5.2355328 -0.81050324 -0.61954784 188.8
5.4570169 -0.84479088 -0.51517868 188.8
6.133779 -0.94955915 -0.43402478 188.8
4.3027043 -0.66609383 -1.9385068 188.8
4.5648608 -0.70667779 -1.9294273 188.8
13.572624 -2.1011531 -0.31886989 188.8
4.8070369 -0.74416864 -1.8994452 188.8
5.179903 -0.80189139 -1.9077884 188.8
47.115913 -7.2939291 1.1069227 188.8
4.8590121 -0.75221485 -1.6614071 188.8
46.088318 -7.1348486 2.1748869 188.8
4.8055153 -0.74393302 -1.5173739 188.8
45.955036 -7.1142154 3.2517679 188.8
4.7972279 -0.74265009 -1.3919686 188.8
45.295406 -7.0120993 4.2761874 188.8
4.8221278 -0.74650478 -1.2774003 188.8
45.339279 -7.0188913 5.3652329 188.8
4.852253 -0.75116843 -1.1634021 188.8
4.8698983 -0.75390005 -1.0474591 188.8
4.9139776 -0.76072389 -0.93686962 188.8
4.9924283 -0.78804356 -0.83038127 188.97
5.1314125 -0.80998194 -0.73010206 188.97
5.4623547 -0.86222035 -0.51592183 188.97
6.1210809 -0.96619886 -0.43332723 188.97
4.3025141 -0.67914218 -1.9393203 188.97
4.5663896 -0.72079432 -1.930969 188.97
13.366854 -2.1099279 -0.31418133 188.97
4.8048081 -0.7584281 -1.8994452 188.97
53.049183 -8.3736944 0 188.97
5.1682191 -0.81579179 -1.9043682 188.97
46.677338 -7.3679132 1.0971278 188.97
4.8548875 -0.76633304 -1.660767 188.97
4.786314 -0.7555089 -1.5120122 188.97
45.391777 -7.1649899 3.2134018 188.97
4.7950029 -0.75688046 -1.3919686 188.97
4.8275361 -0.7620157 -1.2794263 188.97
4.8519249 -0.76586545 -1.1638632 188.97
4.86764 -0.76834601 -1.0474591 188.97
4.903933 -0.77407485 -0.93538839 188.97
4.9879794 -0.80340999 -0.83005702 189.14999
5.0858254 -0.81916994 -0.72397846 189.14999
5.2187166 -0.84057468 -0.61815399 189.14999
5.467483 -0.88064325 -0.51666492 189.14999
6.1042271 -0.98320317 -0.43235064 189.14999
4.3093781 -0.69410825 -1.9433876 189.14999
4.5641026 -0.73513651 -1.930969 189.14999
13.269355 -2.1372848 -0.31204593 189.14999
4.8115978 -0.77500039 -1.9030825 189.14999
5.1656308 -0.83202416 -1.9043682 189.14999
54.326973 -8.7504034 1.2775686 189.14999
4.8524561 -0.78158134 -1.660767 189.14999
43.992573 -7.0858493 2.0779934 189.14999
4.7895718 -0.77145261 -1.5137994 189.14999
45.751171 -7.3691058 3.2404673 189.14999
4.7907038 -0.77163494 -1.3914174 189.14999
4.8251181 -0.77717805 -1.2794263 189.14999
4.8494949 -0.78110445 -1.1638632 189.14999
4.8632708 -0.78332323 -1.0470433 189.14999
4.8995366 -0.7891646 -0.93501806 189.14999
5.2733483 -0.86354393 -0.62489074 189.3
6.1016321 -0.99918061 -0.43235064 189.3
4.3021374 -0.70450199 -1.9409473 189.3
4.5603414 -0.74678451 -1.9301981 189.3
4.8058758 -0.78699231 -1.9016275 189.3
5.1096492 -0.83673716 -1.884531 189.3
46.336178 -7.5878401 1.0901182 189.3
4.8391738 -0.79244512 -1.6569256 189.3
44.41156 -7.2726717 2.0986764 189.3
4.7781148 -0.78244632 -1.5108207 189.3
45.611622 -7.4691892 3.231957 189.3
4.7867699 -0.7838636 -1.390866 189.3
45.081173 -7.3823252 4.2618818 189.3
4.8268857 -0.79043287 -1.2804394 189.3
45.195927 -7.4011173 5.3557086 189.3
4.8455129 -0.7934832 -1.1634021 189.3
4.8612032 -0.79605258 -1.0470433 189.3
4.8974538 -0.80198884 -0.93501806 189.3
5.428771 -0.90749073 -0.51350659 189.49001
6.0825424 -1.0167773 -0.43123451 189.49001
4.3051834 -0.71966827 -1.9433876 189.49001
4.56148 -0.76251161 -1.9317398 189.49001
4.8050771 -0.80323201 -1.9023551 189.49001
5.0920172 -0.85119784 -1.8790587 189.49001
44.50235 -7.4391546 1.0475496 189.49001
4.8346505 -0.80817562 -1.6562853 189.49001
44.627598 -7.4600916 2.1100428 189.49001
4.7754941 -0.79828686 -1.5108207 189.49001
45.991974 -7.6881652 3.2606966 189.49001
4.7803516 -0.79909885 -1.3897636 189.49001
44.875748 -7.5015731 4.2447901 189.49001
4.8280549 -0.80707306 -1.2814523 189.49001
45.535564 -7.6118703 5.3989167 189.49001
4.842855 -0.80954713 -1.1634021 189.49001
4.856607 -0.81184596 -1.0466274 189.49001
4.8947673 -0.81822497 -0.93501806 189.49001
5.2012362 -0.8853268 -0.61699253 189.66
5.4182019 -0.9222576 -0.5127635 189.66
6.0735984 -1.0338156 -0.43081599 189.66
4.299427 -0.73182559 -1.9417608 189.66
4.5591979 -0.7760424 -1.9317398 189.66
13.109857 -2.2314901 -0.30874997 189.66
4.8063455 -0.81811064 -1.90381 189.66
5.0950274 -0.86724848 -1.8811108 189.66
44.706757 -7.6097469 1.052888 189.66
4.8303638 -0.82219881 -1.655645 189.66
44.303932 -7.5411797 2.0957885 189.66
4.767458 -0.81149137 -1.5090334 189.66
45.94339 -7.8202395 3.258883 189.66
4.7817502 -0.81392413 -1.390866 189.66
44.751209 -7.6173129 4.2351289 189.66
4.8275461 -0.82171929 -1.2819588 189.66
45.589149 -7.759943 5.4079766 189.66
4.8404317 -0.82391256 -1.1634021 189.66
4.8580341 -0.82690877 -1.0474591 189.66
4.8981309 -0.8337338 -0.93612897 189.66
5.2025013 -0.90143359 -0.61745709 189.83
5.4095554 -0.93730968 -0.51220614 189.83
6.0606751 -1.0501287 -0.43011841 189.83
4.2918358 -0.74364322 -1.9393203 189.83
4.5641484 -0.79082668 -1.9348232 189.83
12.986941 -2.2502377 -0.30601111 189.83
4.8094039 -0.83332187 -1.9059924 189.83
5.1035423 -0.884287 -1.885215 189.83
44.646549 -7.7358751 1.052006 189.83
4.8279028 -0.83652717 -1.655645 189.83
45.468365 -7.8782701 2.151968 189.83
4.7650294 -0.82563311 -1.5090334 189.83
4.77742 -0.82778001 -1.3903148 189.83
44.975639 -7.7928953 4.2585378 189.83
4.8308063 -0.83703023 -1.2834784 189.83
45.937813 -7.9596109 5.4521136 189.83
4.8418012 -0.83893526 -1.1643243 189.83
46.007603 -7.9717031 6.5622902 189.83
4.8536315 -0.84098518 -1.0470433 189.83
4.8878894 -0.84692097 -0.9346478 189.83
4.850975 -0.85623074 -0.80930561 190.00999
5.2035561 -0.91846383 -0.61792171 190.00999
5.4085455 -0.95464581 -0.51239192 190.00999
6.0396633 -1.0660425 -0.42886281 190.00999
4.2912779 -0.75744033 -1.9401338 190.00999
4.5507374 -0.80323672 -1.9301981 190.00999
12.920737 -2.2805998 -0.30461848 190.00999
4.8049278 -0.84810311 -1.905265 190.00999
5.1044407 -0.90096921 -1.8865831 190.00999
52.982506 -9.3517799 1.2491121 190.00999
4.8215194 -0.8510316 -1.6543646 190.00999
45.624393 -8.0530224 2.1605394 190.00999
4.7718129 -0.8422581 -1.5120122 190.00999
45.242462 -7.9856091 3.2125647 190.00999
4.7766891 -0.84311879 -1.390866 190.00999
44.748947 -7.8985 4.2394023 190.00999
4.8262472 -0.85186619 -1.2829719 190.00999
46.057343 -8.1294403 5.4693041 190.00999
4.8353086 -0.85346556 -1.1634021 190.00999
4.8567452 -0.85724926 -1.0482907 190.00999
4.8890758 -0.86295581 -0.93538839 190.00999
5.5285506 -0.99175507 -0.78938985 190.17
5.1990156 -0.93264055 -0.61768943 190.17
5.401938 -0.96904236 -0.51202035 190.17
6.0288076 -1.0814952 -0.42830476 190.17
4.2891459 -0.76942086 -1.9401338 190.17
4.550293 -0.81626749 -1.930969 190.17
4.808042 -0.86250454 -1.9074473 190.17
5.0982051 -0.91455632 -1.885215 190.17
4.8191237 -0.86449248 -1.6543646 190.17
46.57708 -8.3553648 2.2067502 190.17
4.7675629 -0.85524309 -1.5114164 190.17
45.253368 -8.1179075 3.2149363 190.17
4.7705312 -0.85577559 -1.3897636 190.17
44.940361 -8.0617571 4.2596526 190.17
4.8257542 -0.86568189 -1.2834784 190.17
4.8348217 -0.86730856 -1.1638632 190.17
4.8562579 -0.87115389 -1.0487065 190.17
4.8885813 -0.87695229 -0.93575871 190.17
5.2138138 -0.95127112 -0.61978012 190.34
5.3912029 -0.9836362 -0.5112772 190.34
6.0098705 -1.0965134 -0.42718863 190.34
4.2886415 -0.78247154 -1.9409473 190.34
4.5387735 -0.82810867 -1.9271147 190.34
12.875916 -2.3492377 -0.30387571 190.34
4.8072944 -0.87710083 -1.9081749 190.34
5.095469 -0.92967892 -1.885215 190.34
45.773823 -8.3515291 1.0802768 190.34
4.8146734 -0.87844723 -1.6537243 190.34
43.849682 -8.0004654 2.0786457 190.34
4.7612481 -0.86869961 -1.5102249 190.34
45.725655 -8.342741 3.2502332 190.34
4.7736449 -0.87096149 -1.3914174 190.34
45.752743 -8.347683 4.3389821 190.34
4.8231645 -0.87999636 -1.2834784 190.34
45.902275 -8.3749657 5.4565277 190.34
4.8341417 -0.88199919 -1.1643243 190.34
4.849803 -0.88485658 -1.0478749 190.34
4.8840241 -0.89110041 -0.93538839 190.34
5.52841 -1.0256282 -0.79022485 190.50999
5.1992493 -0.96456254 -0.61838633 190.50999
5.3863029 -0.99926466 -0.51109141 190.50999
6.0301304 -1.1187073 -0.42886281 190.50999
4.2898941 -0.79585928 -1.9425743 190.50999
4.5399256 -0.84224504 -1.9286565 190.50999
12.864957 -2.3867013 -0.30378288 190.50999
4.8028388 -0.89102066 -1.9074473 190.50999
45.763134 -8.4899578 0 190.50999
5.0852966 -0.94342214 -1.8824788 190.50999
44.55946 -8.2666521 1.0521917 190.50999
4.8157721 -0.89341998 -1.6550049 190.50999
47.768124 -8.8619223 2.2656314 190.50999
4.7661581 -0.88421565 -1.5126079 190.50999
45.818398 -8.5002098 3.2586038 190.50999
4.7691498 -0.88477063 -1.390866 190.50999
46.254459 -8.5811081 4.388958 190.50999
4.8186297 -0.89395016 -1.2829719 190.50999
4.8334169 -0.89669347 -1.1647854 190.50999
4.8490796 -0.89959919 -1.0482907 190.50999
4.8813586 -0.90558761 -0.93538839 190.50999
5.5621376 -1.0499715 -0.79551345 190.69
5.1961932 -0.9808917 -0.61838633 190.69
5.3831372 -1.0161812 -0.51109141 190.69
6.0010996 -1.1328348 -0.42704913 190.69
4.2819862 -0.80831569 -1.9401338 190.69
11.951699 -2.2561367 -0.56719983 190.69
4.551765 -0.85924208 -1.9348232 190.69
12.867219 -2.4289606 -0.30401498 190.69
4.8055081 -0.90714157 -1.9096298 190.69
45.111275 -8.5157099 0 190.69
5.080461 -0.95904475 -1.8817948 190.69
44.816196 -8.4600077 1.0588764 190.69
4.8166652 -0.9092477 -1.6562853 190.69
44.404644 -8.3823185 2.1073411 190.69
4.7708611 -0.90060121 -1.5149909 190.69
45.640511 -8.6156139 3.2478614 190.69
4.7682357 -0.9001056 -1.3914174 190.69
44.518993 -8.403904 4.226769 190.69
4.8196001 -0.90980166 -1.2839849 190.69
4.8305759 -0.91187364 -1.1647854 190.69
4.8481517 -0.91519141 -1.0487065 190.69
4.8746271 -0.9201892 -0.9346478 190.69
5.1934338 -0.99539834 -0.61838633 190.85001
5.3744111 -1.0300853 -0.51053405 190.85001
6.0175076 -1.1533442 -0.42844427 190.85001
4.281507 -0.82061404 -1.9409473 190.85001
11.835474 -2.2684433 -0.56198245 190.85001
4.5330353 -0.86882317 -1.9278857 190.85001
12.864313 -2.4656358 -0.30410782 190.85001
4.8011265 -0.92020679 -1.9089023 190.85001
5.0463848 -0.96721417 -1.8701662 190.85001
44.796326 -8.5858774 1.0589693 190.85001
4.8085246 -0.92162478 -1.6543646 190.85001
43.78458 -8.3919621 2.0790184 190.85001
4.7645774 -0.91320163 -1.5137994 190.85001
4.7638154 -0.9130556 -1.390866 190.85001
44.411255 -8.5120735 4.21878 190.85001
4.8189406 -0.92362118 -1.2844913 190.85001
45.558628 -8.7319841 5.4247022 190.85001
4.8318334 -0.92609227 -1.1657076 190.85001
4.8455772 -0.92872643 -1.0487065 190.85001
4.8797598 -0.935278 -0.93612897 190.85001
5.5420127 -1.0812739 -0.79356503 191.03999
5.1920543 -1.0129954 -0.61861861 191.03999
5.3670568 -1.0471392 -0.51016253 191.03999
6.0097332 -1.1725285 -0.42816523 191.03999
4.2859349 -0.83620703 -1.9442011 191.03999
4.5446196 -0.88667762 -1.9340523 191.03999
12.865879 -2.5101962 -0.30433995 191.03999
4.7998772 -0.93647963 -1.9096298 191.03999
5.0173249 -0.97890478 -1.8605896 191.03999
45.258221 -8.830101 1.0705746 191.03999
4.8073015 -0.9379282 -1.6550049 191.03999
37.981789 -7.4104338 1.804642 191.03999
4.7596493 -0.92863095 -1.5132037 191.03999
4.7626481 -0.92921609 -1.3914174 191.03999
44.390602 -8.6608248 4.2195234 191.03999
4.7987604 -0.93626177 -1.2799329 191.03999
45.521622 -8.8814926 5.4237728 191.03999
4.8268256 -0.94173747 -1.1652465 191.03999
4.8443909 -0.94516444 -1.0491223 191.03999
4.874702 -0.95107836 -0.93575871 191.03999
5.5560727 -1.1021476 -0.79607016 191.22
5.1732583 -1.0262095 -0.61676019 191.22
5.3637404 -1.0639951 -0.51016253 191.22
5.9903641 -1.1882972 -0.42704913 191.22
4.2814946 -0.84931201 -1.9433876 191.22
4.5454321 -0.90166879 -1.9355941 191.22
12.865774 -2.5521593 -0.30452561 191.22
4.8042212 -0.95300424 -1.9125397 191.22
68.422775 -13.572896 0 191.22
5.0363464 -0.99905056 -1.868798 191.22
4.80619 -0.95339483 -1.655645 191.22
44.299732 -8.7876539 2.1061299 191.22
4.7660718 -0.94543666 -1.5161824 191.22
4.7615914 -0.94454789 -1.3919686 191.22
46.273495 -9.1791859 4.4012198 191.22
4.8128757 -0.95472109 -1.2844913 191.22
46.035179 -9.1319113 5.4883528 191.22
4.8219347 -0.95651805 -1.1647854 191.22
4.8413978 -0.96037889 -1.0491223 191.22
4.8716903 -0.96638799 -0.93575871 191.22
5.1840043 -1.0433956 -0.61838633 191.38
5.3627005 -1.0793622 -0.51034832 191.38
5.9791989 -1.2034461 -0.42649108 191.38
4.2791061 -0.86126488 -1.9433876 191.38
4.5428963 -0.9143585 -1.9355941 191.38
12.866438 -2.5896554 -0.30471131 191.38
4.8051934 -0.96715158 -1.9139947 191.38
68.508125 -13.788777 0 191.38
5.0390644 -1.0142232 -1.8708502 191.38
44.485649 -8.953722 1.053538 191.38
4.8016515 -0.96643865 -1.6550049 191.38
37.852928 -7.6187401 1.8006358 191.38
4.763413 -0.95874232 -1.5161824 191.38
38.734726 -7.7962208 2.7629144 191.38
4.7627044 -0.95859975 -1.3930712 191.38
45.941185 -9.2466803 4.3720517 191.38
4.8120875 -0.96853918 -1.2849978 191.38
46.077656 -9.2741489 5.4964833 191.38
4.8211527 -0.97036368 -1.1652465 191.38
4.838697 -0.97389483 -1.0491223 191.38
4.8689728 -0.97998852 -0.93575871 191.38
5.1849627 -1.0586628 -0.61885095 191.53999
5.3577147 -1.0939351 -0.51016253 191.53999
5.985589 -1.2221341 -0.42718863 191.53999
4.2802649 -0.87394208 -1.9450146 191.53999
4.5367088 -0.92630267 -1.9340523 191.53999
12.87091 -2.6279752 -0.30498984 191.53999
4.8042994 -0.98093915 -1.9147222 191.53999
5.0270057 -1.0264112 -1.86743 191.53999
44.527081 -9.0915136 1.0551163 191.53999
4.8007903 -0.98022264 -1.655645 191.53999
38.765205 -7.9150577 1.8450763 191.53999
4.7588468 -0.97165859 -1.5155867 191.53999
43.769863 -8.9369059 3.1238344 191.53999
4.7600093 -0.97189593 -1.3930712 191.53999
46.120049 -9.4167652 4.3915591 191.53999
4.8093643 -0.98197329 -1.2849978 191.53999
46.176144 -9.4282188 5.5113506 191.53999
4.8203306 -0.9842124 -1.1657076 191.53999
4.8397918 -0.98818594 -1.0499541 191.53999
4.8681426 -0.99397463 -0.93612897 191.53999
5.1950388 -1.0786779 -0.62047702 191.73
5.3501577 -1.1108862 -0.50979096 191.73
5.963922 -1.2383258 -0.42593303 191.73
4.2755542 -0.88775969 -1.9442011 191.73
4.5318055 -0.94096667 -1.9332815 191.73
12.869955 -2.6722682 -0.30517551 191.73
4.7991962 -0.9964866 -1.9139947 191.73
5.0051727 -1.0392549 -1.8605896 191.73
38.329914 -7.9586763 0.90888828 191.73
4.7993684 -0.99652243 -1.6562853 191.73
37.557259 -7.7982445 1.7888036 191.73
4.7593369 -0.98821044 -1.5167782 191.73
46.777622 -9.7127256 3.3407772 191.73
4.7586422 -0.9880662 -1.3936225 191.73
46.111965 -9.5745115 4.3937883 191.73
4.8079758 -0.99830967 -1.2855043 191.73
4.8227568 -1.0013787 -1.167091 191.73
4.8384037 -1.0046276 -1.0503699 191.73
4.866744 -1.010512 -0.9364993 191.73
5.193759 -1.0944967 -0.62070936 191.89999
5.3409925 -1.1255237 -0.50923359 191.89999
5.9621739 -1.256427 -0.42607254 191.89999
4.2729015 -0.90044159 -1.9442011 191.89999
4.5307994 -0.95478916 -1.9340523 191.89999
12.869796 -2.7120914 -0.30536121 191.89999
4.8016872 -1.0118742 -1.9161772 191.89999
5.0039062 -1.0544884 -1.8612736 191.89999
44.985592 -9.4799509 1.0673716 191.89999
4.7982445 -1.0111487 -1.6569256 191.89999
37.625835 -7.9290071 1.7931824 191.89999
4.7489114 -1.0007526 -1.5143952 191.89999
37.381699 -7.8775592 2.6713939 191.89999
4.7575712 -1.0025774 -1.3941737 191.89999
4.8049927 -1.0125707 -1.2855043 191.89999
45.981873 -9.6899004 5.4953218 191.89999
4.8216686 -1.016085 -1.1675521 191.89999
4.8354015 -1.018979 -1.0503699 191.89999
4.8637242 -1.0249475 -0.9364993 191.89999
5.1867971 -1.108166 -0.62024474 192.06
5.339776 -1.1408502 -0.50941938 192.06
5.9566908 -1.2726549 -0.42593303 192.06
4.2757306 -0.91351545 -1.9466416 192.06
4.5353346 -0.96898019 -1.9371357 192.06
12.868038 -2.7492733 -0.30550048 192.06
4.8006649 -1.0256684 -1.9169046 192.06
100.46659 -21.464819 0 192.06
4.9899149 -1.0661018 -1.8571694 192.06
44.651955 -9.5399494 1.0600834 192.06
4.799108 -1.0253358 -1.658206 192.06
46.494995 -9.9337168 2.2171848 192.06
4.7479653 -1.0144089 -1.5149909 192.06
36.975189 -7.8997974 2.6439099 192.06
4.7566328 -1.0162609 -1.394725 192.06
4.7813334 -1.0215381 -1.2799329 192.06
4.822619 -1.0303589 -1.1684743 192.06
4.8344502 -1.0328867 -1.0507857 192.06
4.8589211 -1.0381149 -0.93612897 192.06
5.1811523 -1.1249385 -0.6200124 192.25
5.3398557 -1.1593963 -0.50979096 192.25
5.9621863 -1.2945175 -0.42663059 192.25
4.2744632 -0.92807692 -1.947455 192.25
4.5320964 -0.98401457 -1.9371357 192.25
12.86862 -2.7940514 -0.30573258 192.25
4.7990575 -1.0419775 -1.9176321 192.25
4.973496 -1.0798517 -1.8523811 192.25
44.479393 -9.657423 1.056741 192.25
4.7993851 -1.0420486 -1.6594864 192.25
46.368084 -10.067498 2.2127128 192.25
4.7576351 -1.0329839 -1.5191612 192.25
4.7851753 -1.0389634 -1.4040967 192.25
4.7987175 -1.0419037 -1.2855043 192.25
4.8191757 -1.0463456 -1.1684743 192.25
4.8348222 -1.0497428 -1.0516174 192.25
4.8631349 -1.0558901 -0.93761021 192.25
5.1874919 -1.1424425 -0.62117392 192.42
5.3286133 -1.1735216 -0.50904781 192.42
5.9368863 -1.3074819 -0.42509595 192.42
4.2663379 -0.93957657 -1.9450146 192.42
4.5291567 -0.99745721 -1.9371357 192.42
12.873942 -2.8352313 -0.30605754 192.42
4.7941256 -1.0558113 -1.9169046 192.42
4.9647636 -1.0933911 -1.8503289 192.42
44.526695 -9.8061247 1.0585515 192.42
4.7925711 -1.055469 -1.658206 192.42
37.228447 -8.1988287 1.7777168 192.42
4.7489557 -1.0458636 -1.5173739 192.42
36.985226 -8.1452646 2.6482348 192.42
4.797092 -1.0564647 -1.4085069 192.42
4.7974949 -1.0565534 -1.2860109 192.42
4.8179502 -1.0610583 -1.1689354 192.42
4.831686 -1.0640833 -1.0516174 192.42
4.8580608 -1.0698919 -0.93723989 192.42
5.1840792 -1.157829 -0.62117392 192.59
5.3192773 -1.1880246 -0.50849044 192.59
5.9407697 -1.3268307 -0.42565399 192.59
4.2635312 -0.95223087 -1.9450146 192.59
4.5207739 -1.0096843 -1.9348232 192.59
12.873279 -2.8751597 -0.30624321 192.59
4.7982445 -1.0716555 -1.9198145 192.59
96.871323 -21.635555 0 192.59
4.9835081 -1.1130328 -1.8585374 192.59
44.550091 -9.9499617 1.0598049 192.59
4.7949662 -1.0709232 -1.6601267 192.59
59.718189 -13.337653 2.8535144 192.59
4.7551484 -1.0620302 -1.5203527 192.59
81.426125 -18.185974 5.8341522 192.59
4.7958126 -1.0711123 -1.4090582 192.59
4.7924504 -1.0703614 -1.2855043 192.59
4.8185797 -1.0761971 -1.1698577 192.59
4.8304172 -1.078841 -1.0520332 192.59
4.8644562 -1.0864433 -0.93909144 192.59
5.1963258 -1.1758084 -0.62303233 192.75
5.3256502 -1.2050716 -0.50941938 192.75
5.9273114 -1.3412137 -0.42495644 192.75
4.2662015 -0.96534288 -1.947455 192.75
4.5197368 -1.022712 -1.9355941 192.75
12.878851 -2.9141865 -0.30656818 192.75
4.7970505 -1.0854616 -1.920542 192.75
61.327576 -13.877013 0 192.75
5.002377 -1.1319224 -1.8667459 192.75
38.603401 -8.7350578 0.91891533 192.75
4.7956529 -1.0851455 -1.6614071 192.75
37.065639 -8.3870983 1.7722199 192.75
4.7447157 -1.0736195 -1.5179697 192.75
4.7913299 -1.0841672 -1.2860109 192.75
4.8155556 -1.089649 -1.1698577 192.75
4.8292937 -1.0927576 -1.052449 192.75
4.861403 -1.1000233 -0.93909144 192.75
5.1982059 -1.1943681 -0.62372923 192.94
5.3177433 -1.2218336 -0.50904781 192.94
5.942276 -1.3653296 -0.42635158 192.94
4.2611961 -0.97907567 -1.9466416 192.94
4.5163202 -1.0376943 -1.9355941 192.94
12.874962 -2.9582214 -0.30670744 192.94
4.7916088 -1.1009461 -1.9198145 192.94
61.109688 -14.040895 0 192.94
5.0095859 -1.1510297 -1.8708502 192.94
38.051971 -8.7430286 0.90647435 192.94
4.7938747 -1.1014668 -1.6620474 192.94
38.494053 -8.8446026 1.8419087 192.94
4.7522936 -1.0919129 -1.5215442 192.94
4.7858224 -1.0996166 -1.2855043 192.94
38.004017 -8.7320099 4.5600762 192.94
4.8138123 -1.1060477 -1.1703188 192.94
4.8294563 -1.1096423 -1.0532806 192.94
4.8577285 -1.1161382 -0.93909144 192.94
5.19872 -1.2097801 -0.62419385 193.10001
5.3143106 -1.2366788 -0.50904781 193.10001
5.9403834 -1.3823705 -0.42649108 193.10001
4.2637839 -0.99221367 -1.949082 193.10001
10.797451 -2.5126455 -0.51698285 193.10001
4.5205946 -1.0519754 -1.9386774 193.10001
12.884178 -2.9982421 -0.30712524 193.10001
4.7885156 -1.1143225 -1.9198145 193.10001
5.0136738 -1.1667185 -1.8735863 193.10001
38.109203 -8.868289 0.90842408 193.10001
4.8000073 -1.1169966 -1.6652486 193.10001
4.7529449 -1.1060449 -1.5227357 193.10001
4.8048134 -1.1181151 -1.4145709 193.10001
37.215691 -8.6603622 3.564821 193.10001
4.7865019 -1.1138539 -1.2865174 193.10001
4.8144956 -1.1203682 -1.171241 193.10001
4.8282442 -1.1235677 -1.0536964 193.10001
4.8565068 -1.1301446 -0.93946171 193.10001
5.1987605 -1.227019 -0.62465847 193.28
5.3259039 -1.2570275 -0.51053405 193.28
5.9301858 -1.3996511 -0.42607254 193.28
4.2535329 -1.003925 -1.9458281 193.28
4.5100832 -1.0644764 -1.9355941 193.28
12.888317 -3.0419192 -0.30745018 193.28
4.7886176 -1.1302165 -1.9212694 193.28
38.058323 -8.9825802 0 193.28
5.0209584 -1.1850539 -1.8776906 193.28
36.85907 -8.6995306 0.87927133 193.28
4.8020067 -1.1333766 -1.6671693 193.28
4.7531629 -1.1218483 -1.5239272 193.28
36.86657 -8.7013016 2.6487927 193.28
4.8087616 -1.1349708 -1.4167761 193.28
37.261948 -8.7946186 3.5718806 193.28
4.782979 -1.1288856 -1.2865174 193.28
4.8147402 -1.136382 -1.1721632 193.28
4.8284988 -1.1396292 -1.0545281 193.28
4.8567586 -1.1462991 -0.94020236 193.28
5.19488 -1.2433453 -0.62465847 193.46001
5.3161187 -1.2723626 -0.50997674 193.46001
5.9393415 -1.4215251 -0.42704913 193.46001
4.2556887 -1.0185587 -1.9482685 193.46001
4.5121012 -1.0799286 -1.9379066 193.46001
12.890365 -3.0851865 -0.30772871 193.46001
4.7796078 -1.1439538 -1.9190871 193.46001
60.588783 -14.50135 0 193.46001
5.0300055 -1.203884 -1.8824788 193.46001
37.140739 -8.8892832 0.88665235 193.46001
4.7965798 -1.1480159 -1.6665291 193.46001
37.246422 -8.9145784 1.7860086 193.46001
4.7551856 -1.1381085 -1.5257144 193.46001
37.754887 -9.036274 2.714643 193.46001
