# .PCD v0.7 - Point Cloud Data file format
VERSION 0.7
FIELDS x y z intensity
SIZE 4 4 4 4
TYPE F F F F
COUNT 1 1 1 1
WIDTH 1241
HEIGHT 1
VIEWPOINT 0 0 0 1 0 0 0
POINTS 1241
DATA ascii
21.947962 20.139809 0 137.46001
2.9785788 2.7331924 -1.4713707 137.46001
3.6339617 3.3345826 -1.6665291 137.46001
3.6293283 3.3303308 -1.5370337 137.46001
3.6588862 3.3574536 -1.4239426 137.46001
3.6622944 3.3605812 -1.301206 137.46001
4.159771 3.8170738 -1.3377048 137.46001
4.227653 3.8793633 -1.21961 137.46001
6.1227026 5.6182919 -1.5656462 137.46001
6.6025438 6.0247259 -1.4684876 137.62
7.1614027 6.5346766 -1.3625046 137.62
7.9033184 7.2116642 -1.2511753 137.62
8.6847448 7.9247046 -1.0968679 137.62
10.394588 9.4849119 -0.98398483 137.62
2.8153803 2.568994 -1.6969053 137.62
2.9064252 2.6520712 -1.6434435 137.62
18.122585 16.536598 -0.56959289 137.62
2.8638349 2.6132081 -1.5138818 137.62
22.255272 20.307615 0 137.62
2.8876314 2.634922 -1.4228038 137.62
2.9084489 2.6539178 -1.3304062 137.62
3.6639872 3.3433354 -1.4222888 137.62
3.6545141 3.3346913 -1.2951279 137.62
4.0151558 3.6637716 -1.287904 137.62
4.9205551 4.4899359 -1.4158787 137.62
6.1296568 5.5932236 -1.5634243 137.62
6.6122503 5.9935203 -1.466218 137.81
7.1712933 6.5002513 -1.3602779 137.81
7.9095283 7.1694069 -1.2483877 137.81
8.6932716 7.8798132 -1.0946386 137.81
10.42155 9.4463701 -0.98356628 137.81
2.823884 2.5596437 -1.6969053 137.81
12.229701 11.085327 -0.76974452 137.81
2.8714485 2.6027575 -1.6187764 137.81
18.140287 16.442839 -0.56843233 137.81
2.9014719 2.6299715 -1.5291588 137.81
22.386211 20.291458 0 137.81
2.8504014 2.5836799 -1.4002304 137.81
2.9144261 2.6417134 -1.3291258 137.81
3.9183736 3.5517182 -1.6502261 137.81
3.7291827 3.3802307 -1.4432372 137.81
3.656951 3.3147578 -1.2920889 137.81
3.9984448 3.6242969 -1.2786816 137.81
4.9397659 4.4775352 -1.4171261 137.81
6.1306963 5.5570264 -1.5589806 137.81
6.6230979 5.9697466 -1.464921 137.97
7.1805906 6.4722443 -1.3586078 137.97
7.9427977 7.1592612 -1.2504784 137.97
8.8143463 7.9448338 -1.1070861 137.97
2.7916634 2.516273 -1.6733146 137.97
12.544049 11.306611 -0.78753942 137.97
2.8581433 2.576195 -1.6072137 137.97
18.293066 16.488503 -0.57177472 137.97
22.352169 20.147184 0 137.97
2.4667263 2.2233901 -1.2086992 137.97
2.9288287 2.6399074 -1.3323269 137.97
4.1627355 3.7520921 -1.6069658 137.97
3.6949365 3.3304405 -1.3022189 137.97
4.3656044 3.9349489 -1.3925779 137.97
6.1038532 5.5017238 -1.5482419 137.97
6.6363721 5.9461184 -1.4639482 138.14
7.1746869 6.4284425 -1.3538759 138.14
7.9566073 7.129035 -1.2493169 138.14
8.8601265 7.9385791 -1.1098728 138.14
10.255866 9.189146 -0.96291834 138.14
2.8154464 2.5226097 -1.6830763 138.14
12.189189 10.921383 -0.76322287 138.14
2.7530677 2.4667194 -1.5440043 138.14
20.511606 18.37818 -0.63941097 138.14
2.5155773 2.2539306 -1.3189176 138.14
23.393465 20.960295 0 138.14
2.4817107 2.2235863 -1.2128035 138.14
8.6311359 7.7334056 0.26905954 138.14
3.5378079 3.169838 -1.6050665 138.14
4.1165757 3.6884077 -1.5849148 138.14
3.650044 3.2704003 -1.2829719 138.14
4.3497214 3.8973041 -1.3838167 138.14
5.7318568 5.1356826 -1.6358492 138.14
6.1245418 5.487524 -1.5493528 138.14
6.6461754 5.917366 -1.4620028 138.32001
7.1726589 6.386116 -1.3497007 138.32001
7.9181356 7.0498452 -1.2397926 138.32001
2.8356388 2.5246871 -1.6903975 138.32001
2.753912 2.4519222 -1.5401502 138.32001
19.982359 17.791124 -0.6211673 138.32001
2.4976003 2.2237172 -1.3058231 138.32001
23.273973 20.721785 0 138.32001
2.4957023 2.2220275 -1.2162236 138.32001
3.1557558 2.8097005 -1.4277217 138.32001
3.6147382 3.2183516 -1.5102249 138.32001
3.2752326 2.9160755 -1.2574576 138.32001
3.5808227 3.1881552 -1.2551142 138.32001
3.8604875 3.4371521 -1.2247308 138.32001
4.4578128 3.9689758 -1.2686771 138.32001
6.1593661 5.4839392 -1.5537964 138.32001
6.662674 5.8987837 -1.4620028 138.48
7.1800842 6.3568711 -1.3477523 138.48
7.9467158 7.0356069 -1.2411864 138.48
11.145249 9.8674221 -1.0409061 138.48
2.7947984 2.4743686 -1.6619259 138.48
12.554443 11.115048 -0.7819494 138.48
2.8104916 2.4882624 -1.5679005 138.48
18.154669 16.073195 -0.5629546 138.48
2.4968259 2.2105594 -1.3021857 138.48
23.438068 20.750841 0 138.48
2.7692544 2.4517534 -1.3461913 138.48
8.6469336 7.6555433 0.26813111 138.48
2.9167445 2.5823331 -1.316321 138.48
2.9104049 2.5767205 -1.2129459 138.48
3.6331706 3.2166195 -1.2703093 138.48
3.6704473 3.2496223 -1.1615576 138.48
4.4805965 3.966886 -1.2720038 138.48
6.184957 5.4758377 -1.5563885 138.48
6.6742206 5.8737736 -1.4607059 138.64999
7.1885061 6.3263803 -1.3458039 138.64999
8.0108013 7.0500565 -1.2479231 138.64999
11.092103 9.7618141 -1.0332329 138.64999
2.7911551 2.4564087 -1.6554182 138.64999
2.7278123 2.4006627 -1.5177956 138.64999
18.163254 15.984914 -0.56174767 138.64999
2.5019753 2.2019105 -1.3014582 138.64999
23.582109 20.75388 0 138.64999
2.8809185 2.5354066 -1.3968103 138.64999
2.8134487 2.4760284 -1.2663828 138.64999
2.7689824 2.4368951 -1.150988 138.64999
3.7061763 3.2616901 -1.4156735 138.64999
3.6470559 3.2096603 -1.2718288 138.64999
3.6727684 3.2322888 -1.1592519 138.64999
5.7274117 5.0405164 -1.6217111 138.64999
6.1878982 5.4457765 -1.5530558 138.64999
6.6832614 5.8425164 -1.4584361 138.84
7.1751504 6.2725267 -1.339402 138.84
8.0341358 7.0234528 -1.2479231 138.84
8.9084759 7.7878022 -1.1039277 138.84
11.122911 9.7236652 -1.0330933 138.84
2.7841542 2.4339116 -1.64647 138.84
2.6107109 2.2822871 -1.4484195 138.84
18.189066 15.900907 -0.56091207 138.84
2.5527442 2.2316124 -1.32401 138.84
23.40687 20.462318 0 138.84
2.8129034 2.4590442 -1.3598721 138.84
2.7788486 2.4292734 -1.2471758 138.84
2.7597995 2.4126208 -1.143839 138.84
3.5013065 3.060847 -1.3335335 138.84
3.6795294 3.2166498 -1.2794263 138.84
3.7244918 3.2559559 -1.1721632 138.84
5.7529321 5.0292215 -1.6242062 138.84
6.2088823 5.4278135 -1.5537964 138.84
6.6886497 5.812305 -1.4558423 139.00999
7.1787806 6.2382193 -1.3366184 139.00999
8.0549393 6.9995842 -1.2479231 139.00999
11.068885 9.6186438 -1.0254202 139.00999
2.7320609 2.3741074 -1.6114906 139.00999
12.590369 10.940784 -0.77785003 139.00999
18.325209 15.924247 -0.56365091 139.00999
2.5495105 2.2154746 -1.3189176 139.00999
8.6834965 7.5457878 0 139.00999
2.6925128 2.3397408 -1.2983085 139.00999
8.6570091 7.5227709 0.26627424 139.00999
2.7803233 2.4160464 -1.2446148 139.00999
3.3160117 2.8815489 -1.3708196 139.00999
3.3449397 2.906687 -1.2706882 139.00999
3.970921 3.4506524 -1.3771814 139.00999
3.7458878 3.2551031 -1.1758522 139.00999
5.7619224 5.0069971 -1.6225429 139.00999
4.170248 3.6238637 -1.040925 139.00999
6.7088528 5.7950139 -1.4564908 139.17999
7.189764 6.2104187 -1.3352268 139.17999
8.0380898 6.9431906 -1.2421156 139.17999
8.537096 7.3742256 -1.0524657 139.17999
10.562889 9.1240778 -0.97603256 139.17999
2.7833388 2.4042096 -1.6375217 139.17999
2.5864999 2.2341828 -1.4276066 139.17999
18.331522 15.834516 -0.56239754 139.17999
2.6660419 2.3028901 -1.3756609 139.17999
23.82605 20.580612 0 139.17999
2.8174903 2.4337091 -1.3550838 139.17999
2.9036245 2.5081108 -1.2964739 139.17999
3.7088017 3.2036119 -1.2829719 139.17999
4.023571 3.4755051 -1.2597758 139.17999
6.2231336 5.3754568 -1.5493528 139.17999
6.7215252 5.7712259 -1.455518 139.35001
7.212667 6.1929293 -1.3360617 139.35001
8.020977 6.8869596 -1.236308 139.35001
8.6493387 7.4264822 -0.79717696 139.35001
2.7571907 2.3673751 -1.6179984 139.35001
12.732375 10.932253 -0.78260159 139.35001
2.6729274 2.2950249 -1.4715449 139.35001
18.451241 15.842576 -0.5646258 139.35001
2.7096128 2.3265238 -1.3945754 139.35001
23.670019 20.323517 0 139.35001
2.8589203 2.4547219 -1.3715007 139.35001
3.3725095 2.895699 -1.5019889 139.35001
3.3200159 2.8506272 -1.3654578 139.35001
3.7285664 3.2014163 -1.2865174 139.35001
3.880307 3.3317034 -1.2118195 139.35001
6.2286172 5.3480062 -1.5467606 139.35001
6.7311134 5.7448516 -1.4538968 139.52
7.2204647 6.1625018 -1.3341134 139.52
8.0277767 6.8515244 -1.2342173 139.52
2.7155616 2.3176699 -1.5895268 139.52
12.778432 10.9061 -0.78344005 139.52
2.6839361 2.2906783 -1.4738574 139.52
18.43885 15.737139 -0.56281537 139.52
2.8043616 2.3934586 -1.439679 139.52
24.035992 20.51417 0 139.52
3.311908 2.826638 -1.4712577 139.52
2.9929993 2.5544567 -1.2278397 139.52
2.9012706 2.4761684 -1.093729 139.52
3.7969158 3.2405808 -1.3067775 139.52
3.8679709 3.3012249 -1.2049026 139.52
4.0459318 3.4531102 -1.1306238 139.52
6.2459526 5.3307781 -1.5471309 139.52
6.7451191 5.7223015 -1.4532483 139.69
7.2356968 6.1384888 -1.3335567 139.69
8.0526142 6.8315306 -1.2349142 139.69
2.7266061 2.3131485 -1.5919672 139.69
11.031339 9.3585663 -0.67462116 139.69
2.6513171 2.2492762 -1.4522737 139.69
20.923458 17.750662 -0.63704348 139.69
2.8412843 2.4104369 -1.4549561 139.69
43.031002 36.505859 0 139.69
3.2388861 2.7477472 -1.5459311 139.69
3.0659854 2.6010649 -1.3585765 139.69
3.0063889 2.5505054 -1.2302227 139.69
3.8197925 3.240566 -1.311336 139.69
3.885169 3.2960289 -1.2072083 139.69
4.1546173 3.5246184 -1.1580681 139.69
6.2557468 5.3071365 -1.5456496 139.69
6.7540092 5.6934509 -1.4513029 139.87
7.2473741 6.109344 -1.3321649 139.87
8.0391035 6.7767515 -1.2295713 139.87
2.6723931 2.2527566 -1.5561744 139.87
2.751498 2.3194396 -1.5031495 139.87
8.697093 7.331419 -0.26409242 139.87
2.8374474 2.3918929 -1.4491363 139.87
8.6933203 7.3282385 0 139.87
2.8034854 2.3632638 -1.3345625 139.87
8.7047377 7.3378625 0.26432452 139.87
2.9365153 2.4754045 -1.2977543 139.87
2.9341004 2.4733686 -1.1974565 139.87
3.455807 2.9131536 -1.2960469 139.87
3.9113166 3.2971361 -1.3391937 139.87
4.0428138 3.4079845 -1.252859 139.87
5.8259544 4.9111247 -1.6196321 139.87
6.2528534 5.2709894 -1.5408357 139.87
6.7542329 5.6594434 -1.4477361 140.03999
7.2578788 6.0814538 -1.3307732 140.03999
8.0759239 6.7669029 -1.2321266 140.03999
2.6524568 2.2225218 -1.5407184 140.03999
12.904449 10.812776 -0.78511709 140.03999
2.6720803 2.2389646 -1.4561279 140.03999
17.682827 14.816629 -0.53561229 140.03999
2.6888824 2.2530432 -1.3698411 140.03999
22.993258 19.266294 0 140.03999
2.8681064 2.4032168 -1.3619242 140.03999
2.9365854 2.4605963 -1.2945532 140.03999
3.2780073 2.7466772 -1.3344789 140.03999
3.4821186 2.9177041 -1.3026621 140.03999
3.8884559 3.2581787 -1.3280506 140.03999
4.1200333 3.4522197 -1.2736094 140.03999
5.8240061 4.8799968 -1.6150581 140.03999
6.251894 5.2385287 -1.5367624 140.03999
6.7452149 5.617907 -1.4422241 140.21001
7.2682815 6.053555 -1.3293815 140.21001
8.0974932 6.7441826 -1.2323589 140.21001
8.7707949 7.3049579 -1.0649132 140.21001
10.312807 8.5892572 -0.93850362 140.21001
2.6702709 2.2239964 -1.5472262 140.21001
12.833621 10.688776 -0.77887487 140.21001
2.6475143 2.2050431 -1.4391693 140.21001
20.739546 17.273407 -0.62664503 140.21001
2.6311369 2.1914027 -1.3371046 140.21001
23.101034 19.240227 0 140.21001
2.9156594 2.4283738 -1.3810773 140.21001
2.8055608 2.3366756 -1.2337309 140.21001
2.7184026 2.2640839 -1.1039238 140.21001
3.5143964 2.9270456 -1.3114825 140.21001
3.7226763 3.1005163 -1.2682832 140.21001
4.0704427 3.3901615 -1.2551646 140.21001
5.8444724 4.867703 -1.6167213 140.21001
6.2991242 5.2463698 -1.5445387 140.21001
6.7749944 5.6067548 -1.444818 140.39
7.285738 6.0294285 -1.3291031 140.39
8.0941544 6.6984468 -1.2286421 140.39
2.6744294 2.2132668 -1.5455992 140.39
2.6444764 2.1884787 -1.4337734 140.39
20.879971 17.279552 -0.62924463 140.39
2.6681488 2.2080691 -1.3523817 140.39
22.981091 19.01837 0 140.39
2.713331 2.2454605 -1.2818915 140.39
8.6708488 7.1756992 0.26130712 140.39
2.7632573 2.2867775 -1.2119629 140.39
2.7137351 2.2457948 -1.0991578 140.39
3.4273021 2.8363185 -1.2756497 140.39
2.8440161 2.353611 -0.96640754 140.39
4.3194604 3.5746384 -1.3284825 140.39
5.8552146 4.8455763 -1.6154739 140.39
6.2686357 5.1877098 -1.5330594 140.39
6.7915998 5.5866284 -1.444818 140.56
7.3127728 6.0153341 -1.3307732 140.56
8.0909815 6.6554723 -1.2251576 140.56
10.26493 8.443716 -0.92943525 140.56
2.6739295 2.1995184 -1.5415319 140.56
2.6652105 2.1923466 -1.4414818 140.56
20.985193 17.261982 -0.63086939 140.56
2.6617396 2.1894913 -1.3458344 140.56
22.921576 18.854809 0 140.56
2.6865985 2.20994 -1.2661586 140.56
2.7480805 2.2605135 -1.2023594 140.56
2.8744683 2.3644776 -1.0672679 140.56
5.8725872 4.8306675 -1.6163055 140.56
6.2794471 5.1653419 -1.5319484 140.56
6.7817636 5.5488329 -1.4396302 140.71001
7.3346272 6.0011854 -1.3318865 140.71001
8.0807037 6.6116247 -1.2209761 140.71001
8.6292276 7.0604262 -1.0402039 140.71001
10.344132 8.4635601 -0.93459725 140.71001
2.6726081 2.1867256 -1.5374645 140.71001
2.6309483 2.1526394 -1.4198982 140.71001
8.7216225 7.1360235 -0.26163208 140.71001
2.6458344 2.1648195 -1.3349222 140.71001
23.263411 19.034101 0 140.71001
2.7621934 2.2600243 -1.2989925 140.71001
8.7355499 7.147419 0.26204988 140.71001
2.7495897 2.2497118 -1.2004387 140.71001
2.8725214 2.3502944 -1.158137 140.71001
2.90148 2.3739882 -1.0749857 140.71001
2.8631065 2.3425913 -0.96843356 140.71001
4.0893288 3.345885 -1.2519368 140.71001
5.8821859 4.812799 -1.6154739 140.71001
6.303596 5.1575966 -1.5345405 140.71001
6.7894058 5.5176005 -1.4373605 140.89999
7.3590984 5.980577 -1.3327216 140.89999
8.0671282 6.5559773 -1.2156332 140.89999
2.6543226 2.1571095 -1.522822 140.89999
12.826525 10.423834 -0.77076936 140.89999
2.5979712 2.1113138 -1.3983145 140.89999
17.862879 14.516768 -0.53440535 140.89999
2.6269748 2.1348844 -1.3218275 140.89999
23.199131 18.853422 0 140.89999
2.7827992 2.2615197 -1.3051488 140.89999
2.8217332 2.2931604 -1.228609 140.89999
2.8951159 2.3527968 -1.1640944 140.89999
2.921272 2.3740535 -1.0793959 140.89999
3.0960834 2.5161188 -1.044409 140.89999
5.5004282 4.4700766 -1.6793936 140.89999
5.8798952 4.778461 -1.610484 140.89999
6.3237152 5.1391439 -1.5352812 140.89999
6.7781129 5.4751096 -1.4315242 141.07001
7.3798919 5.961205 -1.3332783 141.07001
8.1081791 6.5494881 -1.2188854 141.07001
8.8453693 7.1449633 -1.0608259 141.07001
10.525926 8.5024548 -0.94617683 141.07001
2.6905589 2.1733344 -1.539905 141.07001
12.865167 10.392008 -0.77123523 141.07001
2.5970459 2.0977981 -1.3944602 141.07001
19.89213 16.06813 -0.59368569 141.07001
2.6332974 2.1270807 -1.3218275 141.07001
23.254969 18.784506 0 141.07001
2.6652269 2.1528721 -1.2470055 141.07001
2.9213841 2.3597865 -1.2689438 141.07001
2.9525807 2.3849859 -1.18435 141.07001
2.9716744 2.400409 -1.0953828 141.07001
3.1050403 2.5081372 -1.0449154 141.07001
3.1126027 2.5142457 -0.94805968 141.07001
5.8894815 4.7573061 -1.6092365 141.07001
6.3404646 5.1215935 -1.5356514 141.07001
6.8014364 5.4587297 -1.4328212 141.25
7.3985834 5.9379907 -1.3332783 141.25
8.1101236 6.5090628 -1.2160978 141.25
2.7130475 2.1774507 -1.5488532 141.25
13.388544 10.745443 -0.80058277 141.25
2.6712689 2.1439199 -1.4306899 141.25
19.85207 15.93297 -0.59099323 141.25
2.6472316 2.1246278 -1.325465 141.25
8.7347059 7.0103431 0 141.25
2.594295 2.0821419 -1.2107513 141.25
8.7541838 7.0259752 0.26061079 141.25
2.8741088 2.3067162 -1.2452551 141.25
2.8870997 2.3171425 -1.1551583 141.25
3.1036465 2.4909396 -1.1411387 141.25
3.0947976 2.4838376 -1.0388374 141.25
5.5200424 4.4303026 -1.677088 141.25
5.9059238 4.740005 -1.6096523 141.25
6.3457937 5.0930376 -1.5330594 141.25
6.7929182 5.4188342 -1.4276333 141.42
7.4084277 5.9098372 -1.3318865 141.42
8.1620121 6.5109849 -1.2209761 141.42
8.9604588 7.1479206 -1.0693719 141.42
2.6909299 2.1466036 -1.5325837 141.42
13.415683 10.701934 -0.80030328 141.42
2.6545353 2.1175711 -1.4183564 141.42
19.660109 15.683226 -0.58389074 141.42
2.596725 2.0714548 -1.2970933 141.42
19.613811 15.646294 0 141.42
2.6033998 2.0767794 -1.2121193 141.42
2.7728124 2.2119226 -1.198518 141.42
2.8193369 2.2490363 -1.1253707 141.42
2.8675523 2.2874985 -1.0518322 141.42
5.4981723 4.3859916 -1.6664823 141.42
5.8970222 4.7041616 -1.603415 141.42
6.3378301 5.0558023 -1.5275048 141.42
6.8145485 5.4011445 -1.428606 141.60001
7.4036756 5.8680806 -1.3277113 141.60001
8.1621885 6.4692707 -1.2179562 141.60001
8.8920164 7.0477252 -0.79341012 141.60001
2.6733184 2.1188462 -1.5187546 141.60001
13.49151 10.693239 -0.80281878 141.60001
2.6741915 2.1195381 -1.425294 141.60001
19.649736 15.574189 -0.58212674 141.60001
2.6441004 2.0956881 -1.3174627 141.60001
8.7601252 6.9431901 0 141.60001
2.794019 2.2145121 -1.2976245 141.60001
8.7452297 6.9313836 0.25907889 141.60001
2.8688421 2.2738161 -1.236932 141.60001
2.8069243 2.2247407 -1.0270247 141.60001
2.7702634 2.1956837 -0.92538083 141.60001
5.5164995 4.3723235 -1.6678656 141.60001
5.9225035 4.6941185 -1.6063257 141.60001
6.3737059 5.0517373 -1.5323187 141.60001
6.8367448 5.3857865 -1.4299029 141.77
7.4288325 5.8522158 -1.3291031 141.77
8.1595011 6.427815 -1.214704 141.77
8.9711056 7.067173 -1.0654705 141.77
2.6810286 2.1120355 -1.5195681 141.77
15.227505 11.99578 -0.90399796 141.77
2.6848176 2.1150203 -1.4276066 141.77
18.186472 14.326768 -0.53751558 141.77
2.6254282 2.0682352 -1.3050956 141.77
23.237637 18.305927 0 141.77
2.8802986 2.2690146 -1.3345625 141.77
2.8324125 2.2312913 -1.2183653 141.77
2.819525 2.221139 -1.1200091 141.77
2.8255947 2.2259202 -1.031435 141.77
5.2404428 4.1282668 -1.7464221 141.77
5.5477929 4.370388 -1.6733991 141.77
5.9302583 4.6716828 -1.6046624 141.77
6.3809471 5.0267224 -1.5304673 141.77
6.8595266 5.3727584 -1.4315242 141.92999
7.4092846 5.803359 -1.3227011 141.92999
8.1805468 6.407454 -1.2151686 141.92999
9.0049152 7.0531449 -1.0671426 141.92999
11.282198 8.8368378 -1.0021214 141.92999
2.730068 2.1383393 -1.5439723 141.92999
2.6950719 2.1109285 -1.4299191 141.92999
19.695036 15.426236 -0.58082694 141.92999
2.5915937 2.0298786 -1.2854537 141.92999
23.213089 18.181768 0 141.92999
2.821523 2.2099719 -1.3044648 141.92999
2.8550408 2.2362249 -1.2254078 141.92999
2.9384446 2.3015516 -1.1646903 141.92999
2.8030427 2.195497 -1.0209608 141.92999
3.3936617 2.6581025 -1.1284884 141.92999
5.547719 4.3452787 -1.6697102 141.92999
5.9340401 4.6478667 -1.6021675 141.92999
6.3903174 5.0052481 -1.5293564 141.92999
6.8878961 5.3620806 -1.434118 142.10001
7.4217825 5.7776999 -1.3218662 142.10001
8.0929327 6.3001761 -1.1993721 142.10001
8.9676628 6.9811354 -1.0602685 142.10001
10.658173 8.2971611 -0.94450265 142.10001
2.696032 2.0988038 -1.5211951 142.10001
13.562242 10.557917 -0.80151445 142.10001
2.7202544 2.1176603 -1.4399401 142.10001
19.71232 15.345623 -0.57999134 142.10001
2.5946648 2.0198915 -1.2839987 142.10001
8.7793493 6.834537 0 142.10001
2.8740404 2.2373793 -1.3256701 142.10001
8.7880287 6.8412933 0.25856826 142.10001
2.9169827 2.2708092 -1.2490965 142.10001
3.0010021 2.3362164 -1.186733 142.10001
2.8140955 2.1907136 -1.0226146 142.10001
3.3954268 2.6432676 -1.1264625 142.10001
5.5682654 4.3347764 -1.6720158 142.10001
5.2392545 4.0786486 -1.4113046 142.10001
6.3787756 4.9657412 -1.5230612 142.10001
6.8953409 5.3331709 -1.4321727 142.28
7.4367638 5.7519321 -1.3213094 142.28
8.1771088 6.3245487 -1.2088965 142.28
8.9296942 6.9066319 -1.0532087 142.28
2.7560863 2.1316829 -1.5512936 142.28
13.377261 10.346583 -0.78865743 142.28
2.780906 2.1508794 -1.4684614 142.28
2.612787 2.0208485 -1.2898185 142.28
27.664785 21.397205 0 142.28
2.6313043 2.0351706 -1.2107513 142.28
3.0799744 2.3821926 -1.3156809 142.28
2.8814695 2.2286599 -1.13669 142.28
5.6049471 4.3351216 -1.6789325 142.28
5.3294148 4.1220121 -1.4320958 142.28
6.423883 4.9685235 -1.5300969 142.28
6.9011073 5.3030648 -1.4299029 142.46001
7.4500861 5.7249203 -1.3204744 142.46001
8.3576002 6.4222875 -1.2325912 142.46001
8.7666044 6.7365813 -1.0314721 142.46001
10.419007 8.0063486 -0.91883224 142.46001
2.7801547 2.136373 -1.5610552 142.46001
2.7276528 2.0960288 -1.4368567 142.46001
19.561024 15.03141 -0.57274956 142.46001
2.6117365 2.0069544 -1.2861811 142.46001
2.5438013 1.9547504 -1.1676568 142.46001
8.7753496 6.7433014 0.25694349 142.46001
2.8245223 2.1704667 -1.2036399 142.46001
2.7582643 2.1195517 -1.0854555 142.46001
5.6216249 4.3198633 -1.6798548 142.46001
5.4420609 4.1818795 -1.2931023 142.46001
6.2063088 4.7399344 -1.2830218 142.63
7.4654655 5.7015877 -1.320196 142.63
8.3466234 6.3745532 -1.2281774 142.63
2.751632 2.1014996 -1.5415319 142.63
2.7543931 2.1036084 -1.4476486 142.63
19.59918 14.968451 -0.57256389 142.63
2.602874 1.9878887 -1.2789063 142.63
2.5495899 1.9471942 -1.1676568 142.63
2.7857749 2.1275754 -1.1844329 142.63
2.7797141 2.1229467 -1.091413 142.63
5.6313243 4.3008022 -1.6789325 142.63
5.2472186 4.0074496 -1.4034039 142.63
6.1519928 4.6679244 -1.2687552 142.81
7.480185 5.6757121 -1.3196393 142.81
8.3650265 6.3470998 -1.2279452 142.81
8.8075924 6.6829038 -1.0314721 142.81
2.7509429 2.0873227 -1.5374645 142.81
13.031539 9.8878927 -0.76285022 142.81
2.7683392 2.1005223 -1.4515028 142.81
17.776112 13.487914 -0.51806492 142.81
2.5957491 1.9695668 -1.272359 142.81
26.19656 19.877066 0 142.81
2.5527003 1.9369028 -1.1662887 142.81
2.7864075 2.1142318 -1.1818719 142.81
2.757472 2.0922766 -1.0800939 142.81
2.7767005 2.1068668 -0.99946105 142.81
5.3129678 4.031301 -1.7459155 142.81
5.6448078 4.2830896 -1.6789325 142.81
5.2457561 3.980303 -1.3996615 142.81
5.4377561 4.1259856 -1.2860664 142.81
6.2020574 4.6769805 -1.2762127 142.98
7.474854 5.6367984 -1.3157425 142.98
8.3521004 6.2983313 -1.2232991 142.98
10.577261 7.9763279 -0.92636597 142.98
2.7571239 2.0791514 -1.5374645 142.98
11.945833 9.0083704 -0.69772655 142.98
2.7259345 2.0556312 -1.426065 142.98
19.637569 14.80872 -0.57103199 142.98
2.6119938 1.9697083 -1.2774514 142.98
8.795454 6.6326647 0 142.98
2.621459 1.976846 -1.1950184 142.98
8.8058558 6.6405091 0.25606149 142.98
2.7956939 2.1082368 -1.1831524 142.98
2.7850087 2.1001792 -1.0884343 142.98
2.9855585 2.2514141 -1.0722293 142.98
3.0200727 2.2774413 -0.99021316 142.98
5.6621523 4.2698374 -1.6803159 142.98
5.2122464 3.9305627 -1.3876026 142.98
6.2553692 4.6881337 -1.0986325 143.14999
8.1990767 6.1448593 -1.1982106 143.14999
2.7808254 2.0841105 -1.5472262 143.14999
12.186731 9.1334381 -0.71021092 143.14999
2.703963 2.0265055 -1.4114188 143.14999
18.463833 13.837858 -0.53570515 143.14999
2.6327343 1.9731225 -1.2847261 143.14999
33.205444 24.88607 0 143.14999
2.773191 2.0783889 -1.2613703 143.14999
2.8989735 2.1726575 -1.2241274 143.14999
2.9378934 2.2018263 -1.1456263 143.14999
2.979918 2.2333219 -1.0678191 143.14999
3.0190754 2.2626688 -0.98768067 143.14999
3.128613 2.3447626 -0.92638713 143.14999
6.0222621 4.5134296 -1.5996726 143.14999
6.0959582 4.5421324 -1.2489765 143.31
6.2668486 4.6694636 -1.0983541 143.31
8.2831059 6.1717882 -1.2079673 143.31
10.493437 7.8187184 -0.91506541 143.31
2.8174019 2.0992618 -1.5643091 143.31
11.787655 8.7830467 -0.68552172 143.31
2.6726153 1.9913806 -1.3921477 143.31
19.406679 14.460025 -0.56188691 143.31
2.6113439 1.9457268 -1.2716316 143.31
34.459988 25.676329 0 143.31
2.8905053 2.1537316 -1.3119893 143.31
2.8609679 2.1317229 -1.2055606 143.31
2.9899592 2.2278352 -1.1634988 143.31
3.1156402 2.3214808 -1.1141262 143.31
3.0331397 2.2600093 -0.99021316 143.31
4.6410813 3.4580953 -1.3713665 143.31
5.3555894 3.9904792 -1.419621 143.31
5.3600802 3.9938257 -1.2594045 143.31
6.0776715 4.4972405 -1.2421674 143.5
7.7079086 5.7035522 -1.1213188 143.5
10.618743 7.8574562 -0.92371523 143.5
2.8023169 2.0736055 -1.552107 143.5
12.354714 9.1420078 -0.71673262 143.5
2.7192588 2.0121458 -1.4129605 143.5
19.758301 14.620373 -0.57066059 143.5
2.6192794 1.9381647 -1.272359 143.5
8.7909784 6.504982 0 143.5
2.9792123 2.2045012 -1.3489275 143.5
3.0477483 2.2552152 -1.2811081 143.5
3.0034695 2.2224505 -1.1658818 143.5
3.1341393 2.3191411 -1.1179851 143.5
3.1339357 2.3189905 -1.0206033 143.5
4.6431365 3.4357405 -1.3685998 143.5
5.5486655 4.1057963 -1.3005083 143.5
6.2404408 4.5890923 -1.2726461 143.67
7.4384818 5.4701066 -1.29765 143.67
10.588968 7.7869096 -0.91911131 143.67
2.7952096 2.0555398 -1.5447857 143.67
11.828122 8.6981583 -0.6846832 143.67
2.641959 1.9428422 -1.3697932 143.67
19.629236 14.434937 -0.5656935 143.67
2.5859959 1.9016882 -1.2534447 143.67
32.722599 24.063528 0 143.67
2.9917963 2.2001057 -1.3516636 143.67
3.1353283 2.305656 -1.3150406 143.67
3.1638598 2.3266375 -1.2254567 143.67
3.1533971 2.3189435 -1.1223953 143.67
3.1735353 2.3337526 -1.0312399 143.67
4.6407676 3.4127252 -1.3649108 143.67
5.5259891 4.0636988 -1.2923616 143.67
6.1998549 4.5309644 -1.2616218 143.84
7.5218387 5.4970937 -1.3093405 143.84
8.5884323 6.2765799 -1.243974 143.84
8.7671318 6.407176 -1.0130794 143.84
10.615248 7.757812 -0.91939032 143.84
2.8042464 2.0493934 -1.5464127 143.84
12.386165 9.0520296 -0.71542829 143.84
2.6819816 1.9600399 -1.3875226 143.84
19.588036 14.315286 -0.56327957 143.84
2.6111805 1.9082973 -1.2629019 143.84
8.7825975 6.4184785 0 143.84
3.0377624 2.2200508 -1.3694487 143.84
8.8254318 6.4497828 0.25378683 143.84
3.2048762 2.3421805 -1.3412902 143.84
3.4374189 2.5121269 -1.3285214 143.84
4.7062473 3.4394095 -1.6714649 143.84
5.3701601 3.9246087 -1.4137995 143.84
5.3285608 3.8942072 -1.2434815 143.84
6.2931128 4.5705361 -1.2778339 144.00999
7.5445256 5.4794068 -1.3104539 144.00999
8.6777382 6.3024325 -1.2541952 144.00999
2.7467465 1.9948957 -1.5114334 144.00999
12.346692 8.9671049 -0.71160841 144.00999
2.6220839 1.9043562 -1.3536054 144.00999
19.577036 14.218329 -0.56174767 144.00999
2.6756194 1.9432379 -1.2912735 144.00999
21.289555 15.46209 0 144.00999
3.2131279 2.3336174 -1.4453771 144.00999
3.1290247 2.2725353 -1.3067175 144.00999
3.3938797 2.4648931 -1.3088616 144.00999
3.6882122 2.6786597 -1.3070723 144.00999
3.6945453 2.6832592 -1.1953468 144.00999
5.3490553 3.8848901 -1.5664196 144.00999
5.3390431 3.8776183 -1.4025723 144.00999
5.3003354 3.8495057 -1.2342238 144.00999
6.155396 4.4410448 -1.247031 144.19
7.5633082 5.4568372 -1.3107322 144.19
8.700717 6.2774639 -1.2546599 144.19
8.9902067 6.4863272 -1.0342588 144.19
10.584776 7.6367898 -0.91269368 144.19
2.6403909 1.9050106 -1.4496094 144.19
12.457431 8.9878883 -0.71635991 144.19
2.6235638 1.8928701 -1.3512928 144.19
19.29731 13.92278 -0.55246335 144.19
2.6937976 1.943543 -1.2970933 144.19
21.282879 15.355344 0 144.19
3.1975818 2.3070171 -1.4351165 144.19
2.954833 2.1318767 -1.2311699 144.19
3.2653565 2.355916 -1.2564356 144.19
3.7168775 2.6816828 -1.3142389 144.19
3.6856973 2.6591868 -1.1897753 144.19
3.7230351 2.6861255 -1.0877786 144.19
5.5336442 3.9924583 -1.450392 144.19
5.6487112 4.0754781 -1.312358 144.19
6.1396756 4.4020624 -1.2411947 144.36
7.6036096 5.451683 -1.3149074 144.36
10.649546 7.6355767 -0.91632104 144.36
2.6400919 1.8929094 -1.4463555 144.36
2.6156702 1.8753994 -1.3443552 144.36
19.502655 13.983134 -0.55715191 144.36
2.691982 1.930114 -1.293456 144.36
8.785224 6.2988839 0 144.36
8.7828569 6.2971873 0.2509087 144.36
3.0535562 2.1893575 -1.172435 144.36
3.1810944 2.2808006 -1.1223953 144.36
3.7155848 2.6640229 -1.1968664 144.36
3.7309887 2.6750674 -1.0877786 144.36
5.354681 3.8392324 -1.4004931 144.36
5.6623759 4.0598454 -1.3127284 144.36
6.2684822 4.4696145 -1.2648642 144.50999
7.6146307 5.4294581 -1.3143507 144.50999
9.0700703 6.4672303 -1.0392749 144.50999
10.632136 7.5810294 -0.91311222 144.50999
2.6762791 1.9082667 -1.4634384 144.50999
12.951514 9.2348146 -0.74179447 144.50999
2.6160631 1.8653308 -1.3420427 144.50999
21.257574 15.157283 0 144.50999
2.9410965 2.0970893 -1.3147254 144.50999
2.9404669 2.0966403 -1.220286 144.50999
3.0017605 2.1403446 -1.1503923 144.50999
3.082176 2.1976833 -1.0854599 144.50999
3.7162449 2.6497931 -1.1948403 144.50999
5.31215 3.7877209 -1.386771 144.50999
6.2985439 4.4579673 -1.2677824 144.71001
8.7897587 6.2211933 -1.2593058 144.71001
10.583623 7.49085 -0.90669465 144.71001
2.6784499 1.8957465 -1.4609981 144.71001
13.397869 9.4827099 -0.76545888 144.71001
2.6150267 1.8508569 -1.3381885 144.71001
2.6930776 1.9060997 -1.2883636 144.71001
27.295013 19.318796 0 144.71001
2.7612476 1.9543489 -1.2312725 144.71001
8.8211603 6.2434187 0.2509087 144.71001
2.9462211 2.0852687 -1.2196457 144.71001
2.9297366 2.0736015 -1.1200091 144.71001
2.9281971 2.0725119 -1.0286787 144.71001
4.5040464 3.1878626 -1.4445462 144.71001
5.7630606 4.0789642 -1.672938 144.71001
5.2486925 3.7149062 -1.3668115 144.71001
5.4945602 3.8889258 -1.2682918 144.71001
5.8283648 4.1008043 -1.1708343 144.87
6.3689694 4.4811707 -1.0944573 144.87
8.8070974 6.1966238 -1.2593058 144.87
8.8971767 6.2600026 -1.0149373 144.87
10.560444 7.4302678 -0.90292782 144.87
2.7016647 1.9008759 -1.4707597 144.87
13.009282 9.1532564 -0.74179447 144.87
2.6156571 1.8403614 -1.335876 144.87
18.684439 13.146265 -0.53041309 144.87
2.5825922 1.8170972 -1.2330753 144.87
22.795074 16.038485 0 144.87
2.7036753 1.9022905 -1.2032268 144.87
2.7226884 1.915668 -1.124891 144.87
2.9761133 2.0939763 -1.1354985 144.87
2.9622753 2.08424 -1.0386015 144.87
3.3340623 2.3458271 -1.0672016 144.87
5.5070348 3.8747182 -1.5954701 144.87
5.2446465 3.6901033 -1.3630691 144.87
5.5070062 3.8746979 -1.2686622 144.87
6.1526685 4.3017468 -1.2334129 145.03999
8.7880001 6.1442852 -1.253963 145.03999
2.8061211 1.961949 -1.524449 145.03999
13.177193 9.2130671 -0.74980682 145.03999
2.6226184 1.8336499 -1.3366468 145.03999
18.857733 13.184717 -0.53421962 145.03999
2.6078212 1.8233042 -1.2425325 145.03999
22.82617 15.959319 0 145.03999
2.7709177 1.937336 -1.2305884 145.03999
2.7314661 1.9097526 -1.1261716 145.03999
2.9932661 2.0927947 -1.1396688 145.03999
3.1323094 2.1900094 -1.0959342 145.03999
3.3251512 2.3248379 -1.0621365 145.03999
3.3493829 2.3417802 -0.96834892 145.03999
6.0572152 4.2350087 -1.5709808 145.03999
5.5780764 3.9000106 -1.2823634 145.03999
6.337975 4.4017272 -1.2677824 145.22
7.6569247 5.3177385 -1.3101755 145.22
8.5527334 5.939878 -1.217724 145.22
9.0023098 6.2521091 -1.0225544 145.22
2.8137715 1.9541659 -1.5252624 145.22
13.284835 9.226325 -0.75427884 145.22
2.6708078 1.8548776 -1.3582305 145.22
19.785879 13.741303 -0.55928731 145.22
2.9486444 2.0478351 -1.4018501 145.22
8.817996 6.1241031 0 145.22
2.7600105 1.9168288 -1.2230641 145.22
8.8008404 6.1121883 0.24877329 145.22
3.1529722 2.1897409 -1.297114 145.22
3.3557906 2.3305984 -1.2749039 145.22
3.4644608 2.40607 -1.2094967 145.22
3.3419733 2.3210022 -1.0651757 145.22
3.348731 2.3256955 -0.96604329 145.22
5.3795662 3.7361116 -1.3921766 145.22
6.3005905 4.3757639 -1.4452972 145.22
6.3306537 4.3672256 -1.2635673 145.39999
7.6719627 5.2925324 -1.3098972 145.39999
8.2672176 5.7031717 -1.1745158 145.39999
8.9186401 6.1525578 -1.0108501 145.39999
2.8334324 1.9546541 -1.5325837 145.39999
2.6705458 1.8422861 -1.3551471 145.39999
19.86845 13.706326 -0.56040144 145.39999
3.073143 2.1200194 -1.457866 145.39999
2.9098887 2.0073979 -1.2866797 145.39999
3.1473589 2.1712174 -1.2919922 145.39999
3.4180999 2.3579891 -1.2957551 145.39999
3.5115652 2.4224665 -1.2232786 145.39999
4.4513311 3.0707676 -1.4156756 145.39999
6.6864023 4.6126399 -1.5304673 145.39999
7.0940051 4.8628244 -1.4130424 145.57001
7.6565943 5.2484703 -1.3046087 145.57001
8.2365875 5.6460462 -1.1677791 145.57001
10.683344 7.3232574 -0.90571803 145.57001
13.311286 9.1246691 -0.75260186 145.57001
2.6425121 1.8113987 -1.3381885 145.57001
19.80678 13.577224 -0.55752331 145.57001
2.8919501 1.9823846 -1.3691137 145.57001
23.352236 16.007576 0 145.57001
2.9809384 2.0433846 -1.3154094 145.57001
8.7934847 6.0277901 0.24751991 145.57001
3.0584545 2.0965207 -1.2529379 145.57001
3.3221066 2.2772498 -1.1549206 145.57001
5.410356 3.7087107 -1.3942558 145.57001
5.3707466 3.6815588 -1.2268177 145.57001
7.1075568 4.8429952 -1.4130424 145.73
7.6663108 5.2237229 -1.3037736 145.73
8.2490387 5.6207862 -1.1673145 145.73
8.9111414 6.0719337 -1.0060197 145.73
2.6483569 1.8045553 -1.4268322 145.73
13.440727 9.1583338 -0.75847137 145.73
2.630784 1.7925816 -1.3297092 145.73
8.8367205 6.0212245 -0.24826266 145.73
2.7758484 1.8914264 -1.3116429 145.73
20.013592 13.636996 0 145.73
3.0487573 2.077383 -1.3427711 145.73
2.9828749 2.0324914 -1.2196457 145.73
3.1144946 2.1221755 -1.1760095 145.73
3.1346242 2.1358914 -1.087665 145.73
3.6780851 2.5061986 -1.0545781 145.73
5.5921535 3.8104196 -1.2749573 145.73
5.4337544 3.6789281 -1.0781014 145.89999
7.662096 5.1876287 -1.3004334 145.89999
9.1286421 6.1805553 -1.0284995 145.89999
2.5871301 1.7516187 -1.3910394 145.89999
13.138632 8.8955221 -0.73993117 145.89999
2.6284504 1.7795947 -1.3258549 145.89999
18.058441 12.226484 -0.5063203 145.89999
2.8107591 1.9030269 -1.325465 145.89999
20.055622 13.578676 0 145.89999
3.019114 2.0440938 -1.3270382 145.89999
3.1363757 2.123486 -1.2798277 145.89999
3.1460726 2.1300514 -1.1855415 145.89999
3.1138842 2.1082582 -1.0782933 145.89999
3.37409 2.2844305 -1.0666951 145.89999
3.682282 2.4930923 -1.0536559 145.89999
5.4260387 3.6737044 -1.2345942 145.89999
7.1484718 4.8071966 -1.4153121 146.08
7.6832862 5.1668477 -1.3012685 146.08
8.2535486 5.5503378 -1.1631331 146.08
9.0620861 6.0940619 -1.0188388 146.08
10.789495 7.2557077 -0.90920585 146.08
2.5926201 1.7434824 -1.3910394 146.08
13.17646 8.8608913 -0.74049014 146.08
18.129948 12.192007 -0.5072487 146.08
2.873924 1.9326533 -1.3523817 146.08
8.807683 5.9229813 0 146.08
2.9335077 1.9727221 -1.2866797 146.08
8.8252211 5.9347749 0.24691643 146.08
2.995235 2.0142324 -1.2196457 146.08
3.0196679 2.030663 -1.1354985 146.08
3.1859012 2.1424515 -1.1008956 146.08
3.6028132 2.422816 -1.1365925 146.08
5.4220495 3.646214 -1.3888501 146.08
5.4457078 3.6621239 -1.2364457 146.08
5.8262987 3.8944795 -1.1513799 146.24001
7.6927447 5.1420703 -1.3004334 146.24001
8.2326832 5.5029817 -1.1580224 146.24001
10.668726 7.1313081 -0.89734727 146.24001
2.6415296 1.7656806 -1.4146301 146.24001
12.827441 8.5742607 -0.7195276 146.24001
2.7340899 1.8275508 -1.3736475 146.24001
18.16226 12.14022 -0.50720227 146.24001
2.8994448 1.9380791 -1.3618388 146.24001
26.494183 17.709538 0 146.24001
2.9530673 1.9739221 -1.2928362 146.24001
2.860651 1.9121481 -1.1626649 146.24001
2.97136 1.9861494 -1.1152431 146.24001
3.0959716 2.0694437 -1.0678191 146.24001
3.424583 2.2890978 -1.0783447 146.24001
5.4240785 3.6256227 -1.386771 146.24001
5.7418628 3.8380396 -1.3012489 146.24001
5.9888196 3.9744439 -1.1808858 146.42999
7.7048035 5.1132464 -1.2995985 146.42999
9.0875282 6.0308833 -1.0175383 146.42999
10.679016 7.0870647 -0.89623117 146.42999
8.8690567 5.8858957 -0.496393 146.42999
2.660176 1.7654098 -1.3335634 146.42999
18.234072 12.100932 -0.5080843 146.42999
2.6761193 1.7759904 -1.2541721 146.42999
20.293684 13.467781 0 146.42999
2.875037 1.9080008 -1.255898 146.42999
2.8622398 1.8995082 -1.1607442 146.42999
2.81408 1.8675472 -1.0538808 146.42999
3.4079735 2.2616811 -1.0707471 146.42999
3.437634 2.2813649 -0.97757125 146.42999
5.3007808 3.5178311 -1.3522576 146.42999
5.5940728 3.7124724 -1.2649591 146.42999
7.7175221 5.0868359 -1.2990417 146.61
8.9231892 5.881525 -1.2497815 146.61
10.691234 7.0468926 -0.89539409 146.61
2.7733927 1.828021 -1.4788945 146.61
8.8524742 5.8349147 -0.4944365 146.61
2.7073128 1.7844659 -1.3543762 146.61
18.35714 12.099708 -0.51045179 146.61
2.7392392 1.8055096 -1.2810888 146.61
8.8153381 5.8104372 0 146.61
2.9171081 1.922748 -1.2716309 146.61
8.7979383 5.7989683 0.24464178 146.61
2.8365531 1.8696518 -1.1479396 146.61
2.816745 1.8565959 -1.0526893 146.61
2.8620703 1.886471 -0.98292279 146.61
3.4409091 2.2680001 -1.0788512 146.61
5.539278 3.651094 -1.5719531 146.61
5.6089902 3.6970432 -1.2656997 146.61
7.7316971 5.0652647 -1.2990417 146.77
8.9146547 5.8402553 -1.246297 146.77
2.6913724 1.763198 -1.4325265 146.77
8.8570356 5.8025074 -0.49378434 146.77
2.6134884 1.7121739 -1.3050421 146.77
19.141811 12.54037 -0.53129506 146.77
2.9359486 1.9234271 -1.3705686 146.77
20.617496 13.507135 0 146.77
2.9444749 1.929013 -1.2812074 146.77
2.8702915 1.8804133 -1.1594638 146.77
2.868232 1.8790641 -1.0699661 146.77
2.81265 1.8426507 -0.96417946 146.77
3.4315767 2.2481279 -0.97203785 146.77
6.8161459 4.4654598 -1.5352812 146.77
7.7516718 5.0455432 -1.2998768 146.94
8.9036407 5.7953572 -1.2423478 146.94
10.688168 6.9569011 -0.89176679 146.94
2.7134361 1.7661686 -1.4414747 146.94
13.634475 8.8746452 -0.75865769 146.94
2.5737028 1.6752166 -1.2826875 146.94
19.207422 12.502063 -0.53208423 146.94
2.8432755 1.8506807 -1.3247374 146.94
20.706093 13.477543 0 146.94
2.9911382 1.9469242 -1.2989925 146.94
8.8060551 5.7318392 0.24394545 146.94
2.8568022 1.8594853 -1.151781 146.94
2.8977964 1.8861682 -1.0789024 146.94
2.8277726 1.8405899 -0.9674871 146.94
2.9366384 1.9114504 -0.91727674 146.94
7.2146869 4.6673903 -1.4117454 147.10001
7.7773714 5.0314074 -1.3018252 147.10001
8.9614868 5.7974458 -1.2481554 147.10001
9.2644358 5.9934325 -1.0294285 147.10001
10.762834 6.9627891 -0.89637071 147.10001
2.7137554 1.7556071 -1.4390342 147.10001
8.8466959 5.7231841 -0.49136198 147.10001
2.6093609 1.6880713 -1.2981045 147.10001
19.269121 12.465754 -0.53282702 147.10001
2.5606172 1.6565375 -1.1908815 147.10001
33.248947 21.509708 0 147.10001
3.1275349 2.023293 -1.3557678 147.10001
2.8822131 1.8645872 -1.0711576 147.10001
3.2299919 2.0895755 -1.1031007 147.10001
2.9338422 1.8979876 -0.91474426 147.10001
5.5682254 3.6022465 -1.4096413 147.10001
7.2334461 4.6455727 -1.4123939 147.28999
7.8056788 5.0130806 -1.3037736 147.28999
8.9622765 5.7558885 -1.2456001 147.28999
2.7287862 1.7525223 -1.4439151 147.28999
15.73926 10.108305 -0.87232125 147.28999
2.6164973 1.6804063 -1.2988753 147.28999
2.5660963 1.6480372 -1.1908815 147.28999
20.774572 13.342159 0 147.28999
3.1010189 1.9915831 -1.341403 147.28999
3.2156606 2.0652101 -1.2913519 147.28999
3.0393858 1.9520001 -1.127158 147.28999
3.2838149 2.1089811 -1.1190877 147.28999
5.5481334 3.563206 -1.7261618 147.28999
5.3677073 3.4473298 -1.5115465 147.28999
5.4270568 3.4854462 -1.3709697 147.28999
5.5813608 3.5845459 -1.2497766 147.28999
5.6489844 3.6029596 -1.1007982 147.47
7.8147101 4.9842739 -1.3026602 147.47
8.9216967 5.6903172 -1.2374696 147.47
9.1921368 5.8628058 -1.0171667 147.47
10.735242 6.8470082 -0.89037162 147.47
2.7727895 1.7685035 -1.4642519 147.47
16.262779 10.372509 -0.899526 147.47
2.631099 1.6781324 -1.3035004 147.47
19.418335 12.385142 -0.53473026 147.47
2.5712612 1.6399674 -1.1908815 147.47
8.7902651 5.6064892 0 147.47
3.202332 2.0424685 -1.3824455 147.47
8.8199263 5.6254072 0.24287775 147.47
3.212548 2.0489843 -1.2875105 147.47
3.2676382 2.0841212 -1.2093714 147.47
5.2825089 3.3692191 -1.7966043 147.47
5.5772438 3.5572031 -1.7317334 147.47
5.4082909 3.4494438 -1.3634849 147.47
5.5826521 3.5606525 -1.2475548 147.47
5.6096382 3.5544934 -1.091071 147.64
7.8277912 4.9600048 -1.3023819 147.64
10.66956 6.7606649 -0.88325649 147.64
2.7965448 1.7720038 -1.4740136 147.64
14.221148 9.011095 -0.78511709 147.64
2.6547732 1.6821716 -1.3127506 147.64
19.30806 12.234366 -0.53069162 147.64
2.6028683 1.6492826 -1.2032486 147.64
26.596281 16.852478 0 147.64
3.2639413 2.0681651 -1.4063869 147.64
3.3946686 2.1509993 -1.3579363 147.64
3.2673566 2.0703292 -1.2069885 147.64
3.2251825 2.043606 -1.0948316 147.64
5.5861397 3.5396037 -1.7312269 147.64
5.5908637 3.5425973 -1.5682641 147.64
5.5374808 3.5087717 -1.3934242 147.64
5.412231 3.4294086 -1.2071917 147.64
7.3078456 4.598434 -1.4185545 147.82001
7.8634505 4.9480462 -1.305722 147.82001
8.5645475 5.3892088 -1.1833433 147.82001
10.17331 6.4015169 -1.1213914 147.82001
2.8020978 1.7632095 -1.4740136 147.82001
14.41848 9.0727739 -0.79443377 147.82001
2.7287717 1.7170693 -1.3466678 147.82001
18.600094 11.704039 -0.51021969 147.82001
26.906393 16.930746 0 147.82001
3.3260961 2.0929334 -1.4303282 147.82001
3.3372622 2.0999596 -1.3323269 147.82001
3.3675678 2.1190293 -1.241542 147.82001
5.6054196 3.5271893 -1.7337594 147.82001
5.587141 3.5156875 -1.564114 147.82001
5.4673438 3.4403055 -1.3730488 147.82001
7.3206582 4.5780091 -1.4185545 147.98
7.8906708 4.9344692 -1.3079488 147.98
8.9551506 5.6001468 -1.2351465 147.98
2.8116581 1.758284 -1.476454 147.98
15.859848 9.9180326 -0.87232125 147.98
2.7492032 1.7192274 -1.3543762 147.98
8.8340483 5.5244145 -0.2419029 147.98
2.680531 1.676283 -1.2345302 147.98
8.8262548 5.5195408 0 147.98
3.1391189 1.9630631 -1.3475593 147.98
8.8357439 5.525475 0.24194932 147.98
3.3880951 2.1187615 -1.3502535 147.98
3.284441 2.053941 -1.2087758 147.98
3.3741758 2.1100571 -1.1411387 147.98
3.7287345 2.3317821 -1.1512811 147.98
5.6794391 3.5516646 -1.58717 147.98
5.5465941 3.4685893 -1.3905134 147.98
5.5024753 3.4409995 -1.2227445 147.98
7.3468237 4.5658817 -1.4211484 148.14
7.9229236 4.9239144 -1.3110106 148.14
8.9640055 5.5709233 -1.2342173 148.14
2.8258681 1.756212 -1.4813348 148.14
14.43499 8.971014 -0.79257041 148.14
2.8417702 1.7660947 -1.3975437 148.14
18.738194 11.645356 -0.51221579 148.14
2.7469122 1.7071427 -1.2629019 148.14
20.696728 12.862539 0 148.14
3.0982976 1.9255207 -1.3277222 148.14
3.0190334 1.8762598 -1.2010789 148.14
3.1442225 1.954062 -1.1551583 148.14
3.3327014 2.0711973 -1.1251516 148.14
3.7286582 2.3172753 -1.149255 148.14
5.4893322 3.4114935 -1.5313746 148.14
5.5103936 3.4245827 -1.2223741 148.14
7.3586593 4.5430264 -1.4208242 148.31
7.9341278 4.8983045 -1.3104539 148.31
8.9145746 5.5036039 -1.2251576 148.31
10.280212 6.3467102 -1.1271508 148.31
10.642632 6.5704575 -0.87460667 148.31
2.8326211 1.7487795 -1.4821483 148.31
15.161926 9.3605413 -0.83095515 148.31
2.9019589 1.7915869 -1.4245232 148.31
19.293276 11.911119 -0.52642083 148.31
2.7440391 1.6940916 -1.2592645 148.31
37.987705 23.452526 0 148.31
2.9744639 1.8363492 -1.2723149 148.31
3.2841599 2.0275466 -1.3041567 148.31
3.1646276 1.9537508 -1.16052 148.31
3.6807313 2.2723787 -1.2403681 148.31
5.5126777 3.4033701 -1.5350635 148.31
7.3871455 4.5268488 -1.4234182 148.5
7.9722805 4.8854198 -1.3140724 148.5
8.5195036 5.2207584 -1.168476 148.5
8.9394808 5.4781208 -0.9781521 148.5
2.7651856 1.694508 -1.4439151 148.5
15.01743 9.202693 -0.82135898 148.5
2.7977371 1.7144555 -1.370564 148.5
8.8446112 5.4199843 -0.2408352 148.5
8.8265314 5.408905 0 148.5
3.1600103 1.9364568 -1.3489275 148.5
8.8377914 5.4158058 0.24064952 148.5
3.2698634 2.0037749 -1.2958336 148.5
3.2085299 1.9661896 -1.1742222 148.5
3.2800806 2.010036 -1.1031007 148.5
3.268034 2.0026538 -1.0033822 148.5
5.6666365 3.4725192 -1.5747198 148.5
4.1800475 2.5615366 -1.0420533 148.5
7.398859 4.5038843 -1.4230939 148.67
7.9985828 4.8689528 -1.3160208 148.67
8.9438877 5.4443851 -1.2244606 148.67
2.7389877 1.6672956 -1.4276456 148.67
2.853256 1.7368537 -1.3952311 148.67
20.776764 12.647375 -0.5647186 148.67
2.7450812 1.6710048 -1.2548996 148.67
32.701683 19.906395 0 148.67
3.0790534 1.8743026 -1.3119893 148.67
3.282268 1.9980049 -1.2983946 148.67
3.2828441 1.9983556 -1.1992437 148.67
3.2318375 1.9673065 -1.0849086 148.67
3.2673509 1.9889244 -1.0013562 148.67
3.2798104 1.9965088 -0.90978682 148.67
4.1809454 2.545054 -1.0403901 148.67
5.9363618 3.6136234 -1.3093957 148.67
7.4298615 4.4908271 -1.4263363 148.85001
8.0324841 4.8550696 -1.3190826 148.85001
8.9898481 5.4337287 -1.2284098 148.85001
10.891904 6.5833869 -0.88995308 148.85001
2.8880682 1.7456334 -1.5024852 148.85001
15.128079 9.143856 -0.82434034 148.85001
2.8492219 1.7221535 -1.390606 148.85001
21.08847 12.746491 -0.57209969 148.85001
2.7264013 1.6479172 -1.2439874 148.85001
30.573172 18.479324 0 148.85001
3.0463247 1.8412882 -1.2955723 148.85001
3.2711327 1.9771688 -1.1926905 148.85001
3.2116768 1.941232 -1.0760882 148.85001
3.2884855 1.9876574 -1.0059148 148.85001
3.297725 1.993242 -0.91301465 148.85001
5.5350003 3.3455169 -1.3747121 148.85001
5.7677073 3.486172 -1.2697731 148.85001
7.4566894 4.4768891 -1.4289302 149.02
8.0587406 4.8383517 -1.3210311 149.02
9.019556 5.4152117 -1.2302682 149.02
2.6817641 1.6100926 -1.3926662 149.02
2.8195105 1.6927935 -1.3736475 149.02
21.081627 12.657105 -0.57089269 149.02
2.7137091 1.629272 -1.2359852 149.02
32.800385 19.692879 0 149.02
3.1049469 1.8641654 -1.3181456 149.02
8.8351526 5.3044987 0.23925687 149.02
3.0962274 1.8589305 -1.220286 149.02
3.0985675 1.8603354 -1.1277537 149.02
3.3509324 2.0118515 -1.1207415 149.02
3.3690145 2.0227079 -1.0287074 149.02
3.3369944 2.0034835 -0.92223704 149.02
5.6270862 3.3784215 -1.3950875 149.02
5.7325292 3.4417281 -1.2597748 149.02
7.4716349 4.4557557 -1.4292544 149.19
8.086669 4.822535 -1.3232578 149.19
8.8291435 5.2653146 -1.2021598 149.19
8.8816595 5.2966332 -0.96477562 149.19
2.7006526 1.610551 -1.3999876 149.19
13.636068 8.1319542 -0.74039698 149.19
2.8419559 1.6948181 -1.3821267 149.19
20.904428 12.466486 -0.56509 149.19
2.7889347 1.6631986 -1.2679942 149.19
8.8377771 5.2704635 0 149.19
2.7973194 1.6681988 -1.1854419 149.19
8.8130722 5.2557302 0.23823559 149.19
3.1521771 1.8798205 -1.2401332 149.19
3.0466816 1.8169076 -1.1069026 149.19
3.3700964 2.009778 -1.1251516 149.19
3.3650305 2.006757 -1.0256684 149.19
3.3496101 1.9975609 -0.9240815 149.19
3.3486471 1.9969865 -0.82873601 149.19
5.7444038 3.4257109 -1.2601452 149.19
7.5068965 4.4466429 -1.4334697 149.36
8.0856056 4.7894359 -1.3207527 149.36
8.9865847 5.323123 -1.2214408 149.36
8.8493633 5.2418408 -0.95957369 149.36
8.8506927 5.2426286 -0.71932876 149.36
2.8500438 1.6881979 -1.4748271 149.36
8.8282948 5.2293615 -0.47850496 149.36
2.8501477 1.6882595 -1.3836684 149.36
8.8131447 5.2203875 -0.23781779 149.36
2.7682109 1.639725 -1.2563546 149.36
2.8507667 1.6886262 -1.205963 149.36
3.0827506 1.8260397 -1.2106824 149.36
3.1013389 1.8370503 -1.1247751 149.36
3.2519863 1.9262849 -1.083806 149.36
3.3459997 1.9819731 -1.0180708 149.36
3.3646564 1.9930242 -0.83123094 149.36
5.7900543 3.4296868 -1.2679216 149.36
7.5395417 4.4340425 -1.4370363 149.53999
8.0954905 4.7609987 -1.3199177 149.53999
8.8936758 5.2304158 -1.2065735 149.53999
8.8709364 5.2170424 -0.96013105 149.53999
8.8533611 5.206706 -0.71821266 149.53999
2.8049357 1.6495968 -1.4487959 149.53999
8.8464022 5.2026138 -0.47859812 149.53999
2.8140774 1.654973 -1.3636264 149.53999
2.7701368 1.6291314 -1.2548996 149.53999
8.8629122 5.2123232 0 149.53999
2.9807975 1.7530221 -1.2586341 149.53999
8.8139896 5.1835518 0.23740001 149.53999
3.06234 1.8009776 -1.2004387 149.53999
3.1696317 1.8640764 -1.1474135 149.53999
3.1486478 1.8517356 -1.0474219 149.53999
5.9082251 3.4746571 -1.6240594 149.53999
4.682838 2.7540004 -1.1547415 149.53999
5.8075771 3.4154654 -1.2694027 149.53999
7.5680017 4.4206114 -1.4399544 149.71001
8.1215525 4.7439504 -1.3218662 149.71001
9.1235657 5.3292456 -1.2356111 149.71001
2.7782645 1.6228364 -1.4325265 149.71001
3.0070133 1.7564527 -1.4545863 149.71001
8.8793993 5.1866236 -0.23874623 149.71001
2.795871 1.6331207 -1.2643569 149.71001
25.009939 14.608773 0 149.71001
3.0427845 1.7773473 -1.2825755 149.71001
3.0398567 1.7756371 -1.1895547 149.71001
3.13888 1.8334786 -1.134307 149.71001
3.1640885 1.8482033 -1.0507296 149.71001
5.9605198 3.4816511 -1.6355875 149.71001
4.6926775 2.7410808 -1.1551573 149.71001
5.8635073 3.4249842 -1.2794009 149.71001
7.5947413 4.4060602 -1.4425484 149.88
8.1304522 4.7168508 -1.3210311 149.88
9.0688896 5.261282 -1.2260867 149.88
8.9086285 5.1683068 -0.9608742 149.88
12.40806 7.1984887 -1.0030981 149.88
2.7340753 1.5861634 -1.4073088 149.88
15.708198 9.1130514 -0.84688669 149.88
2.8254449 1.639171 -1.3643973 149.88
8.8688068 5.1452045 -0.23804991 149.88
2.7733097 1.608925 -1.2519897 149.88
24.840389 14.411057 0 149.88
2.9586351 1.7164409 -1.2449533 149.88
3.040195 1.7637575 -1.187634 149.88
3.1938488 1.8528992 -1.1521795 149.88
3.2327499 1.8754675 -1.071678 149.88
3.2500477 1.8855028 -0.98362863 149.88
3.4979904 2.0293458 -0.95820427 149.88
6.4047842 3.7157109 -1.5738915 149.88
5.8396425 3.3878465 -1.2719949 149.88
7.6085458 4.3821788 -1.4425484 150.06
8.1246357 4.6794233 -1.317691 150.06
8.9442215 5.1514678 -1.207038 150.06
8.7004929 5.0110912 -0.93672228 150.06
10.705196 6.1657095 -0.86386418 150.06
2.7358785 1.5757424 -1.4056818 150.06
13.659291 7.867135 -0.7350865 150.06
2.8897507 1.664366 -1.3929186 150.06
19.977226 11.50598 -0.53524095 150.06
2.7961087 1.6104324 -1.2599919 150.06
21.93581 12.634036 0 150.06
2.8174407 1.6227187 -1.1833897 150.06
8.8676014 5.107338 0.23758569 150.06
2.9718354 1.7116431 -1.1588235 150.06
3.0772269 1.7723438 -1.1080941 150.06
3.2736111 1.8854522 -1.0832548 150.06
3.3464916 1.927428 -1.0109798 150.06
3.5448222 2.0416574 -0.96927112 150.06
6.4350729 3.7063115 -1.5784656 150.06
7.5967727 4.3471918 -1.438009 150.22
8.070631 4.6183538 -1.3068354 150.22
