# .PCD v0.7 - Point Cloud Data file format
VERSION 0.7
FIELDS x y z intensity
SIZE 4 4 4 4
TYPE F F F F
COUNT 1 1 1 1
WIDTH 1208
HEIGHT 1
VIEWPOINT 0 0 0 1 0 0 0
POINTS 1208
DATA ascii
7.2183065 -4.4095325 -1.3896971 211.42
8.1295156 -4.9661732 -1.3388453 211.42
8.2962399 -5.0680223 -1.136883 211.42
8.0940428 -4.9445038 -0.88488859 211.42
2.7363653 -1.6715959 -1.4276456 211.42
16.776068 -10.248195 -0.91676182 211.42
2.6127181 -1.5960619 -1.2788334 211.42
22.473387 -13.728583 -0.61141872 211.42
35.791996 -21.864681 0 211.42
3.0857282 -1.8850154 -1.3160936 211.42
7.7465019 -4.7321973 0.21075401 211.42
4.3964214 -2.685694 -1.7407962 211.42
4.6531677 -2.8425355 -1.7014606 211.42
5.0235834 -3.0688159 -1.6880032 211.42
5.387536 -3.2911477 -1.6527189 211.42
5.7943754 -3.5396786 -1.6088425 211.42
6.3472161 -3.8773992 -1.5809605 211.42
6.8732805 -4.1987624 -1.5175066 211.42
7.1825662 -4.4187441 -1.385482 211.60001
7.9957919 -4.919044 -1.319361 211.60001
8.4257822 -5.1835761 -1.1568609 211.60001
2.7248757 -1.6763546 -1.4243917 211.60001
2.6186938 -1.6110312 -1.2842293 211.60001
22.309235 -13.724732 -0.60812283 211.60001
2.6134083 -1.6077795 -1.1981564 211.60001
2.6251857 -1.615025 -1.1218261 211.60001
2.6595666 -1.6361763 -1.0551056 211.60001
4.6458406 -2.8581402 -1.7020563 211.60001
5.0237427 -3.090627 -1.6913108 211.60001
5.3788176 -3.3090708 -1.6532254 211.60001
5.7799115 -3.5558252 -1.6079203 211.60001
6.351666 -3.9075711 -1.5851188 211.60001
6.851686 -4.2151852 -1.515655 211.60001
7.233182 -4.4795213 -1.3978031 211.77
7.9862132 -4.9458747 -1.320196 211.77
8.0337572 -4.9753184 -1.1050577 211.77
8.129714 -5.0347452 -0.89213413 211.77
8.0925465 -5.0117273 -0.66561627 211.77
2.8845434 -1.7864023 -1.5106199 211.77
2.6813679 -1.6605755 -1.3173757 211.77
21.811146 -13.507678 -0.59563541 211.77
2.6181295 -1.6214119 -1.2025212 211.77
8.4846811 -5.2545772 0 211.77
2.6235778 -1.624786 -1.1231941 211.77
7.7463479 -4.7973261 0.21154319 211.77
2.659533 -1.6470531 -1.0570263 211.77
4.6422095 -2.8749278 -1.7038436 211.77
5.0080123 -3.1014702 -1.6891057 211.77
5.3706207 -3.3260341 -1.6537319 211.77
5.7924991 -3.5873039 -1.6143759 211.77
6.3350549 -3.9233096 -1.5838712 211.77
6.8424907 -4.2375655 -1.5163957 211.77
7.2172947 -4.4976149 -1.3971546 211.92999
8.1395311 -5.0723267 -1.1215512 211.92999
8.3471594 -5.2017155 -0.91758651 211.92999
3.1400514 -1.9567918 -1.6472834 211.92999
2.7988877 -1.7441882 -1.3775016 211.92999
2.6246593 -1.6356139 -1.2076135 211.92999
7.8062954 -4.8646636 0 211.92999
2.6126504 -1.6281302 -1.120458 211.92999
4.6374035 -2.8898995 -1.7050351 211.92999
4.9879107 -3.1083255 -1.6852468 211.92999
5.3629537 -3.342042 -1.6542385 211.92999
5.7907171 -3.6086121 -1.6166816 211.92999
6.3356962 -3.9482276 -1.586782 211.92999
6.847311 -4.2670517 -1.5200987 211.92999
7.2172928 -4.5273991 -1.3997486 212.10001
8.4071512 -5.2737961 -1.1605778 212.10001
8.635335 -5.416935 -0.95102763 212.10001
8.1970663 -5.1420097 -0.67663777 212.10001
2.9206398 -1.8321139 -1.535024 212.10001
7.8324485 -4.9132857 -0.43117619 212.10001
2.8093338 -1.7622918 -1.38521 212.10001
8.4452238 -5.2976789 -0.23145804 212.10001
2.9243855 -1.8344636 -1.3480167 212.10001
8.4475002 -5.2991066 0 212.10001
2.6014397 -1.6318802 -1.1177218 212.10001
7.7778716 -4.8790498 0.21316794 212.10001
4.6191049 -2.8975589 -1.7014606 212.10001
4.9998379 -3.1363924 -1.6924133 212.10001
5.3415413 -3.3507423 -1.6506929 212.10001
5.7750387 -3.6226749 -1.6152982 212.10001
6.3272681 -3.9690878 -1.5876137 212.10001
6.8396153 -4.2904825 -1.5212096 212.10001
7.234736 -4.5700765 -1.4059091 212.28
8.0373163 -5.0770545 -1.3360617 212.28
8.3351202 -5.265173 -1.1529118 212.28
8.0222845 -5.0675592 -0.88526016 212.28
8.1319551 -5.1368365 -0.67259192 212.28
2.896333 -1.829571 -1.5252624 212.28
3.1283174 -1.976112 -1.5455461 212.28
3.1926703 -2.016763 -1.4745979 212.28
3.3303828 -2.1037538 -1.4337485 212.28
4.624506 -2.9212327 -1.7068223 212.28
4.9899602 -3.1520844 -1.6924133 212.28
5.3408027 -3.3737066 -1.6537319 212.28
5.7784376 -3.6501539 -1.6194483 212.28
6.3197293 -3.9920802 -1.5888611 212.28
6.8925691 -4.3539343 -1.5360218 212.28
7.1104393 -4.5228739 -1.3845092 212.46001
8.0180864 -5.1002188 -0.88656062 212.46001
8.2336168 -5.2373147 -0.68235785 212.46001
2.8905709 -1.838661 -1.5252624 212.46001
3.1392224 -1.9968256 -1.5540253 212.46001
3.2601998 -2.0737779 -1.5087894 212.46001
8.4056005 -5.3467116 0 212.46001
3.3253429 -2.1152148 -1.4344325 212.46001
7.7774301 -4.9471393 0.21400352 212.46001
4.3277659 -2.7528453 -1.7331134 212.46001
4.6056404 -2.9295983 -1.7032478 212.46001
4.9621892 -3.156395 -1.6863494 212.46001
5.3252802 -3.3873532 -1.6522125 212.46001
5.776794 -3.6745565 -1.6222149 212.46001
6.3121085 -4.0150642 -1.5901086 212.46001
6.912024 -4.3966637 -1.5434278 212.46001
7.0944567 -4.5405846 -1.3838607 212.62
7.9620075 -5.0958333 -1.3285464 212.62
8.4894466 -5.433404 -1.1786972 212.62
8.4928684 -5.4355941 -0.70509845 212.62
2.902353 -1.8575599 -1.5342106 212.62
3.0916657 -1.9787235 -1.5332125 212.62
3.2889171 -2.1049683 -1.524794 212.62
3.3257549 -2.128545 -1.4371686 212.62
4.5845771 -2.9342148 -1.6984818 212.62
4.9549747 -3.1712761 -1.6869006 212.62
5.3206887 -3.40534 -1.6537319 212.62
5.773067 -3.6948702 -1.6240594 212.62
6.3157015 -4.0421667 -1.593851 212.62
6.9013743 -4.4170084 -1.5437982 212.62
7.1929622 -4.6355476 -1.4059091 212.8
8.2139874 -5.2935538 -1.3733602 212.8
8.4105539 -5.4202323 -1.1701021 212.8
8.3499727 -5.3811898 -0.69463497 212.8
2.9901862 -1.9270436 -1.5838325 212.8
3.0838828 -1.9874269 -1.5324416 212.8
8.2723083 -5.3311391 -0.22848706 212.8
4.0520549 -2.611371 -1.7545633 212.8
7.8353314 -5.0495267 0.21641745 212.8
4.2524252 -2.7405012 -1.7094247 212.8
4.5865703 -2.9558427 -1.7026521 212.8
4.9562993 -3.1941171 -1.6907595 212.8
5.2937012 -3.4115577 -1.648667 212.8
5.7614307 -3.7129886 -1.6240594 212.8
6.1631975 -3.97191 -1.558506 212.8
6.8792038 -4.4333444 -1.5419466 212.8
7.2007008 -4.6708312 -1.4101243 212.97
8.1085196 -5.2597003 -1.3583294 212.97
8.5227594 -5.5284023 -1.1879894 212.97
8.4468384 -5.4791551 -0.93932325 212.97
7.9925094 -5.1844487 -0.66617435 212.97
3.1162803 -2.0214171 -1.6537912 212.97
8.3452511 -5.413259 -0.46387777 212.97
3.0439103 -1.9744734 -1.515483 212.97
7.9796734 -5.1761222 -0.2208275 212.97
2.9305797 -1.9009598 -1.3640213 212.97
7.8073211 -5.0643234 0 212.97
4.0837069 -2.6489513 -1.7716644 212.97
7.7649589 -5.0368447 0.21488553 212.97
4.2951431 -2.7861023 -1.7299122 212.97
4.5841866 -2.9735944 -1.7050351 212.97
4.9629297 -3.2192709 -1.6962723 212.97
5.3208895 -3.4514663 -1.6603165 212.97
5.7650828 -3.7395985 -1.6282095 212.97
6.3073039 -4.0913177 -1.5980092 212.97
6.8610725 -4.4505272 -1.5408357 212.97
7.0876589 -4.6274409 -1.3906698 213.14
8.2819328 -5.407167 -1.3900609 213.14
8.0372572 -5.2474213 -1.1224804 213.14
8.2171125 -5.3648467 -0.9155429 213.14
8.3329287 -5.4404612 -0.69589061 213.14
3.0567229 -1.9956948 -1.6253196 213.14
8.5884457 -5.607285 -0.47831863 213.14
2.9453213 -1.9229621 -1.4692323 213.14
7.8705239 -5.1385632 -0.21822789 213.14
2.9264865 -1.9106652 -1.3647488 213.14
27.70414 -18.087675 0 213.14
4.0301929 -2.6312606 -1.7518271 213.14
7.8152747 -5.1024919 0.21669598 213.14
4.2963772 -2.8050489 -1.7337536 213.14
4.5801396 -2.990314 -1.7068223 213.14
4.9597955 -3.2381861 -1.6984774 213.14
5.3090053 -3.4661808 -1.6598099 213.14
5.7458143 -3.7513678 -1.625904 213.14
6.1722813 -4.0298023 -1.5668225 213.14
6.8692317 -4.4848328 -1.5456496 213.14
7.2198653 -4.7425652 -1.419203 213.3
8.4555111 -5.5542326 -1.4217924 213.3
8.2237358 -5.4019852 -0.91795808 213.3
8.2726793 -5.434135 -0.69212371 213.3
3.0496109 -2.0032198 -1.6245061 213.3
8.0551157 -5.2912216 -0.4494369 213.3
2.9337699 -1.9271266 -1.4661489 213.3
3.0145662 -1.9801998 -1.4083974 213.3
27.498062 -18.062851 0 213.3
4.0338249 -2.6497276 -1.7566154 213.3
7.8026667 -5.1253939 0.2167424 213.3
4.288527 -2.8170357 -1.7337536 213.3
4.5701756 -3.0020442 -1.7062266 213.3
4.9459128 -3.2488573 -1.6968236 213.3
5.3106251 -3.4884286 -1.6633555 213.3
5.7401958 -3.7706039 -1.6272873 213.3
6.2149615 -4.0824666 -1.5805447 213.3
6.8566813 -4.5039978 -1.5456496 213.3
7.1827021 -4.7523241 -1.4149878 213.49001
8.4634733 -5.5997272 -1.4262459 213.49001
8.4589815 -5.596755 -1.1861309 213.49001
8.265564 -5.4687834 -0.92464632 213.49001
8.2795725 -5.4780517 -0.69421643 213.49001
3.0566649 -2.0223954 -1.6318274 213.49001
8.0042019 -5.2958565 -0.44757357 213.49001
2.939676 -1.9449914 -1.4723157 213.49001
8.0274172 -5.3112168 -0.22347353 213.49001
2.9800162 -1.9716818 -1.3953029 213.49001
7.7893934 -5.1537318 0 213.49001
4.0218811 -2.6610155 -1.7552474 213.49001
4.2854824 -2.8354235 -1.7363145 213.49001
4.5601954 -3.0171831 -1.7062266 213.49001
4.9110618 -3.2493281 -1.6885544 213.49001
5.3087091 -3.5124257 -1.6663946 213.49001
5.7341523 -3.7939136 -1.6291318 213.49001
6.2797022 -4.1548681 -1.6005042 213.49001
6.8433466 -4.5277948 -1.54602 213.49001
7.1759491 -4.7803364 -1.416609 213.67
8.2348585 -5.4857407 -1.3906176 213.67
8.2118826 -5.4704347 -0.92055905 213.67
8.245717 -5.4929743 -0.69282132 213.67
2.9864316 -1.989444 -1.5976615 213.67
7.9359818 -5.2866406 -0.4446854 213.67
3.0272405 -2.0166292 -1.5193373 213.67
8.0972214 -5.3940525 -0.22588745 213.67
3.0420282 -2.0264802 -1.4273119 213.67
27.673796 -18.4352 0 213.67
4.0338349 -2.6871829 -1.7641399 213.67
7.7577572 -5.1679144 0.21641745 213.67
4.2718229 -2.8457215 -1.7343938 213.67
4.5665836 -3.0420792 -1.7121841 213.67
4.9232292 -3.2796628 -1.6962723 213.67
5.286377 -3.5215776 -1.6628491 213.67
5.7303033 -3.8173039 -1.6314373 213.67
6.2845278 -4.1865063 -1.6050782 213.67
6.8519883 -4.5645266 -1.5512042 213.67
7.0937166 -4.75421 -1.4029909 213.83
7.7555561 -5.1977749 -1.312124 213.83
8.541131 -5.7242675 -1.202392 213.83
8.2577801 -5.5343652 -0.92743307 213.83
8.2701225 -5.5426373 -0.69616961 213.83
2.947474 -1.9753976 -1.5797651 213.83
7.9112301 -5.3021078 -0.4441264 213.83
3.0231302 -2.0261023 -1.5201081 213.83
3.2592092 -2.1843226 -1.5320687 213.83
7.7819328 -5.2154527 0 213.83
4.0559778 -2.7183168 -1.7771367 213.83
4.2654338 -2.8586943 -1.7350341 213.83
4.5533128 -3.051631 -1.7103968 213.83
4.9204397 -3.2976797 -1.6984774 213.83
5.3006306 -3.5524836 -1.6704465 213.83
5.7228546 -3.835458 -1.6323596 213.83
6.2191844 -4.1680984 -1.591356 213.83
6.8653378 -4.6011505 -1.5571291 213.83
7.9706745 -5.3783121 -1.3513708 214.00999
7.8957286 -5.3277416 -1.1138852 214.00999
8.1693716 -5.5123854 -0.91944438 214.00999
8.2129765 -5.5418086 -0.69282132 214.00999
2.9791172 -2.0101964 -1.6001019 214.00999
7.9392481 -5.3571067 -0.44664189 214.00999
3.1406634 -2.1192017 -1.5825466 214.00999
7.7700472 -5.2429366 -0.21762441 214.00999
3.297116 -2.2247703 -1.5531656 214.00999
27.462782 -18.530855 0 214.00999
4.0427442 -2.7278922 -1.7750845 214.00999
7.7816491 -5.2507648 0.21794936 214.00999
4.2548609 -2.8710206 -1.7343938 214.00999
4.5468683 -3.0680563 -1.7115883 214.00999
4.908462 -3.3120461 -1.6979262 214.00999
5.289444 -3.5691185 -1.6704465 214.00999
5.7156167 -3.8566835 -1.6337429 214.00999
6.2368708 -4.2084064 -1.5992568 214.00999
6.8606243 -4.629292 -1.559351 214.00999
7.1461759 -4.8528905 -1.419203 214.17999
7.8104982 -5.3040242 -1.3268764 214.17999
8.3827524 -5.6926365 -1.1849694 214.17999
8.2715931 -5.6171489 -0.9328208 214.17999
3.0260427 -2.0549526 -1.6285735 214.17999
7.7497787 -5.2627907 -0.43685937 214.17999
3.1832168 -2.1616879 -1.6072137 214.17999
3.2149808 -2.1832585 -1.5175191 214.17999
7.807838 -5.302218 0 214.17999
3.2308156 -2.1940117 -1.4214357 214.17999
3.2023771 -2.1746995 -1.3079981 214.17999
4.5503807 -3.0901141 -1.7163543 214.17999
4.8970227 -3.325515 -1.6973748 214.17999
5.278831 -3.5847967 -1.6704465 214.17999
5.7105885 -3.8779984 -1.6355875 214.17999
6.2227383 -4.2257938 -1.598841 214.17999
6.845233 -4.6485233 -1.5589806 214.17999
7.0966825 -4.8519263 -1.4123939 214.36
8.1549282 -5.5754371 -1.1552348 214.36
8.183219 -5.5947795 -0.92483211 214.36
8.0257998 -5.487154 -0.67984658 214.36
2.8898599 -1.9757664 -1.5586149 214.36
7.6606412 -5.2374988 -0.43276003 214.36
3.0789087 -2.1050169 -1.5578796 214.36
7.9095345 -5.4076643 -0.22245225 214.36
3.1542788 -2.1565468 -1.4920574 214.36
8.2633324 -5.6495523 0 214.36
3.1401289 -2.1468725 -1.3844975 214.36
7.7890429 -5.3252854 0.21906348 214.36
3.1939652 -2.1836801 -1.3073578 214.36
80.409523 -54.975132 4.5424433 214.36
4.5453787 -3.1076269 -1.7181416 214.36
4.8976607 -3.3484783 -1.7012337 214.36
5.2723346 -3.6046388 -1.6719661 214.36
5.704803 -3.9003131 -1.6374319 214.36
6.2191215 -4.2519469 -1.6013359 214.36
6.8387074 -4.6755514 -1.5608321 214.36
6.9408455 -4.7720947 -1.3838607 214.50999
7.4419923 -5.1166525 -1.2692587 214.50999
8.1730413 -5.619276 -1.1598809 214.50999
8.2276173 -5.6567988 -0.93152034 214.50999
7.7960382 -5.3600721 -0.66157037 214.50999
2.7853098 -1.9150062 -1.5049256 214.50999
7.7094612 -5.3005476 -0.43630037 214.50999
3.0414519 -2.0911136 -1.5416918 214.50999
8.1309586 -5.5903425 -0.22909054 214.50999
3.213099 -2.2091277 -1.5226115 214.50999
7.8035388 -5.3652291 0 214.50999
3.1406922 -2.1593451 -1.3872337 214.50999
3.1835535 -2.1888139 -1.3054371 214.50999
4.5309343 -3.1151896 -1.7157586 214.50999
4.8952146 -3.3656459 -1.7034389 214.50999
5.2517195 -3.6107564 -1.6684206 214.50999
5.6961761 -3.9163375 -1.637893 214.50999
6.2192531 -4.2759724 -1.6042466 214.50999
6.8021502 -4.6767364 -1.5552776 214.50999
7.0142221 -4.8568778 -1.4016939 214.7
7.2328463 -5.0082603 -1.2364138 214.7
8.0678053 -5.5864129 -1.1475689 214.7
7.7273717 -5.3506861 -0.65724552 214.7
2.7188587 -1.882627 -1.4723866 214.7
7.7214069 -5.3465557 -0.43797737 214.7
2.8979483 -2.0066345 -1.4723157 214.7
8.1238823 -5.6252427 -0.22941549 214.7
3.1980975 -2.2144675 -1.5189741 214.7
27.426725 -18.991165 0 214.7
3.1396947 -2.1740277 -1.3899698 214.7
7.7901821 -5.3941779 0.21999191 214.7
4.2511334 -2.9436245 -1.7471986 214.7
4.5284276 -3.1356318 -1.7187372 214.7
4.8824463 -3.3807659 -1.7028875 214.7
5.2444887 -3.6314561 -1.6699401 214.7
5.6927576 -3.9418523 -1.6406597 214.7
6.1583967 -4.264276 -1.5921878 214.7
6.7575188 -4.6791277 -1.5486121 214.7
7.0062571 -4.8821812 -1.4029909 214.87
7.3674488 -5.1338706 -1.2620217 214.87
8.0153389 -5.5853405 -1.1424583 214.87
7.8096008 -5.4419761 -0.88804692 214.87
8.0568485 -5.6142664 -0.6866827 214.87
2.7312493 -1.9032207 -1.4821483 214.87
7.6776443 -5.3500247 -0.43639353 214.87
2.9358914 -2.0458217 -1.4946702 214.87
8.0513811 -5.610456 -0.22783716 214.87
3.1609428 -2.2026446 -1.5044246 214.87
3.313638 -2.3090475 -1.4700025 214.87
4.2361627 -2.9518917 -1.7446376 214.87
4.5253696 -3.1534202 -1.7211202 214.87
4.8802805 -3.4007332 -1.705644 214.87
5.2321033 -3.6458948 -1.6694336 214.87
5.6890206 -3.9642889 -1.6429653 214.87
6.1970787 -4.3183198 -1.605494 214.87
6.8242321 -4.7553401 -1.5671273 214.87
7.1242394 -4.995862 -1.4295787 215.03999
7.3408327 -5.1477475 -1.2600733 215.03999
8.0589085 -5.6512976 -1.1510534 215.03999
7.7559204 -5.438827 -0.88377386 215.03999
7.850668 -5.5052691 -0.67049921 215.03999
2.8497529 -1.9983848 -1.5496666 215.03999
7.588129 -5.3211637 -0.43220103 215.03999
3.1625009 -2.2176988 -1.6133804 215.03999
7.6925526 -5.3943911 -0.21813504 215.03999
3.1040576 -2.1767156 -1.4804177 215.03999
7.7858653 -5.459826 0.22078107 215.03999
4.2304883 -2.9666235 -1.745918 215.03999
4.5159931 -3.1668334 -1.7211202 215.03999
4.8717427 -3.4163022 -1.7061952 215.03999
5.2212629 -3.6614027 -1.6694336 215.03999
5.6788268 -3.9822683 -1.6434264 215.03999
6.1473994 -4.3108544 -1.5959301 215.03999
6.7795181 -4.754127 -1.5600915 215.03999
7.0988359 -5.0113897 -1.4276333 215.22
7.1984215 -5.0816917 -1.2383622 215.22
7.9875617 -5.6387815 -1.1433874 215.22
7.6476932 -5.3988533 -0.87336999 215.22
7.5252814 -5.3124371 -0.6441313 215.22
2.8554018 -2.0157576 -1.5561744 215.22
7.7835493 -5.49476 -0.44431272 215.22
2.9625385 -2.0913901 -1.5147122 215.22
3.1702583 -2.238029 -1.5153368 215.22
7.9096484 -5.5837789 0 215.22
3.9919147 -2.8180735 -1.7785047 215.22
4.2010245 -2.9656937 -1.737595 215.22
4.496664 -3.1743987 -1.7175457 215.22
4.8578448 -3.4293728 -1.7050927 215.22
5.2302828 -3.6922934 -1.6760181 215.22
5.6646981 -3.9989669 -1.6429653 215.22
6.1993513 -4.3764029 -1.6129789 215.22
6.7966623 -4.7980719 -1.5674976 215.22
7.0839357 -5.0324306 -1.4276333 215.39
7.1526351 -5.0812345 -1.2330737 215.39
7.8898249 -5.6049347 -1.1317724 215.39
7.6219006 -5.4146008 -0.87225527 215.39
7.6851468 -5.4595308 -0.6591987 215.39
2.9864421 -2.1215696 -1.631014 215.39
2.9126899 -2.069176 -1.4923576 215.39
7.747478 -5.5038114 -0.22064181 215.39
3.321656 -2.3597057 -1.4829993 215.39
7.8045287 -5.5443401 0.22226657 215.39
4.2061086 -2.9880211 -1.7433571 215.39
4.4856691 -3.186621 -1.7169501 215.39
4.8445139 -3.4415443 -1.7039901 215.39
5.2224588 -3.7100368 -1.677031 215.39
5.6543946 -4.0168839 -1.6434264 215.39
6.1719856 -4.3845811 -1.6092365 215.39
6.7631688 -4.8045578 -1.563054 215.39
7.05934 -5.0465403 -1.4256878 215.56
7.8004398 -5.5763335 -1.1213188 215.56
7.5879817 -5.4244528 -0.87021166 215.56
7.8977642 -5.6459084 -0.67887002 215.56
2.941489 -2.1027946 -1.6098636 215.56
7.848321 -5.6105623 -0.44990274 215.56
2.9080391 -2.0788822 -1.4931285 215.56
7.779911 -5.5616579 -0.22203445 215.56
3.0144587 -2.154959 -1.4469538 215.56
7.6648626 -5.479413 0 215.56
3.3115821 -2.3673649 -1.4816313 215.56
4.2110972 -3.0104051 -1.7491193 215.56
4.4917259 -3.2110193 -1.7229075 215.56
4.8452291 -3.4637296 -1.707849 215.56
5.1988363 -3.7165141 -1.6729791 215.56
5.6614494 -4.0472245 -1.6489599 215.56
6.0730104 -4.3414388 -1.586782 215.56
6.5202436 -4.6611543 -1.5101005 215.56
7.095602 -5.1043429 -1.4360635 215.73
7.4374766 -5.3502765 -1.2876295 215.73
7.7790227 -5.5959735 -1.1206219 215.73
7.6187334 -5.4806666 -0.87559938 215.73
7.8842168 -5.6716466 -0.67914903 215.73
2.9055731 -2.0901737 -1.5935942 215.73
7.8705626 -5.6618242 -0.45213875 215.73
2.888375 -2.0778022 -1.4861909 215.73
7.6773496 -5.5228333 -0.21957411 215.73
3.6553345 -2.6295276 -1.7583144 215.73
7.4099083 -5.3304448 0 215.73
4.2129135 -3.0306315 -1.7536008 215.73
4.4899282 -3.2299068 -1.7258862 215.73
4.8474159 -3.4870718 -1.7122593 215.73
5.1972103 -3.7387023 -1.6760181 215.73
5.6509962 -4.0651407 -1.649421 215.73
6.0823355 -4.3754325 -1.5926036 215.73
6.5606313 -4.7195024 -1.5226908 215.73
7.01648 -5.0790844 -1.4230939 215.89999
7.7793317 -5.6312971 -1.3497007 215.89999
7.8153648 -5.6573806 -0.90012282 215.89999
7.8883638 -5.7102232 -0.68096268 215.89999
2.9185989 -2.1127133 -1.6041694 215.89999
7.6951332 -5.5703473 -0.44300839 215.89999
2.8762178 -2.0820343 -1.4831076 215.89999
7.5119219 -5.4377246 -0.21530333 215.89999
3.7184446 -2.691705 -1.7925059 215.89999
7.3940601 -5.352407 0 215.89999
7.65769 -5.5432434 0.21948127 215.89999
4.1977634 -3.0386741 -1.75104 215.89999
4.483418 -3.2454534 -1.7270777 215.89999
4.8308191 -3.4969299 -1.7100542 215.89999
5.1939306 -3.7597787 -1.6785506 215.89999
5.6452155 -4.0864544 -1.6512654 215.89999
6.1438065 -4.4473743 -1.6121472 215.89999
6.6771493 -4.8334498 -1.5530558 215.89999
6.9893236 -5.0929666 -1.4208242 216.08
7.5679226 -5.5145783 -1.3160208 216.08
7.8217554 -5.6995411 -1.1317724 216.08
8.0035563 -5.8320155 -0.92390317 216.08
2.9931629 -2.181052 -1.6489104 216.08
3.023288 -2.2030034 -1.5625046 216.08
7.4786425 -5.449522 -0.21483912 216.08
3.7446005 -2.7286079 -1.8092378 216.08
7.3626609 -5.3650093 0 216.08
7.8002172 -5.683847 0.22407702 216.08
4.2065725 -3.0652368 -1.7587228 216.08
4.4685712 -3.2561495 -1.7252905 216.08
4.8104868 -3.5052958 -1.7067465 216.08
5.1899118 -3.7817745 -1.6810831 216.08
5.6197667 -4.0950003 -1.6475765 216.08
6.1092505 -4.4516764 -1.6067415 216.08
6.7254696 -4.9007015 -1.567868 216.08
7.0060129 -5.1370211 -1.427309 216.25
7.9537935 -5.8319626 -1.1533765 216.25
7.989429 -5.8580918 -0.92427474 216.25
2.9748907 -2.1812801 -1.6424025 216.25
7.7946868 -5.715301 -0.45074123 216.25
3.1268709 -2.2927165 -1.6195472 216.25
3.2061381 -2.3508377 -1.5524381 216.25
7.3241301 -5.3702741 0 216.25
3.9497058 -2.8960443 -1.782609 216.25
7.7929935 -5.7140594 0.22435553 216.25
4.1959314 -3.0765841 -1.7580825 216.25
4.4619694 -3.2716515 -1.726482 216.25
4.8093677 -3.5263741 -1.7100542 216.25
5.1771078 -3.7960126 -1.6805766 216.25
5.6201477 -4.1208625 -1.6512654 216.25
6.141767 -4.5033298 -1.6188004 216.25
6.6585941 -4.8822832 -1.5556479 216.25
7.0669684 -5.2140269 -1.4428726 216.42
7.9620304 -5.8744063 -1.1570933 216.42
8.0200853 -5.9172392 -0.92984825 216.42
7.8859844 -5.8182993 -0.68528759 216.42
2.9478223 -2.1749108 -1.631014 216.42
7.8259239 -5.7739863 -0.45353624 216.42
3.0888689 -2.2789752 -1.6033595 216.42
7.7454352 -5.714602 -0.22347353 216.42
3.936559 -2.9044032 -1.7805569 216.42
4.1944079 -3.0946448 -1.7612836 216.42
4.4660697 -3.2950776 -1.7318437 216.42
4.8004303 -3.5417697 -1.7106054 216.42
5.1751637 -3.8182487 -1.6836157 216.42
5.626688 -4.1513848 -1.6567988 216.42
6.1425462 -4.5319862 -1.6225429 216.42
6.7105036 -4.9510264 -1.5712007 216.42
7.0362935 -5.2256126 -1.4399544 216.60001
7.9275885 -5.887547 -1.1547703 216.60001
8.0486612 -5.9774637 -0.70105255 216.60001
3.0260508 -2.2473435 -1.6781954 216.60001
7.4260192 -5.5150485 -0.43136254 216.60001
3.1187336 -2.3161759 -1.6226306 216.60001
8.061326 -5.9868693 -0.23312922 216.60001
3.0660834 -2.2770743 -1.4913299 216.60001
3.9259062 -2.9156353 -1.7798728 216.60001
7.6006331 -5.6447287 0.21980622 216.60001
4.181623 -3.1055472 -1.7600032 216.60001
4.4510975 -3.3056767 -1.7300565 216.60001
4.7969971 -3.5625644 -1.7133619 216.60001
5.158483 -3.8310275 -1.6820961 216.60001
5.6229925 -4.176003 -1.6595656 216.60001
6.1267076 -4.5500946 -1.6221271 216.60001
6.6680927 -4.9521627 -1.5649055 216.60001
7.0270815 -5.2511921 -1.4412514 216.77
7.5739431 -5.6598506 -1.3288248 216.77
7.9196324 -5.9181771 -1.1561641 216.77
7.5562859 -5.6466556 -0.88005817 216.77
7.904634 -5.9069691 -0.69003105 216.77
3.1262109 -2.3361526 -1.737579 216.77
7.7408957 -5.7846107 -0.45064807 216.77
3.108891 -2.3232098 -1.621089 216.77
3.5995436 -2.6898644 -1.7546771 216.77
8.0392866 -6.0075922 0 216.77
3.9217546 -2.9306459 -1.781925 216.77
7.7984738 -5.8276377 0.22602671 216.77
4.1769433 -3.1213431 -1.7619239 216.77
4.445858 -3.3222976 -1.7318437 216.77
4.7894859 -3.5790834 -1.7144643 216.77
5.1284947 -3.832418 -1.6760181 216.77
5.6012239 -4.1856785 -1.6567988 216.77
6.1053448 -4.5623975 -1.6200479 216.77
6.6187334 -4.9460421 -1.5567588 216.77
6.9814997 -5.2494841 -1.4350908 216.94
7.8766346 -5.9225478 -1.1524472 216.94
7.5379066 -5.6678538 -0.87987238 216.94
7.9030194 -5.9423866 -0.69142616 216.94
3.0652335 -2.3047905 -1.7074804 216.94
7.4458561 -5.59864 -0.43443704 216.94
3.1698356 -2.3834422 -1.6565478 216.94
7.38482 -5.5527458 -0.21451417 216.94
3.2431133 -2.4385407 -1.5844471 216.94
3.9160461 -2.9445279 -1.783293 216.94
4.1722069 -3.1371388 -1.7638446 216.94
4.4436107 -3.3412108 -1.7348225 216.94
4.7757721 -3.5909677 -1.7133619 216.94
5.0784407 -3.8185482 -1.6633555 216.94
5.6012239 -4.2116356 -1.6604878 216.94
6.0917811 -4.5804925 -1.6200479 216.94
6.5946035 -4.9585714 -1.5545369 216.94
6.8912582 -5.2118173 -1.4195272 217.10001
7.7935214 -5.8941941 -1.1426905 217.10001
8.0572968 -6.0936861 -0.94248158 217.10001
2.9290893 -2.2152529 -1.6350813 217.10001
8.2986155 -6.2761936 -0.48521298 217.10001
3.1366727 -2.372247 -1.6426727 217.10001
7.4665637 -5.6469178 -0.21734588 217.10001
3.2348049 -2.4464638 -1.5837196 217.10001
3.9033113 -2.9520512 -1.7812409 217.10001
7.7918906 -5.8929605 0.22681588 217.10001
4.1619191 -3.1476347 -1.7632043 217.10001
4.4281721 -3.3490002 -1.7324395 217.10001
4.7626591 -3.6019707 -1.7122593 217.10001
5.0924482 -3.8513885 -1.6714596 217.10001
5.5972018 -4.2331305 -1.6627934 217.10001
6.0711646 -4.5915856 -1.6179688 217.10001
6.5462441 -4.9508858 -1.5463903 217.10001
6.8786473 -5.2382278 -1.4204999 217.28999
7.7897367 -5.9320407 -1.1450136 217.28999
7.8802018 -6.0009317 -0.92408895 217.28999
2.7632852 -2.1042972 -1.5464127 217.28999
7.9503345 -6.0543394 -0.46602061 217.28999
3.0568457 -2.3278494 -1.6049012 217.28999
7.8550239 -5.9817581 -0.22922981 217.28999
3.6980031 -2.8161035 -1.8150576 217.28999
8.3981342 -6.3953481 0 217.28999
3.9189188 -2.9843354 -1.7928696 217.28999
7.7786689 -5.9236121 0.22700156 217.28999
4.1529655 -3.1625667 -1.7638446 217.28999
4.4291935 -3.3729196 -1.7372055 217.28999
4.7598653 -3.624733 -1.7155669 217.28999
5.1242881 -3.9022481 -1.6861482 217.28999
5.5877786 -4.2552052 -1.6641767 217.28999
6.0667996 -4.6199899 -1.6208795 217.28999
6.6627007 -5.0737801 -1.5778662 217.28999
6.8693414 -5.2634158 -1.4217969 217.46001
7.8840551 -6.0409083 -1.161507 217.46001
7.3423142 -5.6258163 -0.86296606 217.46001
7.7315702 -5.9240713 -0.68110222 217.46001
2.7207718 -2.0847054 -1.5260758 217.46001
8.0052843 -6.1337962 -0.47030628 217.46001
3.041136 -2.3301744 -1.6002761 217.46001
3.7088559 -2.8417935 -1.8245149 217.46001
8.1822653 -6.269402 0 217.46001
3.9100468 -2.99595 -1.7928696 217.46001
7.7959757 -5.9734201 0.22802284 217.46001
4.1465721 -3.1771796 -1.765125 217.46001
4.420682 -3.3872077 -1.7378013 217.46001
4.7536678 -3.6423476 -1.7172208 217.46001
5.1234379 -3.9256723 -1.6896937 217.46001
5.576673 -4.2729497 -1.6646379 217.46001
6.0080323 -4.6034646 -1.6088207 217.46001
6.561811 -5.0277805 -1.5574994 217.46001
6.8715253 -5.2994332 -1.4256878 217.64
7.6448174 -5.8958087 -1.1289848 217.64
7.7966542 -6.0129075 -0.68849641 217.64
2.715656 -2.0943584 -1.5268893 217.64
2.8745115 -2.2168703 -1.5162538 217.64
7.7439218 -5.97224 -0.22704799 217.64
3.6940088 -2.8488803 -1.821605 217.64
7.8473673 -6.0520186 0 217.64
3.8946626 -3.003628 -1.7901335 217.64
7.8341699 -6.0418406 0.22969402 217.64
4.1200657 -3.1774626 -1.7580825 217.64
4.4206014 -3.4092405 -1.7419715 217.64
4.7391567 -3.6549156 -1.7161182 217.64
5.1202722 -3.9488382 -1.6927327 217.64
5.569386 -4.2952018 -1.6664823 217.64
6.02917 -4.6497951 -1.6183846 217.64
6.65804 -5.1347899 -1.5841613 217.64
6.7045293 -5.2024407 -1.3942364 217.81
7.551959 -5.8600116 -1.1178343 217.81
7.2967987 -5.6620173 -0.86166561 217.81
7.8670487 -6.1045079 -0.69630915 217.81
2.9851365 -2.3163438 -1.6822628 217.81
7.5493951 -5.8580217 -0.44561705 217.81
2.8125165 -2.1823978 -1.4869617 217.81
3.1497824 -2.4441023 -1.556803 217.81
3.8961272 -3.0232353 -1.7949218 217.81
7.8446431 -6.087122 0.23052961 217.81
4.1151109 -3.1931577 -1.7600032 217.81
4.4089584 -3.4211712 -1.7413758 217.81
4.7298102 -3.6701393 -1.7166694 217.81
5.1115904 -3.9663851 -1.6937457 217.81
5.5596924 -4.3140941 -1.6674045 217.81
6.0199842 -4.6712613 -1.6196321 217.81
6.6520925 -5.1617517 -1.5863831 217.81
6.8782282 -5.3680634 -1.4334697 217.97
7.6310911 -5.9556298 -1.1320047 217.97
7.2888079 -5.6884975 -0.86259449 217.97
7.3309388 -5.7213783 -0.65026987 217.97
2.9383264 -2.2931955 -1.6594855 217.97
7.8857965 -6.1544127 -0.46648642 217.97
2.8107758 -2.1936495 -1.4892743 217.97
3.1444135 -2.4540348 -1.5575304 217.97
7.9590101 -6.2115517 0 217.97
3.8891511 -3.03526 -1.7956058 217.97
4.1166339 -3.2127969 -1.7644849 217.97
4.3993874 -3.43347 -1.7413758 217.97
4.719543 -3.6833332 -1.7166694 217.97
5.0959187 -3.9770727 -1.6922262 217.97
5.5537601 -4.3343921 -1.6692491 217.97
6.005374 -4.6868505 -1.6192162 217.97
6.6407509 -5.1827259 -1.5871238 217.97
6.8715839 -5.395761 -1.435415 218.14
7.2729001 -5.7108855 -1.2995985 218.14
7.6149492 -5.9794726 -1.132237 218.14
7.2546697 -5.6965709 -0.86055088 218.14
7.2213497 -5.6704068 -0.64203858 218.14
2.7691269 -2.1743963 -1.5675631 218.14
7.4793901 -5.8730278 -0.44347423 218.14
2.808609 -2.2053988 -1.4915868 218.14
7.3219528 -5.749403 -0.21613891 218.14
3.6602156 -2.8741043 -1.8172401 218.14
3.8830845 -3.0491073 -1.7969738 218.14
7.7842927 -6.1124454 0.22978686 218.14
4.081749 -3.2051041 -1.7536008 218.14
4.3831744 -3.4417918 -1.7389928 218.14
4.7040572 -3.6937582 -1.7150156 218.14
5.1069221 -4.0100989 -1.6998237 218.14
5.5500593 -4.3580627 -1.6720158 218.14
5.996057 -4.7082729 -1.6204637 218.14
6.5727868 -5.1611371 -1.5745335 218.14
6.9289198 -5.4760594 -1.4509786 218.32001
7.1337228 -5.6379189 -1.2778875 218.32001
7.7301579 -6.109293 -1.1522149 218.32001
7.2507987 -5.7304463 -0.86222297 218.32001
2.7536812 -2.1762877 -1.5626822 218.32001
3.4517694 -2.7279999 -1.8376967 218.32001
3.6687081 -2.899451 -1.8259698 218.32001
3.8793843 -3.0659525 -1.79971 218.32001
7.8325052 -6.1901803 0.23178299 218.32001
4.0463886 -3.1979392 -1.7427169 218.32001
4.3798294 -3.4614639 -1.7419715 218.32001
4.6879048 -3.704942 -1.7133619 218.32001
5.0366158 -3.980535 -1.6805766 218.32001
5.5546627 -4.3899574 -1.6775491 218.32001
5.9981194 -4.7404299 -1.6250378 218.32001
6.5457463 -5.1732297 -1.5719413 218.32001
6.8817472 -5.4720283 -1.4444938 218.49001
6.9836459 -5.5530529 -1.2539496 218.49001
7.8503776 -6.2422357 -1.1728897 218.49001
7.2727308 -5.7829189 -0.86686754 218.49001
7.3661628 -5.8572116 -0.65808254 218.49001
2.7515023 -2.1878598 -1.5651226 218.49001
7.6482239 -6.0814929 -0.45567909 218.49001
3.4393265 -2.7347839 -1.8353841 218.49001
3.6673801 -2.9161208 -1.8296072 218.49001
3.8658574 -3.0739403 -1.7976578 218.49001
4.1006536 -3.2606387 -1.770247 218.49001
4.3680453 -3.4732556 -1.7413758 218.49001
4.6799011 -3.7212279 -1.7144643 218.49001
5.0353842 -4.0038905 -1.6841221 218.49001
5.5461826 -4.4100528 -1.6789325 218.49001
5.9809651 -4.7557707 -1.6242062 218.49001
5.9304051 -4.7155676 -1.4275227 218.49001
6.8756876 -5.49862 -1.4464393 218.64999
7.9477177 -6.3559432 -1.19008 218.64999
7.3794141 -5.9014597 -0.88154447 218.64999
7.2220097 -5.7755804 -0.64664251 218.64999
3.2248249 -2.5789547 -1.8384496 218.64999
3.4331174 -2.7455301 -1.8361549 218.64999
7.5718622 -6.0553641 -0.22509828 218.64999
3.6446729 -2.9147151 -1.8223325 218.64999
7.3099327 -5.8458943 0 218.64999
3.8645971 -3.0905929 -1.8010781 218.64999
7.765492 -6.2102137 0.23085456 218.64999
3.3930862 -2.7135165 -1.4680566 218.64999
4.3508739 -3.4794779 -1.738397 218.64999
4.6634855 -3.7294793 -1.7122593 218.64999
5.0680032 -4.0529799 -1.6988107 218.64999
5.5368857 -4.4279542 -1.6798548 218.64999
5.9432163 -4.7529049 -1.617553 218.64999
6.8896966 -5.5473819 -1.4532483 218.84
7.0498657 -5.6763458 -1.2720422 218.84
7.5939364 -6.1144152 -1.1401353 218.84
7.4218459 -5.9758534 -0.8889758 218.84
7.1577511 -5.7632117 -0.64259666 218.84
3.2191012 -2.5919261 -1.8400766 218.84
7.4241986 -5.9777474 -0.44449905 218.84
3.4254315 -2.7580571 -1.8369257 218.84
3.6175742 -2.9127648 -1.8136027 218.84
7.2172904 -5.811151 0 218.84
3.8513992 -3.1010339 -1.79971 218.84
7.6264944 -6.1406302 0.22732653 218.84
3.378166 -2.7200003 -1.4654956 218.84
4.3378248 -3.4926894 -1.7378013 218.84
4.6451025 -3.7401006 -1.7100542 218.84
5.0108318 -4.034575 -1.6841221 218.84
5.5252032 -4.4487319 -1.680777 218.84
5.9319935 -4.7762675 -1.6188004 218.84
6.7673945 -5.4820838 -1.4308757 219.00999
7.4044271 -5.9981265 -1.1143498 219.00999
7.4922819 -6.0692959 -0.89956552 219.00999
7.2165842 -5.8459601 -0.64943278 219.00999
3.2000389 -2.5922654 -1.8335688 219.00999
7.3831439 -5.980886 -0.44310156 219.00999
3.425837 -2.7751784 -1.8415508 219.00999
7.631546 -6.1821098 -0.22802284 219.00999
3.5929921 -2.9105861 -1.8056004 219.00999
7.1891379 -5.8237271 0 219.00999
3.5340476 -2.8628366 -1.6553775 219.00999
7.6035805 -6.1594558 0.22718726 219.00999
4.3333769 -3.5103517 -1.7401843 219.00999
4.6474299 -3.7647576 -1.7150156 219.00999
4.9928255 -4.0445533 -1.6820961 219.00999
5.5119796 -4.465106 -1.680777 219.00999
5.9436378 -4.8147812 -1.6258694 219.00999
6.5028267 -5.2677646 -1.5767553 219.00999
6.9229836 -5.6442361 -1.4675149 219.19
7.0027795 -5.7092929 -1.2698153 219.19
7.3870864 -6.022614 -1.1145821 219.19
7.4639173 -6.0852532 -0.89845079 219.19
7.137876 -5.8194351 -0.64399177 219.19
2.9483109 -2.4037271 -1.6936514 219.19
7.3999314 -6.0330868 -0.4452444 219.19
3.40995 -2.7800965 -1.8376967 219.19
3.5867183 -2.9242139 -1.8070555 219.19
7.2297111 -5.8943076 0 219.19
3.3560674 -2.7361667 -1.5760288 219.19
7.8352427 -6.387991 0.23470755 219.19
4.3326855 -3.532393 -1.7443545 219.19
4.6340895 -3.7781246 -1.7144643 219.19
5.0400777 -4.1091223 -1.7023562 219.19
5.499433 -4.4836302 -1.6812382 219.19
5.9512262 -4.8519721 -1.6321068 219.19
6.5045252 -5.303071 -1.5811989 219.19
6.9107842 -5.6685071 -1.4684876 219.36
6.955183 -5.7049246 -1.2642485 219.36
7.2248111 -5.9260845 -1.0927458 219.36
7.0527039 -5.7849154 -0.63785321 219.36
2.8408668 -2.3301947 -1.6358948 219.36
7.5318317 -6.1779156 -0.45428157 219.36
2.8437755 -2.3325806 -1.5362959 219.36
7.4034896 -6.0726438 -0.22231299 219.36
3.0897207 -2.5343149 -1.5604404 219.36
7.2261076 -5.9271479 0 219.36
3.2418582 -2.6591043 -1.5260938 219.36
7.8301678 -6.4226232 0.23512535 219.36
4.0286975 -3.3045018 -1.7606435 219.36
4.3266139 -3.5488651 -1.7461418 219.36
4.6317778 -3.7991731 -1.717772 219.36
5.0353432 -4.1301937 -1.7048887 219.36
5.4891152 -4.5023961 -1.6821604 219.36
5.9534421 -4.883256 -1.6366808 219.36
6.4857225 -5.3198543 -1.5804583 219.36
6.8827486 -5.6777363 -1.4658937 219.52
7.1546016 -5.9019938 -1.0846152 219.52
7.2659149 -5.9938188 -0.87875772 219.52
2.9485118 -2.4322948 -1.7017862 219.52
7.3587399 -6.0703921 -0.2214774 219.52
3.0495777 -2.5156662 -1.5437083 219.52
7.8343639 -6.4627457 0 219.52
3.1967263 -2.6370525 -1.5083089 219.52
7.8523045 -6.4775448 0.23633231 219.52
4.006299 -3.3048875 -1.7548814 219.52
4.3122687 -3.5572886 -1.7443545 219.52
4.6315317 -3.8206563 -1.7216309 219.52
5.0058794 -4.1294641 -1.6988107 219.52
5.4825253 -4.5226603 -1.6840048 219.52
5.9352551 -4.8961272 -1.6354333 219.52
6.4814544 -5.3466997 -1.5830504 219.52
6.8840961 -5.7132573 -1.4697846 219.69
7.1462302 -5.9308076 -1.086009 219.69
7.2297106 -6.0000901 -0.87652832 219.69
7.3508873 -6.1006575 -0.667988 219.69
2.9272225 -2.429364 -1.6936514 219.69
7.1071749 -5.8983955 -0.43071038 219.69
2.8302937 -2.3489208 -1.5362959 219.69
3.0492682 -2.5306523 -1.5473458 219.69
7.8705587 -6.5319438 0 219.69
3.3450782 -2.7761514 -1.5821851 219.69
7.8607454 -6.5237994 0.23716789 219.69
4.0212622 -3.3373308 -1.7657653 219.69
4.3075714 -3.574945 -1.7467375 219.69
4.6231341 -3.8368371 -1.7227335 219.69
4.9876499 -4.1393561 -1.6967847 219.69
5.4795651 -4.5476074 -1.6872326 219.69
5.9176908 -4.9112172 -1.6346017 219.69
6.4837112 -5.380969 -1.587494 219.69
6.8343048 -5.7082882 -1.4629755 219.87
7.1550055 -5.9761505 -1.0901904 219.87
11.433697 -9.5498867 -1.3898492 219.87
7.3684359 -6.1544161 -0.67133629 219.87
3.2000349 -2.6727986 -1.856346 219.87
7.4198103 -6.1973262 -0.45083439 219.87
2.8158183 -2.3518856 -1.5324416 219.87
7.5992813 -6.3472276 -0.22987971 219.87
3.2343333 -2.7014463 -1.6455553 219.87
7.8960495 -6.5951004 0 219.87
3.2613339 -2.7239983 -1.5466151 219.87
7.8709035 -6.5740972 0.23809633 219.87
4.0369339 -3.3718109 -1.7772895 219.87
4.3007154 -3.5921316 -1.7485248 219.87
4.61696 -3.856272 -1.7249386 219.87
5.005805 -4.1810513 -1.7074213 219.87
5.4697323 -4.568542 -1.688616 219.87
5.9127431 -4.9385624 -1.6375124 219.87
6.4773335 -5.4101315 -1.5900862 219.87
6.9553237 -5.8465605 -1.4928057 220.05
7.207664 -6.0586748 -1.1011087 220.05
7.3353195 -6.1659803 -0.67008066 220.05
3.0223906 -2.5405848 -1.7579157 220.05
7.4186559 -6.2360315 -0.4519524 220.05
2.8098285 -2.3619075 -1.5332125 220.05
12.285757 -10.327257 -0.3726261 220.05
3.2671874 -2.7463579 -1.6666522 220.05
7.9120345 -6.6507597 0 220.05
3.265708 -2.7451143 -1.5527714 220.05
7.8639865 -6.6103711 0.23851413 220.05
4.0263214 -3.3844767 -1.7772895 220.05
4.2777171 -3.5957971 -1.7437588 220.05
4.6033506 -3.8695204 -1.7243873 220.05
5.0059748 -4.2079616 -1.7119797 220.05
5.4508839 -4.5819464 -1.6872326 220.05
5.9016914 -4.9608898 -1.63876 220.05
5.9186864 -4.9751759 -1.4567767 220.05
6.9258904 -5.8569765 -1.4902117 220.22
7.188139 -6.0787506 -1.1008763 220.22
7.2696934 -6.1477184 -0.88823271 220.22
7.5378885 -6.3745213 -0.69031006 220.22
2.7483728 -2.3241999 -1.6025424 220.22
7.3192697 -6.1896434 -0.44701457 220.22
3.0536377 -2.5823517 -1.670423 220.22
12.349718 -10.443713 -0.37550423 220.22
3.159447 -2.6718307 -1.6157287 220.22
7.9090652 -6.6884117 0 220.22
3.3651769 -2.8458092 -1.6040745 220.22
7.9008274 -6.6814456 0.24023172 220.22
4.0177083 -3.3976316 -1.7779298 220.22
4.2786922 -3.618336 -1.7485248 220.22
4.5903811 -3.8819203 -1.7238361 220.22
5.0023317 -4.2302923 -1.7150189 220.22
5.4417229 -4.6018696 -1.688616 220.22
5.915328 -5.0023799 -1.6466606 220.22
6.4801817 -5.4800568 -1.5989735 220.22
6.8789005 -5.854403 -1.4840512 220.39999
6.7690444 -5.7609086 -1.2492177 220.39999
7.1690068 -6.1013031 -1.1008763 220.39999
7.2139482 -6.1395512 -0.88377386 220.39999
7.4251442 -6.319293 -0.68179977 220.39999
2.7883651 -2.3730845 -1.6302005 220.39999
7.3363023 -6.2436829 -0.44925058 220.39999
3.0637801 -2.6074812 -1.680444 220.39999
12.306189 -10.473388 -0.37517929 220.39999
3.0971253 -2.6358602 -1.5880846 220.39999
7.909337 -6.7313733 0 220.39999
3.3504951 -2.8514948 -1.6013383 220.39999
7.8584809 -6.6880913 0.23958182 220.39999
4.0127864 -3.415149 -1.7804906 220.39999
4.255672 -3.621861 -1.7437588 220.39999
3.7568171 -3.1973019 -1.4145709 220.39999
4.9978576 -4.2535105 -1.7180579 220.39999
5.430203 -4.6214652 -1.6895382 220.39999
5.9085221 -5.0285463 -1.6491555 220.39999
6.4719143 -5.5080309 -1.6011953 220.39999
6.955945 -5.9556508 -1.5044783 220.57001
7.3726864 -6.3124633 -1.1350247 220.57001
7.1412444 -6.1143036 -0.87708563 220.57001
7.7306833 -6.618979 -0.71165556 220.57001
3.160203 -2.7057526 -1.8522787 220.57001
7.2934637 -6.2446332 -0.4477599 220.57001
3.0476191 -2.6093588 -1.675819 220.57001
7.7429171 -6.6294532 -0.23665726 220.57001
3.1048577 -2.6583662 -1.5960867 220.57001
7.9151564 -6.7769241 0 220.57001
3.1978319 -2.7379701 -1.5322503 220.57001
7.8644218 -6.7334852 0.24037099 220.57001
4.2550588 -3.6431637 -1.747929 220.57001
3.7400119 -3.2021828 -1.4118146 220.57001
4.9705186 -4.2557373 -1.7129928 220.57001
5.4209018 -4.6413536 -1.6909217 220.57001
5.9099221 -5.060051 -1.6537296 220.57001
6.4615149 -5.5323219 -1.6026765 220.57001
6.9771214 -6.0097508 -1.5129087 220.74001
9.9998932 -8.6134186 -1.5434104 220.74001
6.9706821 -6.0042048 -0.85832149 220.74001
7.2786741 -6.2694936 -0.67175484 220.74001
3.124474 -2.6912689 -1.8360093 220.74001
7.2234373 -6.2219152 -0.44459224 220.74001
3.1433363 -2.7075162 -1.7328616 220.74001
3.1872962 -2.7453809 -1.6426454 220.74001
7.9177446 -6.8199577 0 220.74001
3.1555188 -2.7180095 -1.5158333 220.74001
7.8625884 -6.7724485 0.24092804 220.74001
4.2456775 -3.6570187 -1.7485248 220.74001
3.7392344 -3.2207935 -1.4151222 220.74001
4.9549375 -4.267941 -1.7119797 220.74001
5.3894124 -4.6421762 -1.6853882 220.74001
5.8978472 -5.0801172 -1.6545613 220.74001
6.4599633 -5.5642962 -1.6063796 220.74001
6.8782678 -5.9581428 -1.4950753 220.89999
7.897759 -6.8412533 -1.2219054 220.89999
6.9584036 -6.0275583 -0.85887885 220.89999
7.2566137 -6.2858763 -0.67133629 220.89999
3.1266134 -2.7083576 -1.8417035 220.89999
7.3011684 -6.3244705 -0.45046175 220.89999
3.155292 -2.7331998 -1.7436534 220.89999
7.2859759 -6.3113103 -0.22379848 220.89999
3.1570866 -2.7347541 -1.6310058 220.89999
7.9122739 -6.853827 0 220.89999
3.0712073 -2.6603632 -1.4788951 220.89999
7.8753824 -6.8218703 0.2419029 220.89999
3.2352448 -2.8024569 -1.4462886 220.89999
4.2383347 -3.6713605 -1.7497163 220.89999
3.7127879 -3.2161179 -1.4085069 220.89999
4.9517746 -4.2893615 -1.7150189 220.89999
5.3793702 -4.6597567 -1.6863104 220.89999
5.8925099 -5.1042523 -1.6570562 220.89999
6.4488564 -5.586175 -1.6074905 220.89999
7.0458865 -6.1443534 -1.5359298 221.09
7.424624 -6.4746304 -1.3844941 221.09
7.3300653 -6.3921709 -1.1373476 221.09
6.9924078 -6.0977173 -0.86556703 221.09
3.1162379 -2.71751 -1.84089 221.09
7.3388786 -6.3998566 -0.45409524 221.09
3.1003115 -2.7036214 -1.7182155 221.09
3.1030691 -2.7060261 -1.6077265 221.09
7.8849802 -6.8760839 0 221.09
3.1629362 -2.7582331 -1.527462 221.09
7.8949118 -6.8847442 0.2432027 221.09
3.2159374 -2.8044527 -1.4418069 221.09
3.6275418 -3.1633916 -1.5018845 221.09
4.9462724 -4.3133883 -1.7180579 221.09
5.3726888 -4.6852441 -1.6890771 221.09
5.8726025 -5.1211929 -1.6562245 221.09
6.4347405 -5.6114044 -1.6086015 221.09
7.0483947 -6.1834531 -1.5404692 221.25999
7.4113359 -6.5018559 -1.3856074 221.25999
7.3424258 -6.441402 -1.142226 221.25999
7.0626044 -6.195919 -0.87652832 221.25999
7.2439718 -6.3550296 -0.67384756 221.25999
3.077945 -2.7002358 -1.8229936 221.25999
3.0797904 -2.7018547 -1.7112778 221.25999
14.017392 -12.297252 -0.43292773 221.25999
3.0684178 -2.6918776 -1.5939044 221.25999
7.9051371 -6.9350605 0 221.25999
3.1420236 -2.7564509 -1.5213056 221.25999
7.9000015 -6.9305549 0.24399187 221.25999
3.9810162 -3.492487 -1.789454 221.25999
3.6382327 -3.1917679 -1.5102249 221.25999
4.5321736 -3.9760089 -1.7287976 221.25999
4.9261804 -4.3216658 -1.7155253 221.25999
5.3426714 -4.687047 -1.6840048 221.25999
5.7779694 -5.0689278 -1.6337701 221.25999
6.4224954 -5.6343603 -1.6097124 221.25999
7.0310998 -6.2031116 -1.5404692 221.42
7.4124575 -6.5395603 -1.3892258 221.42
9.8284426 -8.6710367 -1.5327246 221.42
7.0751405 -6.2419658 -0.88024396 221.42
7.2217088 -6.371274 -0.67342901 221.42
3.0402503 -2.6822278 -1.8050972 221.42
13.871206 -12.237721 -0.86263192 221.42
3.0750012 -2.7128863 -1.7128196 221.42
19.550108 -17.247869 -0.60529107 221.42
3.0147867 -2.6597629 -1.5698975 221.42
7.923234 -6.9901872 0 221.42
3.3964462 -2.9964778 -1.648537 221.42
7.906106 -6.9750762 0.24478103 221.42
3.2764571 -2.8906188 -1.4763795 221.42
3.6765509 -3.2435973 -1.5298847 221.42
4.5196109 -3.9873779 -1.7282462 221.42
4.9039369 -4.3264451 -1.7119797 221.42
5.3456144 -4.7161107 -1.6890771 221.42
5.8620801 -5.1717567 -1.6616303 221.42
6.3905239 -5.6379704 -1.605639 221.42
6.9481177 -6.1688275 -1.5265268 221.60001
7.3770661 -6.5496655 -1.3864424 221.60001
9.9125643 -8.800786 -1.5501472 221.60001
6.9601912 -6.1795468 -0.86835378 221.60001
3.0741639 -2.7293706 -1.8303149 221.60001
13.744548 -12.20298 -0.85713506 221.60001
3.027822 -2.688226 -1.6912359 221.60001
13.833528 -12.281981 -0.42949253 221.60001
3.0008433 -2.6642735 -1.5669876 221.60001
7.937129 -7.0469127 0 221.60001
3.2127459 -2.8524094 -1.5637161 221.60001
7.9245243 -7.0357218 0.24603443 221.60001
3.2716105 -2.9046717 -1.4783002 221.60001
3.6049514 -3.2006257 -1.5042675 221.60001
4.5156879 -4.0092154 -1.7315539 221.60001
4.904789 -4.3546758 -1.7170448 221.60001
5.3351378 -4.7367573 -1.6904604 221.60001
5.8487296 -5.1927452 -1.6624619 221.60001
6.3992357 -5.6815071 -1.6123044 221.60001
7.0151548 -6.265666 -1.5453328 221.77
7.3605547 -6.5741634 -1.3869991 221.77
9.9308548 -8.8698568 -1.5571163 221.77
7.0383635 -6.2863951 -0.88042974 221.77
7.1052775 -6.3461599 -0.66617435 221.77
3.0687776 -2.7409139 -1.8319418 221.77
13.723181 -12.257016 -0.85806674 221.77
3.0473607 -2.7217851 -1.7066529 221.77
13.919308 -12.43219 -0.43329912 221.77
3.0123777 -2.6905396 -1.5771724 221.77
7.95646 -7.1064034 0 221.77
7.9170351 -7.0711908 0.24645221 221.77
3.53421 -3.15662 -1.4786502 221.77
4.510942 -4.0289993 -1.7343103 221.77
4.9062772 -4.3820977 -1.7221099 221.77
5.3210602 -4.7525659 -1.6904604 221.77
5.8464279 -5.2218041 -1.6662043 221.77
6.9954362 -6.287674 -1.5453328 221.95
7.3266082 -6.5853395 -1.3844941 221.95
8.1921234 -7.3632865 -1.2881112 221.95
7.2822022 -6.5454264 -0.9134993 221.95
3.0397687 -2.7322206 -1.8197397 221.95
3.0525203 -2.7436819 -1.7143613 221.95
13.884644 -12.479867 -0.43343836 221.95
3.0246937 -2.7186708 -1.5880846 221.95
7.9504571 -7.146071 0 221.95
3.1267719 -2.8104212 -1.5301981 221.95
7.9245224 -7.1227598 0.24738064 221.95
3.1720731 -2.8511391 -1.4411666 221.95
3.5171759 -3.1613262 -1.4756715 221.95
4.5082707 -4.0521474 -1.7381692 221.95
4.8867307 -4.3923163 -1.7200838 221.95
5.3408408 -4.8004818 -1.7015274 221.95
5.835814 -5.2453766 -1.6678675 221.95
6.9979873 -6.3231668 -1.5495479 222.10001
7.3328547 -6.6257429 -1.3889476 222.10001
9.8663378 -8.9149208 -1.5550256 222.10001
7.236968 -6.5391026 -0.90996939 222.10001
7.567482 -6.8377447 -0.7131902 222.10001
3.0448062 -2.7511938 -1.8270611 222.10001
13.538218 -12.232718 -0.8508929 222.10001
3.0384803 -2.7454777 -1.710507 222.10001
19.482004 -17.60334 -0.60960829 222.10001
3.0369182 -2.7440662 -1.5982692 222.10001
7.9628849 -7.1950183 0 222.10001
3.0775697 -2.7807977 -1.5096769 222.10001
7.9221673 -7.1582274 0.24789129 222.10001
3.2320795 -2.920408 -1.471898 222.10001
3.5202203 -3.180763 -1.4804375 222.10001
4.4776764 -4.0458913 -1.7304513 222.10001
4.8579879 -4.3895288 -1.7140058 222.10001
5.3268108 -4.8131428 -1.7010663 222.10001
5.8264165 -5.2645712 -1.6691151 222.10001
6.3012881 -5.6936507 -1.6000844 222.10001
6.9740605 -6.3436823 -1.5488994 222.28999
7.3210983 -6.6593513 -1.390896 222.28999
9.8514156 -8.9609566 -1.5573486 222.28999
10.545923 -9.5926876 -1.3300267 222.28999
12.635121 -11.493045 -1.1943704 222.28999
3.0153925 -2.7428341 -1.8148589 222.28999
7.9983459 -7.2753835 -0.504219 222.28999
3.0525675 -2.776649 -1.7236115 222.28999
13.681662 -12.444989 -0.4293997 222.28999
3.0787935 -2.8005044 -1.625186 222.28999
7.961174 -7.2415714 0 222.28999
3.1211617 -2.8390431 -1.5356704 222.28999
7.9264889 -7.2100215 0.24877329 222.28999
3.6610916 -3.3301692 -1.6722912 222.28999
3.5082407 -3.1911345 -1.4798417 222.28999
4.494101 -4.0878839 -1.7420281 222.28999
4.859149 -4.4199352 -1.7195773 222.28999
5.3223376 -4.8412566 -1.7047552 222.28999
5.8074794 -5.282547 -1.6686993 222.28999
6.3797851 -5.803123 -1.6248947 222.28999
6.9657431 -6.3762207 -1.5514933 222.47
7.3220549 -6.7023778 -1.3950711 222.47
8.2612305 -7.5620694 -1.3097153 222.47
10.506922 -9.6177034 -1.328912 222.47
12.590122 -11.5246 -1.1935333 222.47
2.97172 -2.7202187 -1.7937086 222.47
3.0873904 -2.8260996 -1.7482785 222.47
7.9790168 -7.30374 -0.2511408 222.47
3.0809739 -2.8202262 -1.6310058 222.47
7.975266 -7.3003063 0 222.47
7.9554191 -7.2821393 0.25039804 222.47
3.9273424 -3.594965 -1.7990575 222.47
3.5953705 -3.2910883 -1.5209484 222.47
4.4812365 -4.1019821 -1.7420281 222.47
4.8452392 -4.4351788 -1.7195773 222.47
5.3085375 -4.8592677 -1.7052163 222.47
5.7562222 -5.2690639 -1.6587194 222.47
6.3658719 -5.8271179 -1.6260056 222.47
6.9958267 -6.4397559 -1.5621933 222.63
7.3062239 -6.725481 -1.3956279 222.63
8.2663889 -7.6093259 -1.3138967 222.63
11.15984 -10.272788 -1.4151157 222.63
12.547615 -11.550255 -1.1925566 222.63
2.9762106 -2.7396433 -1.8010298 222.63
7.6022592 -6.9979854 -0.48185897 222.63
3.0414681 -2.7997139 -1.7266948 222.63
13.494297 -12.421688 -0.42582524 222.63
3.0388191 -2.7972753 -1.6128188 222.63
7.9783926 -7.3442216 0 222.63
3.5978992 -3.3119164 -1.7798728 222.63
7.9644742 -7.3314095 0.25132647 222.63
3.680299 -3.3877666 -1.6902177 222.63
4.1508503 -3.8209155 -1.7604398 222.63
4.495225 -4.137917 -1.751951 222.63
4.8641524 -4.47752 -1.7307204 222.63
5.3092656 -4.8872533 -1.7098274 222.63
5.7961807 -5.335465 -1.6745207 222.63
6.3510208 -5.8462033 -1.626376 222.63
6.9828 -6.4684081 -1.5638145 222.81
7.2908711 -6.7537847 -1.3967413 222.81
8.2380705 -7.6312079 -1.3131998 222.81
11.12459 -10.305091 -1.4147441 222.81
12.550785 -11.626225 -1.1963235 222.81
2.9836736 -2.7638795 -1.8107915 222.81
8.050704 -7.457644 -0.51176554 222.81
3.0042264 -2.7829182 -1.710507 222.81
13.566686 -12.567287 -0.42935327 222.81
2.9466465 -2.7295799 -1.5684426 222.81
7.9743543 -7.386919 0 222.81
3.1214633 -2.8915188 -1.5486672 222.81
7.9678059 -7.3808527 0.25216207 222.81
3.6043074 -3.3387938 -1.6601267 222.81
3.6766219 -3.4057815 -1.5638424 222.81
3.6402032 -3.3720455 -1.42284 222.81
4.8770304 -4.5177608 -1.7403439 222.81
5.2981687 -4.907876 -1.7112108 222.81
5.7808251 -5.3549771 -1.6749365 222.81
6.3470416 -5.8794832 -1.630079 222.81
6.9783239 -6.505116 -1.5673811 222.99001
7.2841048 -6.7901611 -1.3995247 222.99001
8.092 -7.543272 -1.2936865 222.99001
11.111097 -10.35764 -1.4171593 222.99001
12.333236 -11.496904 -1.1790239 222.99001
2.9602747 -2.7595351 -1.8018433 222.99001
8.0535402 -7.5074201 -0.51344252 222.99001
2.892875 -2.6967058 -1.6519227 222.99001
13.648529 -12.723006 -0.43320626 222.99001
2.9230666 -2.7248499 -1.5604404 222.99001
