# .PCD v0.7 - Point Cloud Data file format
VERSION 0.7
FIELDS x y z intensity
SIZE 4 4 4 4
TYPE F F F F
COUNT 1 1 1 1
WIDTH 1219
HEIGHT 1
VIEWPOINT 0 0 0 1 0 0 0
POINTS 1219
DATA ascii
6.4087291 -2.1654959 -1.6028479 198.67
6.9037328 -2.3327563 -1.5489421 198.67
7.3772259 -2.4927487 -1.4671452 198.67
7.7457976 -2.6429205 -1.3446275 198.84
7.9569426 -2.7149644 -1.1815796 198.84
10.107734 -3.4488294 -0.74681282 198.84
3.2249632 -1.1003799 -1.5171276 198.84
7.6955285 -2.6257682 -0.3791891 198.84
3.4338288 -1.1716464 -1.515483 198.84
9.3859968 -3.2025678 -0.23025107 198.84
3.2037158 -1.0931302 -1.3218275 198.84
7.6792846 -2.6202257 0 198.84
4.5712471 -1.5597415 -1.7579836 198.84
7.6810007 -2.620811 0.18842523 198.84
3.7676029 -1.2855325 -1.3451316 198.84
3.7746603 -1.2879405 -1.2445207 198.84
5.615046 -1.915893 -1.7012337 198.84
5.9695234 -2.0368431 -1.6511995 198.84
6.428062 -2.1932995 -1.6093036 198.84
6.8986325 -2.3538616 -1.5493579 198.84
7.3735175 -2.5158958 -1.4678859 198.84
7.7621789 -2.674248 -1.3488427 199.00999
10.040456 -3.4591665 -1.2418833 199.00999
12.84222 -4.4244385 -1.2672318 199.00999
15.569663 -5.3641047 -1.1515399 199.00999
3.1128552 -1.0724497 -1.4658788 199.00999
3.4687235 -1.1950545 -1.5324416 199.00999
9.3991385 -3.2382181 -0.23080814 199.00999
7.6620221 -2.6397417 0 199.00999
3.4809213 -1.1992569 -1.340035 199.00999
7.6353822 -2.6305637 0.1874968 199.00999
5.6093369 -1.9325447 -1.7012337 199.00999
5.9378438 -2.045723 -1.6441084 199.00999
6.4288859 -2.2148981 -1.6111481 199.00999
6.8860693 -2.3724082 -1.5481105 199.00999
7.3046989 -2.5166357 -1.4556658 199.00999
7.7500114 -2.6973228 -1.3481942 199.19
7.760643 -2.7010231 -1.1548584 199.19
10.00515 -3.482204 -1.2388633 199.19
13.411275 -4.6676755 -1.3248248 199.19
10.468984 -3.6436372 -0.77513391 199.19
3.1267262 -1.0882294 -1.4740136 199.19
7.6856198 -2.674912 -0.18893586 199.19
32.533855 -11.32312 0 199.19
7.6384106 -2.6584814 0.18777533 199.19
3.7543113 -1.3066548 -1.3432109 199.19
5.590528 -1.9457338 -1.6973748 199.19
5.9058056 -2.0554633 -1.6370174 199.19
6.4292479 -2.2376428 -1.6129926 199.19
6.893363 -2.399174 -1.551437 199.19
7.3672924 -2.564121 -1.4697373 199.19
7.7699032 -2.7301192 -1.3530579 199.36
7.7974401 -2.7397947 -1.1615387 199.36
10.060369 -3.5349226 -1.2469939 199.36
9.9085274 -3.48157 -0.97982413 199.36
3.188987 -1.1205178 -1.5049256 199.36
9.620327 -3.3803046 -0.47552362 199.36
9.7545757 -3.4274759 -0.24004604 199.36
3.3905206 -1.1913308 -1.4033051 199.36
7.6702838 -2.6951158 0 199.36
3.7111278 -1.303983 -1.4316963 199.36
7.6833086 -2.6996922 0.18907513 199.36
3.2302217 -1.1350064 -1.1569028 199.36
5.2254329 -1.836066 -1.7282692 199.36
5.6010547 -1.9680486 -1.7023363 199.36
3.7128561 -1.3045902 -1.0302269 199.36
6.4078918 -2.2515478 -1.6093036 199.36
6.8917508 -2.421562 -1.5526845 199.36
7.3744864 -2.5911813 -1.4726998 199.36
7.7343473 -2.7419147 -1.3481942 199.52
7.849493 -2.7827353 -1.1704458 199.52
10.189008 -3.6121202 -1.2641842 199.52
13.416076 -4.7561526 -1.3279831 199.52
14.947761 -5.2991524 -1.1089884 199.52
3.2995028 -1.1697116 -1.5586149 199.52
13.177258 -4.6714888 -0.65198165 199.52
13.169179 -4.6686249 -0.32439408 199.52
3.4591734 -1.2263167 -1.4331317 199.52
7.6608424 -2.7158566 0 199.52
3.5321066 -1.2521722 -1.3639764 199.52
7.664432 -2.717129 0.18879659 199.52
3.2073951 -1.1370584 -1.1498603 199.52
5.211288 -1.8474613 -1.7252905 199.52
5.5810409 -1.9785429 -1.6979262 199.52
3.7000806 -1.311721 -1.0276943 199.52
6.4070821 -2.271384 -1.610687 199.52
6.8794303 -2.4388368 -1.551437 199.52
7.3561072 -2.6078243 -1.4704779 199.52
7.6253614 -2.7302747 -1.3306851 199.7
7.8630877 -2.815393 -1.1737859 199.7
9.9831095 -3.5744708 -1.2400248 199.7
8.2809896 -2.9650238 -0.82060736 199.7
10.492487 -3.7568543 -0.77931935 199.7
3.4282634 -1.227496 -1.6212523 199.7
13.034616 -4.667068 -0.64564627 199.7
3.1691363 -1.1347151 -1.4060229 199.7
7.6897421 -2.7533262 -0.18963219 199.7
3.450042 -1.2352939 -1.4309493 199.7
32.846024 -11.760579 0 199.7
3.1902027 -1.1422579 -1.2333246 199.7
7.6633883 -2.7438903 0.18898229 199.7
4.9073906 -1.7571002 -1.7612836 199.7
3.0682726 -1.0986006 -1.0169444 199.7
3.6996384 -1.3246623 -1.1268055 199.7
5.923707 -2.1209941 -1.6471474 199.7
6.4035788 -2.2928133 -1.6116092 199.7
6.8754182 -2.461756 -1.5522686 199.7
7.3256736 -2.6229708 -1.4660343 199.7
7.717454 -2.7891097 -1.3481942 199.87
7.8770509 -2.8467886 -1.177126 199.87
10.164885 -3.6736183 -1.2639519 199.87
8.2365732 -2.9767208 -0.81707746 199.87
10.419374 -3.7655916 -0.77471542 199.87
13.050774 -4.7165866 -0.64713699 199.87
3.2438581 -1.1723396 -1.440711 199.87
7.6704426 -2.7721198 0 199.87
3.149682 -1.1383041 -1.2189598 199.87
7.6533327 -2.7659361 0.18893586 199.87
3.0916903 -1.1173457 -1.110806 199.87
3.0649996 -1.1076995 -1.0169444 199.87
3.6884594 -1.3330197 -1.1246004 199.87
5.9374037 -2.1457946 -1.6527189 199.87
6.4004083 -2.3131258 -1.6125314 199.87
6.8644042 -2.4808152 -1.551437 199.87
7.2882843 -2.6340067 -1.4601095 199.87
7.8037009 -2.8464863 -1.3647305 200.03999
7.8946185 -2.8796494 -1.1810229 200.03999
10.060631 -3.6697261 -1.2523369 200.03999
7.7992954 -2.8448792 -0.77453297 200.03999
13.122187 -4.7864628 -0.97673017 200.03999
3.1119549 -1.1351199 -1.4748271 200.03999
10.433506 -3.8057368 -0.51791453 200.03999
3.3929348 -1.2376105 -1.5085454 200.03999
3.6036696 -1.3144783 -1.4978772 200.03999
7.6509104 -2.7907541 0 200.03999
3.123338 -1.1392721 -1.2100673 200.03999
7.6544843 -2.7920578 0.18916798 200.03999
3.2033949 -1.1684737 -1.0640086 200.03999
3.6808758 -1.34264 -1.1234978 200.03999
5.9328284 -2.1640646 -1.6532254 200.03999
6.3679209 -2.3227696 -1.6060758 200.03999
6.8533373 -2.4998305 -1.5506054 200.03999
7.3598328 -2.6845803 -1.4760325 200.03999
7.7261992 -2.8457503 -1.3527336 200.22
10.050916 -3.7020011 -1.2525691 200.22
13.080874 -4.8180094 -0.97477698 200.22
3.0929432 -1.1392075 -1.4675058 200.22
13.271054 -4.8880577 -0.65952814 200.22
3.4253967 -1.2616583 -1.5247332 200.22
7.6963334 -2.8347499 -0.19042136 200.22
3.3809986 -1.2453054 -1.4069425 200.22
3.2220302 -1.1867534 -1.2497416 200.22
7.6475511 -2.8167822 0.18921439 200.22
3.0936971 -1.1394851 -1.1140071 200.22
3.6493874 -1.3441596 -1.2135417 200.22
5.5690808 -2.0512302 -1.7017851 200.22
5.9187384 -2.1800177 -1.6511995 200.22
6.3423305 -2.3360372 -1.6014646 200.22
6.7940497 -2.5024166 -1.5389624 200.22
7.3329196 -2.7008958 -1.4723295 200.22
7.7431178 -2.8796396 -1.357273 200.39999
8.2406635 -3.0646756 -1.0281659 200.39999
13.003963 -4.8361306 -0.97017306 200.39999
3.1133239 -1.1578348 -1.4788945 200.39999
13.176987 -4.9004774 -0.65561515 200.39999
3.4802272 -1.2942849 -1.5509419 200.39999
13.242101 -4.9246931 -0.32801494 200.39999
3.2042 -1.1916313 -1.3349222 200.39999
7.6557193 -2.8471365 0 200.39999
3.0720804 -1.1424965 -1.1929662 200.39999
7.6686492 -2.8519452 0.18995714 200.39999
3.0989816 -1.152501 -1.1172082 200.39999
3.6558833 -1.3596108 -1.2171162 200.39999
5.5590053 -2.0673754 -1.7006825 200.39999
5.9064202 -2.196578 -1.6496799 200.39999
6.3349605 -2.3559506 -1.6014646 200.39999
6.8081579 -2.5319312 -1.5439522 200.39999
7.3372936 -2.7287149 -1.4749216 200.39999
7.9026818 -2.9657013 -1.3867788 200.57001
9.8477125 -3.6956282 -1.2300359 200.57001
9.8533096 -3.6977286 -0.7359308 200.57001
3.1150067 -1.168993 -1.4813348 200.57001
13.014623 -4.8840995 -0.64825499 200.57001
3.2206545 -1.2086402 -1.4368567 200.57001
30.449673 -11.427087 -0.75509357 200.57001
3.1343699 -1.1762595 -1.307278 200.57001
7.6322579 -2.8642173 0 200.57001
3.0845129 -1.1575494 -1.1991227 200.57001
7.635818 -2.8655531 0.18935366 200.57001
3.3350322 -1.2515637 -1.2036399 200.57001
3.6571956 -1.3724644 -1.2189034 200.57001
5.5456467 -2.0811584 -1.6984774 200.57001
5.889008 -2.2100141 -1.6466409 200.57001
6.3242984 -2.373369 -1.6005424 200.57001
6.815268 -2.5576191 -1.5472788 200.57001
7.3218045 -2.7477109 -1.4734404 200.57001
7.8389959 -2.9668012 -1.3770517 200.73
8.0390425 -3.0425122 -1.2080225 200.73
9.9915562 -3.7814741 -1.2493169 200.73
12.269689 -4.643672 -1.2239442 200.73
9.8410788 -3.7245235 -0.73579127 200.73
3.2176759 -1.217784 -1.5317702 200.73
10.078619 -3.8144245 -0.50254202 200.73
3.1861987 -1.2058711 -1.4229815 200.73
7.6782765 -2.9059741 -0.19060704 200.73
3.1014521 -1.1737972 -1.2949109 200.73
34.812202 -13.17527 0 200.73
3.0830262 -1.1668236 -1.1998067 200.73
7.5978656 -2.8755414 0.18861091 200.73
3.5884769 -1.35812 -1.2964739 200.73
3.6551342 -1.3833476 -1.2194992 200.73
5.5434098 -2.0979977 -1.69958 200.73
5.8683372 -2.2209718 -1.6425889 200.73
6.3140059 -2.3896427 -1.5996201 200.73
6.7934623 -2.5711012 -1.5439522 200.73
7.2902069 -2.7591026 -1.4686264 200.73
7.7485194 -2.9604216 -1.3627851 200.91
8.2126045 -3.1377311 -1.2355788 200.91
9.7421055 -3.7220967 -1.2195823 200.91
9.9148998 -3.788115 -0.990228 200.91
12.706934 -4.8548474 -0.95119929 200.91
3.1745787 -1.2128886 -1.5130603 200.91
13.037665 -4.9812078 -0.65086365 200.91
3.1358483 -1.1980911 -1.4021686 200.91
13.311676 -5.085897 -0.33084667 200.91
3.0890477 -1.1802105 -1.2912735 200.91
7.6431513 -2.9201643 0 200.91
3.0969014 -1.1832111 -1.206647 200.91
7.6560345 -2.9250865 0.19028209 200.91
3.6249018 -1.3849404 -1.3111992 200.91
5.5385871 -2.1160884 -1.7001312 200.91
5.8215685 -2.2242053 -1.6314459 200.91
6.3337364 -2.4198854 -1.606537 200.91
6.7926612 -2.5952234 -1.5456156 200.91
7.2796669 -2.7812903 -1.4682561 200.91
7.6881404 -2.9635236 -1.3537064 201.08
9.8999004 -3.8160839 -0.98985648 201.08
3.1095924 -1.198645 -1.4837753 201.08
3.1202259 -1.2027438 -1.3967727 201.08
13.393541 -5.1627669 -0.3332606 201.08
3.0751023 -1.1853502 -1.2869086 201.08
7.6213903 -2.9377937 0 201.08
3.2915356 -1.2687781 -1.2839437 201.08
7.6417251 -2.945632 0.19014283 201.08
3.6172407 -1.3943266 -1.3099188 201.08
5.5179334 -2.1269805 -1.695721 201.08
5.8853512 -2.2686081 -1.6511995 201.08
6.3247128 -2.4379673 -1.6060758 201.08
6.7666774 -2.60833 -1.5414573 201.08
7.2677145 -2.8014634 -1.4675155 201.08
7.7087436 -2.9977665 -1.3588941 201.25
13.151305 -5.1142626 -1.3164645 201.25
12.724388 -4.9482441 -0.95468712 201.25
3.2269256 -1.2548827 -1.5415319 201.25
13.091667 -5.0910707 -0.65505612 201.25
3.1820035 -1.2374135 -1.426065 201.25
13.329713 -5.1836419 -0.33205363 201.25
3.0889351 -1.2012212 -1.2941834 201.25
3.3140306 -1.288756 -1.2942042 201.25
7.7056284 -2.9965551 0.19195327 201.25
3.5883648 -1.3954388 -1.3009554 201.25
5.1691532 -2.0101738 -1.7306522 201.25
5.5133901 -2.1440401 -1.6962723 201.25
5.885807 -2.2888653 -1.6532254 201.25
6.3319616 -2.4623652 -1.6097648 201.25
6.7534385 -2.6262686 -1.5402098 201.25
7.2557073 -2.8215902 -1.4667749 201.25
7.6042795 -2.9831469 -1.3420336 201.42
13.276962 -5.2085314 -1.330584 201.42
12.73751 -4.9969053 -0.95677978 201.42
3.2333934 -1.2684553 -1.5464127 201.42
13.139738 -5.1546988 -0.65822381 201.42
3.1817541 -1.2481972 -1.4276066 201.42
3.1183097 -1.2233081 -1.3080055 201.42
7.6559553 -3.0034194 0 201.42
3.4938974 -1.3706505 -1.3660284 201.42
7.6483083 -3.0004196 0.19074631 201.42
5.5016351 -2.1582828 -1.6946185 201.42
5.8879957 -2.3098516 -1.655758 201.42
6.3246279 -2.4811416 -1.6097648 201.42
6.7274046 -2.6391504 -1.5360516 201.42
7.2601109 -2.8481302 -1.469367 201.42
7.677443 -3.0397146 -1.3566245 201.60001
10.075204 -3.9890554 -1.2672042 201.60001
8.2975187 -3.2852201 -0.62404144 201.60001
2.9949601 -1.1857885 -1.4341534 201.60001
13.16806 -5.213604 -0.66045982 201.60001
3.0731483 -1.2167454 -1.380585 201.60001
13.377738 -5.2966213 -0.33404976 201.60001
3.1820059 -1.2598453 -1.3363771 201.60001
7.663218 -3.0340827 0 201.60001
3.1470821 -1.2460179 -1.2319566 201.60001
7.6407037 -3.0251687 0.19079272 201.60001
3.1428721 -1.2443511 -1.1421775 201.60001
3.2112255 -1.2714142 -1.0777109 201.60001
3.349807 -1.3262824 -1.0330888 201.60001
5.8411336 -2.3126683 -1.6446149 201.60001
6.2842317 -2.4881034 -1.6014646 201.60001
6.8154831 -2.6984406 -1.5580902 201.60001
7.2803659 -2.8825006 -1.4752918 201.60001
7.8778768 -3.1445482 -1.3935879 201.75999
8.1688318 -3.2606864 -1.2361355 201.75999
9.7522335 -3.89272 -1.2279452 201.75999
13.266165 -5.2953472 -1.3326277 201.75999
11.071465 -4.4193072 -0.83358985 201.75999
3.0018184 -1.1982114 -1.4390342 201.75999
12.992023 -5.1859207 -0.6523543 201.75999
2.9908953 -1.1938514 -1.3451262 201.75999
13.357324 -5.3317347 -0.3339105 201.75999
3.1732848 -1.2666543 -1.3341947 201.75999
3.1348631 -1.2513177 -1.2285364 201.75999
7.6600809 -3.0576122 0.19148906 201.75999
3.1341057 -1.2510155 -1.1402568 201.75999
5.1723337 -2.0645983 -1.7378013 201.75999
5.5012293 -2.1958811 -1.6984774 201.75999
5.8598099 -2.3390126 -1.651706 201.75999
6.3079858 -2.5179074 -1.6093036 201.75999
6.7624984 -2.6993315 -1.5476947 201.75999
7.2503834 -2.8940766 -1.4708482 201.75999
7.6898494 -3.0990975 -1.3621366 201.95
8.1616488 -3.2892377 -1.2366922 201.95
8.0036688 -3.2255704 -1.0091172 201.95
7.6982961 -3.1025016 -0.77434719 201.95
11.067853 -4.4604716 -0.83442694 201.95
3.009691 -1.21294 -1.4447286 201.95
7.6844201 -3.0969095 -0.38636294 201.95
2.9663794 -1.195485 -1.335876 201.95
13.020593 -5.247448 -0.32592598 201.95
3.1569712 -1.2722956 -1.3291024 201.95
7.683496 -3.0965371 0 201.95
3.1289532 -1.261004 -1.2278523 201.95
7.6740084 -3.0927134 0.19209254 201.95
4.8346238 -1.9484088 -1.7612836 201.95
3.3415225 -1.3466718 -1.1241792 201.95
5.4867849 -2.2112372 -1.6962723 201.95
5.8717613 -2.3663871 -1.6572775 201.95
6.3014064 -2.5395391 -1.6097648 201.95
6.798872 -2.7400234 -1.5580902 201.95
7.2826743 -2.9350014 -1.4793652 201.95
7.775691 -3.160543 -1.3789971 202.12
8.1830444 -3.3261175 -1.2414241 202.12
8.0419102 -3.2687516 -1.0151571 202.12
10.530024 -4.2800813 -1.0604544 202.12
3.0162346 -1.2259924 -1.4496094 202.12
2.9423037 -1.1959422 -1.3266258 202.12
12.74194 -5.1791472 -0.31933412 202.12
3.1341977 -1.2739403 -1.3211001 202.12
3.2209561 -1.3092045 -1.2654746 202.12
7.6407185 -3.1056812 0.19148906 202.12
3.3262875 -1.352018 -1.2132434 202.12
5.1398039 -2.0891483 -1.731248 202.12
5.4819808 -2.228231 -1.6968236 202.12
5.8611293 -2.3823414 -1.6562644 202.12
6.3046608 -2.5626214 -1.6125314 202.12
6.783463 -2.7572374 -1.5564269 202.12
7.2866793 -2.961777 -1.4819573 202.12
7.6353483 -3.1283715 -1.3556517 202.28
13.186234 -5.4026923 -1.3294693 202.28
8.2985611 -3.4001045 -0.62711072 202.28
3.0652103 -1.2558846 -1.4748271 202.28
13.127442 -5.3786039 -0.66157782 202.28
2.9782295 -1.2202467 -1.3443552 202.28
13.25843 -5.4322729 -0.3326571 202.28
3.0909779 -1.2664422 -1.3043681 202.28
7.6636834 -3.139981 0 202.28
3.4381499 -1.4086863 -1.3523476 202.28
7.6671691 -3.1414092 0.19237107 202.28
3.3365252 -1.3670484 -1.2183653 202.28
5.1145163 -2.0955307 -1.7246947 202.28
5.4721789 -2.2420731 -1.695721 202.28
5.8526635 -2.3979659 -1.655758 202.28
6.3028827 -2.5824308 -1.6139148 202.28
6.7920294 -2.782845 -1.5601693 202.28
7.285655 -2.9850943 -1.4834386 202.28
7.6905861 -3.1808283 -1.3673245 202.47
7.9226675 -3.2768173 -1.0026128 202.47
10.890117 -4.5041552 -1.0994689 202.47
10.960544 -4.5332837 -0.82940447 202.47
3.0002472 -1.240903 -1.445542 202.47
13.131688 -5.4312696 -0.66269583 202.47
2.9690506 -1.228 -1.3420427 202.47
13.303164 -5.502192 -0.33423543 202.47
3.0041263 -1.2425073 -1.2694491 202.47
7.6717105 -3.1730213 0 202.47
3.3014703 -1.365489 -1.3003606 202.47
7.6973586 -3.1836295 0.19339234 202.47
3.307461 -1.3679668 -1.209402 202.47
5.1198893 -2.1175876 -1.728865 202.47
5.4629374 -2.2594724 -1.6951697 202.47
5.833952 -2.4129241 -1.6527189 202.47
6.2924862 -2.6025739 -1.6134537 202.47
6.7845716 -2.8061006 -1.5605851 202.47
7.2956939 -3.0175009 -1.4875119 202.47
7.7272134 -3.2212765 -1.3754305 202.63
7.9391551 -3.3096297 -1.0058651 202.63
13.099682 -5.4609203 -1.3240817 202.63
10.957049 -4.5677123 -0.83010203 202.63
3.0170074 -1.2577128 -1.4553037 202.63
13.177322 -5.4932866 -0.66577035 202.63
3.0729237 -1.2810228 -1.390606 202.63
7.7105842 -3.2143443 -0.1939494 202.63
2.9989252 -1.2501748 -1.2687217 202.63
29.115393 -12.137458 0 202.63
3.2750933 -1.3653022 -1.291468 202.63
7.6865926 -3.2043428 0.19334592 202.63
3.2564082 -1.3575128 -1.1921157 202.63
5.1174803 -2.1333458 -1.7300565 202.63
5.4583807 -2.2754586 -1.695721 202.63
5.8396916 -2.4344172 -1.6562644 202.63
6.3067493 -2.6291215 -1.6189871 202.63
6.7803202 -2.8265412 -1.5614167 202.63
7.2944956 -3.0408876 -1.4889932 202.63
7.7243319 -3.2485967 -1.3767275 202.81
7.8722 -3.3107851 -1.2002288 202.81
7.9067454 -3.3253136 -1.0030774 202.81
13.064105 -5.4943275 -1.3222238 202.81
10.970232 -4.6137142 -0.83219475 202.81
2.9709363 -1.2494768 -1.4349669 202.81
7.6904783 -3.2343588 -0.38906479 202.81
3.1607463 -1.3293046 -1.4322317 202.81
13.539371 -5.6942081 -0.34101298 202.81
3.2869251 -1.3823712 -1.392393 202.81
7.6785564 -3.2293451 0 202.81
3.2551963 -1.3690271 -1.2853117 202.81
7.6838603 -3.2315757 0.1935316 202.81
4.7873693 -2.0134079 -1.7548814 202.81
5.1019535 -2.1457117 -1.7270777 202.81
5.4529777 -2.2933407 -1.6962723 202.81
5.8355823 -2.4542513 -1.6572775 202.81
6.2823129 -2.6421316 -1.6148371 202.81
6.7786202 -2.8508618 -1.5630801 202.81
7.2704124 -3.0576932 -1.4860307 202.81
7.6637855 -3.2499273 -1.3676487 202.98
7.948051 -3.3704736 -1.0095819 202.98
11.017109 -4.6719475 -0.83679867 202.98
3.005904 -1.2746924 -1.4536768 202.98
3.1160119 -1.321385 -1.4137313 202.98
13.456148 -5.7062535 -0.33934182 202.98
7.6634173 -3.2497711 0 202.98
3.2511199 -1.3786794 -1.2853117 202.98
7.6760788 -3.2551405 0.19357802 202.98
4.7743969 -2.0246446 -1.7523204 202.98
5.1025953 -2.1638215 -1.7294607 202.98
5.454999 -2.3132627 -1.6990286 202.98
5.8318372 -2.4730659 -1.6582905 202.98
6.2798209 -2.6630392 -1.6162205 202.98
6.7557235 -2.8648517 -1.5597535 202.98
7.2631178 -3.080019 -1.486401 202.98
7.7049184 -3.2943764 -1.3767275 203.14999
10.248931 -4.3821144 -1.5665324 203.14999
8.0530863 -3.4432416 -1.0242169 203.14999
13.291274 -5.6829228 -1.3486052 203.14999
10.94633 -4.6802998 -0.83247375 203.14999
3.0474679 -1.3029996 -1.4756405 203.14999
3.2919466 -1.4075309 -1.4954411 203.14999
13.347235 -5.7068501 -0.33702073 203.14999
3.1501896 -1.3469203 -1.3378321 203.14999
3.2504711 -1.3897973 -1.2866797 203.14999
7.6866102 -3.2865481 0.19408867 203.14999
3.5261884 -1.5076852 -1.2958336 203.14999
5.0873752 -2.1751986 -1.726482 203.14999
5.4463434 -2.3286819 -1.6984774 203.14999
5.8191366 -2.4880764 -1.6567709 203.14999
6.2665238 -2.6793649 -1.6148371 203.14999
6.7651811 -2.8925748 -1.5639118 203.14999
7.2557545 -3.1023281 -1.4867713 203.14999
7.6389279 -3.2930038 -1.366676 203.32001
7.8860683 -3.3995414 -1.2069092 203.32001
8.1559334 -3.5158753 -1.0386195 203.32001
7.8102722 -3.3668671 -0.7934829 203.32001
12.678427 -5.4654403 -0.9654296 203.32001
3.0234544 -1.3033565 -1.4658788 203.32001
12.73962 -5.4918199 -0.6469506 203.32001
3.2911453 -1.4187533 -1.4969827 203.32001
13.231093 -5.7036848 -0.33451396 203.32001
3.2385633 -1.396086 -1.3771158 203.32001
7.6733837 -3.307857 0 203.32001
3.2601399 -1.4053874 -1.292152 203.32001
7.7521057 -3.3417926 0.19599195 203.32001
3.4555807 -1.4896383 -1.2715046 203.32001
5.0756392 -2.1880162 -1.7246947 203.32001
5.4358792 -2.3433092 -1.6973748 203.32001
5.7637568 -2.4846511 -1.6430954 203.32001
6.2710562 -2.7033389 -1.6180649 203.32001
6.7655511 -2.9165068 -1.5659908 203.32001
7.253737 -3.1269548 -1.4882525 203.32001
7.6562738 -3.3274539 -1.3715396 203.49001
8.0070057 -3.4798837 -1.0209646 203.49001
12.814028 -5.5690384 -0.97700918 203.49001
3.0396821 -1.3210607 -1.4756405 203.49001
3.2801511 -1.4255697 -1.4938993 203.49001
3.232698 -1.4049463 -1.3763884 203.49001
7.6727066 -3.3345957 0 203.49001
3.240443 -1.4083123 -1.2859957 203.49001
7.6688061 -3.3329003 0.19413508 203.49001
5.0621209 -2.2000225 -1.7223117 203.49001
5.4271393 -2.3586612 -1.6968236 203.49001
5.8166909 -2.5279622 -1.6603165 203.49001
6.2701473 -2.7250364 -1.6199094 203.49001
6.7586622 -2.9373474 -1.5664067 203.49001
7.2318096 -3.1429796 -1.4856604 203.49001
7.6331301 -3.3459442 -1.3692698 203.67
7.7780867 -3.4094851 -1.1935486 203.67
8.1725111 -3.5823789 -1.0434979 203.67
13.403296 -5.875267 -1.3653257 203.67
12.948133 -5.6757488 -0.98858875 203.67
2.9150333 -1.2777902 -1.4170705 203.67
12.676558 -5.5567055 -0.64545995 203.67
13.133742 -5.7571096 -0.33293563 203.67
3.2248559 -1.4135993 -1.3749335 203.67
7.6640248 -3.3594866 0 203.67
3.2979689 -1.445648 -1.3106211 203.67
7.6839352 -3.3682141 0.19478498 203.67
3.331883 -1.4605142 -1.2292492 203.67
5.0674243 -2.2212801 -1.726482 203.67
5.4249849 -2.3780148 -1.6984774 203.67
5.7980881 -2.5415628 -1.6572775 203.67
6.2401667 -2.7353456 -1.6143759 203.67
6.7332754 -2.9514973 -1.5626643 203.67
7.252501 -3.1790974 -1.4919556 203.67
7.5912614 -3.3528943 -1.3634335 203.83
7.9515162 -3.5120108 -1.2216614 203.83
8.1243153 -3.5883327 -1.0386195 203.83
13.505239 -5.9649692 -1.3774016 203.83
13.132987 -5.8005533 -1.0039352 203.83
2.9365237 -1.2969984 -1.4292725 203.83
12.785263 -5.6469712 -0.65179533 203.83
2.9120581 -1.2861924 -1.3297092 203.83
26.558962 -11.730513 -0.67408788 203.83
3.2277124 -1.4256101 -1.3778434 203.83
7.7040095 -3.4026928 0 203.83
3.3265829 -1.4692791 -1.3236179 203.83
7.7092505 -3.4050074 0.195667 203.83
3.3537898 -1.4812957 -1.2388527 203.83
5.0664411 -2.2377362 -1.7282692 203.83
5.4183235 -2.3931551 -1.6984774 203.83
5.7661901 -2.5468001 -1.6501864 203.83
6.243185 -2.7574785 -1.6171427 203.83
6.7464814 -2.9797735 -1.5676541 203.83
7.2382016 -3.1969554 -1.4908447 203.83
7.5981274 -3.3860829 -1.366676 204.02
7.874701 -3.5093369 -1.2116411 204.02
8.0270929 -3.5772498 -1.0277014 204.02
13.627259 -6.0729475 -1.3918928 204.02
7.710392 -3.4361131 -0.59027928 204.02
3.0773983 -1.3714334 -1.5000447 204.02
13.31566 -5.9340844 -0.33845979 204.02
43.713661 -19.480862 0 204.02
3.3113925 -1.4757122 -1.3195137 204.02
7.6960902 -3.4297395 0.19562058 204.02
5.0607367 -2.2553022 -1.728865 204.02
5.4068456 -2.4095445 -1.6973748 204.02
5.7753854 -2.5737834 -1.6552515 204.02
6.2428946 -2.7821271 -1.6194483 204.02
6.707973 -2.989388 -1.5610009 204.02
7.2329459 -3.2233407 -1.4919556 204.02
7.6438551 -3.4336812 -1.3767275 204.19
7.6528783 -3.4377346 -1.1790745 204.19
10.134712 -4.5525947 -1.2992617 204.19
13.65096 -6.1321211 -1.3961657 204.19
15.595058 -7.0054259 -1.1954864 204.19
2.974983 -1.3363862 -1.4520499 204.19
12.97733 -5.8295212 -0.66344118 204.19
2.8332152 -1.2727031 -1.2973336 204.19
7.6658173 -3.4435468 -0.19510993 204.19
2.9773746 -1.3374606 -1.2745415 204.19
7.6697073 -3.4452944 0 204.19
7.6804085 -3.4501014 0.19548132 204.19
3.5120695 -1.5776498 -1.3009554 204.19
5.0609889 -2.273437 -1.731248 204.19
5.4014263 -2.4263642 -1.6979262 204.19
5.760664 -2.5877366 -1.6532254 204.19
6.2257361 -2.7966509 -1.6171427 204.19
6.7329793 -3.0245085 -1.5689017 204.19
7.2161789 -3.2415657 -1.4904743 204.19
7.5868897 -3.4351811 -1.3682971 204.36
7.6733165 -3.4743135 -1.1838064 204.36
13.676243 -6.1923103 -1.4006246 204.36
14.938078 -6.7636418 -1.1466569 204.36
3.0392463 -1.3761057 -1.4854022 204.36
13.163813 -5.9602923 -0.67387587 204.36
2.8008466 -1.2681633 -1.2842293 204.36
13.303891 -6.0237174 -0.33906329 204.36
2.9784846 -1.3485941 -1.276724 204.36
7.7013559 -3.487009 0 204.36
7.7029243 -3.4877191 0.1963169 204.36
5.0490036 -2.2860808 -1.7294607 204.36
3.2610409 -1.4765296 -1.0264735 204.36
5.763536 -2.6096058 -1.6562644 204.36
6.2333665 -2.822335 -1.6212927 204.36
6.7025905 -3.0347896 -1.5639118 204.36
7.2208529 -3.2694476 -1.4934368 204.36
7.6161628 -3.4757025 -1.3754305 204.53
7.9476557 -3.6269822 -1.2277851 204.53
7.7039785 -3.5157781 -0.99030083 204.53
13.529185 -6.1741619 -1.3874339 204.53
15.371708 -7.0150132 -1.1815351 204.53
2.9138103 -1.3297428 -1.4260187 204.53
13.200596 -6.0242071 -0.67667085 204.53
2.8121817 -1.2833637 -1.2911669 204.53
7.6507049 -3.491466 -0.1952492 204.53
2.9812496 -1.3605193 -1.2796339 204.53
7.67799 -3.5039179 0.19594553 204.53
3.2636206 -1.4893818 -1.1194133 204.53
3.2706378 -1.4925841 -1.0308837 204.53
3.2528007 -1.4844441 -0.93601733 204.53
6.2161126 -2.8367774 -1.6189871 204.53
6.6597414 -3.0392313 -1.5560111 204.53
7.2182727 -3.2941217 -1.494918 204.53
7.6410627 -3.5161121 -1.3819153 204.71001
7.7275157 -3.5558944 -1.1954969 204.71001
13.285404 -6.1134124 -1.3643967 204.71001
2.8681235 -1.319796 -1.4056818 204.71001
13.143492 -6.0481105 -0.67471433 204.71001
2.828254 -1.3014495 -1.3004171 204.71001
24.177847 -11.12568 -0.61791778 204.71001
2.9634213 -1.3636482 -1.2738141 204.71001
7.7089815 -3.5473654 0 204.71001
3.0646031 -1.410208 -1.2278523 204.71001
7.6978226 -3.5422306 0.1967347 204.71001
3.1034374 -1.4280781 -1.1543418 204.71001
3.2589254 -1.4996275 -1.1194133 204.71001
5.3949013 -2.4825182 -1.7028875 204.71001
5.7580333 -2.649617 -1.6593035 204.71001
6.2177777 -2.8611732 -1.6217538 204.71001
6.6714869 -3.069952 -1.5610009 204.71001
7.2061028 -3.3159609 -1.4945477 204.71001
7.6419573 -3.5424163 -1.3838607 204.87
7.7283373 -3.5824573 -1.197167 204.87
10.247578 -4.750247 -1.3208658 204.87
7.8319707 -3.6304967 -0.80537307 204.87
15.427555 -7.1514168 -1.1890688 204.87
2.8843188 -1.337021 -1.4154435 204.87
21.391819 -9.9161415 -1.0995553 204.87
2.8195856 -1.3070141 -1.2981045 204.87
7.6733885 -3.5569861 -0.19636331 204.87
2.9731236 -1.3781863 -1.2796339 204.87
7.7135615 -3.5756083 0 204.87
3.1066909 -1.4401011 -1.2463214 204.87
7.6897149 -3.5645542 0.19678111 204.87
3.083966 -1.4295671 -1.1485797 204.87
3.1282775 -1.4501077 -1.0759236 204.87
3.0576472 -1.4173672 -0.96638459 204.87
5.7084827 -2.6461573 -1.6471474 204.87
6.2062321 -2.8768883 -1.6208316 204.87
6.7179089 -3.1140752 -1.5738915 204.87
7.1593685 -3.3187129 -1.4867713 204.87
7.6171088 -3.5583923 -1.3812668 205.03999
7.7140851 -3.6036954 -1.1966103 205.03999
13.381679 -6.2513566 -1.377959 205.03999
15.415307 -7.2013822 -1.1897664 205.03999
2.8902712 -1.3502129 -1.4203243 205.03999
21.402124 -9.9981709 -1.1016048 205.03999
2.8140233 -1.3145931 -1.2973336 205.03999
7.6791048 -3.5873542 -0.19678111 205.03999
3.0500407 -1.4248505 -1.3145528 205.03999
7.7192268 -3.6060975 0 205.03999
3.0904851 -1.4437444 -1.2415332 205.03999
7.6791048 -3.5873542 0.19678111 205.03999
3.1397943 -1.4667797 -1.170988 205.03999
3.0616896 -1.4302924 -1.0544766 205.03999
3.0447192 -1.4223646 -0.96362817 205.03999
5.6953473 -2.6606264 -1.645628 205.03999
6.1870899 -2.8903477 -1.6180649 205.03999
6.710412 -3.1348219 -1.5743073 205.03999
7.2029109 -3.3648965 -1.4978805 205.03999
7.6094632 -3.5839865 -1.3819153 205.22
7.6758494 -3.6152537 -1.1924351 205.22
7.8533721 -3.6988652 -1.0151571 205.22
8.1177101 -3.8233659 -0.83714211 205.22
15.27709 -7.1953678 -1.1808376 205.22
2.8711388 -1.3522797 -1.4130031 205.22
21.332653 -10.047482 -1.0996484 205.22
2.826575 -1.3312906 -1.3050421 205.22
23.084789 -10.872722 -0.59243232 205.22
3.1668994 -1.4915801 -1.3669312 205.22
7.7259531 -3.6388521 0 205.22
3.1947494 -1.5046973 -1.2853117 205.22
7.6840768 -3.6191287 0.19719891 205.22
3.0854607 -1.4532233 -1.1524211 205.22
3.0848167 -1.45292 -1.0640086 205.22
5.3656335 -2.5271635 -1.7006825 205.22
5.702714 -2.6859252 -1.6501864 205.22
6.1850214 -2.9130876 -1.6199094 205.22
6.7023005 -3.1567214 -1.5747231 205.22
7.2083068 -3.3950455 -1.5012132 205.22
7.6284733 -3.6222653 -1.3874273 205.39999
7.7270718 -3.6690836 -1.2021773 205.39999
8.037302 -3.8163915 -0.83008236 205.39999
15.405801 -7.3152122 -1.1925566 205.39999
2.8718278 -1.3636441 -1.4154435 205.39999
19.77059 -9.3877668 -1.0206429 205.39999
2.8173776 -1.3377892 -1.3027296 205.39999
23.075806 -10.957198 -0.59308225 205.39999
3.1470516 -1.4943299 -1.3603839 205.39999
7.71629 -3.6639638 0 205.39999
3.2613106 -1.5485841 -1.3140414 205.39999
7.6672506 -3.6406782 0.19705965 205.39999
3.0740335 -1.4596585 -1.1498603 205.39999
3.1492231 -1.4953611 -1.0878385 205.39999
5.3611412 -2.5456569 -1.7017851 205.39999
5.699491 -2.7063174 -1.651706 205.39999
6.1793551 -2.9341736 -1.6208316 205.39999
6.7100224 -3.1861529 -1.5788814 205.39999
7.1940546 -3.4159882 -1.5004725 205.39999
7.5945487 -3.63381 -1.3832122 205.57001
7.7250843 -3.6962681 -1.2035689 205.57001
7.7051969 -3.6867526 -0.998896 205.57001
15.37503 -7.3565841 -1.1918591 205.57001
2.867769 -1.3721589 -1.4154435 205.57001
10.504784 -5.0262876 -0.5430696 205.57001
2.8050721 -1.34216 -1.2988753 205.57001
7.6852727 -3.6772192 -0.19780239 205.57001
3.1392429 -1.5020527 -1.3589289 205.57001
7.7144055 -3.6911585 0 205.57001
3.1075137 -1.486871 -1.2538458 205.57001
7.6672363 -3.6685894 0.19733818 205.57001
3.1773677 -1.5202944 -1.190195 205.57001
3.1378837 -1.5014023 -1.0854555 205.57001
3.1493595 -1.5068933 -1.0011148 205.57001
3.1485283 -1.5064955 -0.91373122 205.57001
6.1811552 -2.957535 -1.6235983 205.57001
6.7058334 -3.208581 -1.5801289 205.57001
7.1892061 -3.4398632 -1.5015835 205.57001
7.5819559 -3.6554704 -1.382888 205.74001
7.7622199 -3.7423806 -1.0077235 205.74001
7.9445567 -3.8302903 -0.82283676 205.74001
15.238116 -7.3467169 -1.1829302 205.74001
2.9887657 -1.4409665 -1.4772675 205.74001
21.238789 -10.239807 -1.0995553 205.74001
2.8060646 -1.3528812 -1.3011879 205.74001
7.6743283 -3.7000058 -0.19780239 205.74001
3.1297379 -1.5089331 -1.3567466 205.74001
7.734046 -3.7287972 0 205.74001
7.6509147 -3.6887171 0.19719891 205.74001
3.1864967 -1.5362982 -1.1953168 205.74001
3.1248162 -1.5065602 -1.0824769 205.74001
3.1483381 -1.5179008 -1.0022174 205.74001
3.1928434 -1.539358 -0.92791331 205.74001
6.1776118 -2.9783974 -1.6249816 205.74001
6.6962838 -3.2284634 -1.5801289 205.74001
7.1683459 -3.4560575 -1.4993616 205.74001
7.6030297 -3.6934729 -1.3887243 205.91
7.7457695 -3.7628143 -1.2102493 205.91
7.8261271 -3.8018513 -1.0174801 205.91
10.424721 -5.0642209 -0.81043071 205.91
3.1406033 -1.5256726 -1.5545474 205.91
7.7181582 -3.7494011 -0.40015164 205.91
2.9381561 -1.4273257 -1.3643973 205.91
22.853266 -11.101879 -0.58987916 205.91
3.1235714 -1.5173985 -1.356019 205.91
7.7319431 -3.7560978 0 205.91
3.1408975 -1.5258154 -1.2709469 205.91
7.6884952 -3.7349911 0.19845229 205.91
3.1427257 -1.5267035 -1.1805915 205.91
3.1512437 -1.5308415 -1.0932003 205.91
3.1887817 -1.549077 -1.0165505 205.91
3.2004442 -1.5547426 -0.93145883 205.91
6.163496 -2.9941623 -1.6235983 205.91
6.6884351 -3.2491722 -1.5805447 205.91
7.1633639 -3.4798877 -1.5004725 205.91
7.6593962 -3.7489848 -1.4010454 206.08
7.7025509 -3.7701073 -1.2052391 206.08
10.33054 -5.0564084 -1.3450251 206.08
10.384583 -5.0828605 -1.0786612 206.08
10.452656 -5.1161799 -0.813779 206.08
3.1557555 -1.544623 -1.5643091 206.08
14.931303 -7.3083081 -0.77524137 206.08
3.1013234 -1.5179805 -1.4422526 206.08
7.6845632 -3.7613029 -0.19863798 206.08
3.1424818 -1.538126 -1.3662038 206.08
7.742321 -3.7895732 0 206.08
3.1211643 -1.5276918 -1.2647905 206.08
7.6809711 -3.7595448 0.19854514 206.08
3.1466911 -1.5401863 -1.1837926 206.08
3.1672657 -1.5502567 -1.1003493 206.08
3.1928055 -1.5627575 -1.0193069 206.08
6.1703167 -3.0201366 -1.6277484 206.08
6.6717367 -3.2655628 -1.5788814 206.08
7.1512418 -3.5002625 -1.5001023 206.08
7.6659393 -3.7804229 -1.4042879 206.25
7.7108698 -3.8025804 -1.2083008 206.25
7.7154756 -3.8048513 -0.80258632 206.25
7.8929377 -3.8923662 -0.61539161 206.25
3.1577134 -1.5572119 -1.5675631 206.25
7.7136912 -3.8039715 -0.40108329 206.25
3.0471509 -1.5026885 -1.4191273 206.25
22.557446 -11.124101 -0.58393717 206.25
3.1078284 -1.5326114 -1.3531091 206.25
7.7435994 -3.8187206 0 206.25
3.1233602 -1.5402707 -1.2675266 206.25
7.6626096 -3.7787809 0.19835944 206.25
3.1692972 -1.5629244 -1.1940364 206.25
3.1951861 -1.5756913 -1.1116686 206.25
5.3469267 -2.6368124 -1.7095029 206.25
5.6830101 -2.8025503 -1.658797 206.25
6.1595831 -3.0375702 -1.6272873 206.25
6.6672816 -3.2879395 -1.5801289 206.25
7.1302485 -3.5162494 -1.4978805 206.25
7.682301 -3.8185422 -1.4094758 206.42999
7.8389945 -3.8964279 -1.2302902 206.42999
7.9229345 -3.9381509 -1.0346705 206.42999
7.7017007 -3.8281851 -0.80240053 206.42999
10.376544 -5.1577349 -0.81029117 206.42999
3.1495333 -1.5654979 -1.5659361 206.42999
10.345864 -5.1424856 -0.53878391 206.42999
3.0275419 -1.5048611 -1.4121897 206.42999
22.302158 -11.085446 -0.57822728 206.42999
3.1046667 -1.5431966 -1.3538367 206.42999
7.727982 -3.8412485 0 206.42999
3.1723602 -1.5768442 -1.289416 206.42999
7.6972528 -3.8259742 0.19956641 206.42999
3.2084861 -1.5948007 -1.2106824 206.42999
3.2038972 -1.5925199 -1.1164346 206.42999
5.3196793 -2.6441844 -1.7034389 206.42999
5.6741776 -2.8203902 -1.658797 206.42999
6.1430392 -3.0534413 -1.6254427 206.42999
6.6586714 -3.3097398 -1.5805447 206.42999
7.1244469 -3.5412569 -1.4989914 206.42999
7.5767484 -3.7958071 -1.3922909 206.61
7.7930708 -3.9041805 -1.2250017 206.61
7.7737675 -3.89451 -1.0167832 206.61
7.8130279 -3.9141786 -0.6110667 206.61
3.1282642 -1.5672009 -1.5578014 206.61
20.99691 -10.519053 -1.0951763 206.61
2.9930992 -1.4994859 -1.3983145 206.61
7.6673183 -3.841181 -0.19910219 206.61
3.0481675 -1.5270741 -1.3312848 206.61
7.7480631 -3.8816326 0 206.61
3.206038 -1.6061641 -1.3051488 206.61
7.663743 -3.8393898 0.19900936 206.61
3.1780491 -1.5921423 -1.2010789 206.61
4.9331689 -2.4714241 -1.721716 206.61
5.3147836 -2.6626058 -1.7045414 206.61
5.6670189 -2.8390689 -1.6593035 206.61
6.1368961 -3.0744686 -1.6263651 206.61
6.6482406 -3.3306425 -1.5805447 206.61
7.1238298 -3.5689034 -1.5012132 206.61
7.5062103 -3.7867279 -1.3812668 206.77
7.8404903 -3.9553654 -1.234187 206.77
10.086222 -5.0882907 -1.3210981 206.77
13.462431 -6.7915182 -1.4067554 206.77
16.330902 -8.2386026 -1.2790548 206.77
3.3636715 -1.6969028 -1.6773819 206.77
20.264673 -10.223108 -1.0584686 206.77
2.8982775 -1.462121 -1.3559179 206.77
3.0937912 -1.5607537 -1.3531091 206.77
7.7371936 -3.903254 0 206.77
3.1981843 -1.6134179 -1.3037808 206.77
7.7047615 -3.8868928 0.20035557 206.77
3.2057326 -1.6172258 -1.2132434 206.77
4.9535217 -2.4989493 -1.731248 206.77
5.3090439 -2.678303 -1.7050927 206.77
5.6521587 -2.8513973 -1.6572775 206.77
6.131762 -3.0933471 -1.6272873 206.77
6.6441536 -3.3518381 -1.5817921 206.77
7.1278739 -3.595865 -1.5041757 206.77
7.4967012 -3.8098767 -1.3815911 206.94
7.6945338 -3.9104166 -1.2130327 206.94
8.3267488 -4.2317128 -1.0922812 206.94
9.0768719 -4.6129308 -0.94991291 206.94
7.7334385 -3.9301882 -0.60660231 206.94
3.2022555 -1.627409 -1.5992885 206.94
20.884327 -10.613563 -1.0924746 206.94
2.9136691 -1.4807472 -1.3651681 206.94
7.7359743 -3.9314771 -0.20146969 206.94
3.1290066 -1.5901834 -1.3705686 206.94
7.7558885 -3.9415975 0 206.94
3.208462 -1.6305631 -1.3099371 206.94
7.6682401 -3.897054 0.19970568 206.94
3.2161224 -1.6344562 -1.2190055 206.94
4.9460855 -2.5136356 -1.731248 206.94
5.3062158 -2.6966565 -1.7067465 206.94
5.6540227 -2.8734145 -1.6603165 206.94
6.1225567 -3.1115267 -1.6272873 206.94
6.6428995 -3.3759685 -1.5838712 206.94
7.1136689 -3.615217 -1.503435 206.94
7.4302421 -3.8055203 -1.3715396 207.12
7.6557693 -3.9210277 -1.2088575 207.12
7.7087374 -3.9481561 -1.0128341 207.12
10.313658 -5.2823091 -1.0810764 207.12
3.0572731 -1.5658326 -1.5293298 207.12
15.799085 -8.0917606 -0.82778752 207.12
2.9434969 -1.5075603 -1.3813559 207.12
16.16614 -8.2797537 -0.42169371 207.12
3.2168531 -1.6475641 -1.4113073 207.12
7.7577085 -3.9732375 0 207.12
3.1999781 -1.6389213 -1.3085691 207.12
7.6648574 -3.9256825 0.19993779 207.12
3.2328954 -1.6557803 -1.2273285 207.12
4.9364648 -2.5282915 -1.7306522 207.12
5.2942953 -2.7115602 -1.705644 207.12
5.6484122 -2.8929269 -1.6613295 207.12
6.1283407 -3.1387303 -1.6314373 207.12
6.6374846 -3.3994966 -1.5851188 207.12
7.1215191 -3.6474028 -1.5075084 207.12
7.41257 -3.8226364 -1.3702426 207.28
7.6817551 -3.9614544 -1.2147028 207.28
7.9960551 -4.123538 -1.052093 207.28
7.7095485 -3.9757872 -0.80927455 207.28
15.551179 -8.0196886 -1.2235285 207.28
2.9538321 -1.5232809 -1.479708 207.28
15.620172 -8.0552683 -0.81958884 207.28
3.2410762 -1.6714116 -1.5231915 207.28
15.871063 -8.1846514 -0.41459122 207.28
3.2304535 -1.6659336 -1.4193096 207.28
7.746583 -3.9948857 0 207.28
3.205411 -1.6530193 -1.3126733 207.28
7.7018461 -3.9718151 0.20119117 207.28
4.9412632 -2.5481923 -1.7348225 207.28
5.2901201 -2.7280965 -1.7067465 207.28
5.6317134 -2.9042549 -1.658797 207.28
6.1247411 -3.1585076 -1.6328207 207.28
6.6418748 -3.4251916 -1.5884453 207.28
7.0833569 -3.6528623 -1.5015835 207.28
7.4033546 -3.8490171 -1.3708911 207.47
7.7335939 -4.020709 -1.2250017 207.47
7.7038631 -4.0052519 -1.0153894 207.47
7.7298918 -4.018784 -0.81280446 207.47
16.172386 -8.4080515 -1.2745903 207.47
3.0217135 -1.5709941 -1.5163141 207.47
15.759996 -8.1936493 -0.82834649 207.47
3.0930614 -1.608088 -1.4561279 207.47
7.7063727 -4.0065565 -0.20165539 207.47
3.0662277 -1.5941372 -1.3494717 207.47
7.7474885 -4.0279326 0 207.47
3.2649438 -1.69745 -1.3393509 207.47
7.6868587 -3.9964111 0.20114474 207.47
4.9141526 -2.5548766 -1.7282692 207.47
5.2861614 -2.7482846 -1.7084004 207.47
5.6254849 -2.9246993 -1.6598099 207.47
6.1038733 -3.1734142 -1.630054 207.47
6.6391587 -3.4517102 -1.5905244 207.47
7.076436 -3.6790514 -1.5026944 207.47
7.4268684 -3.8892775 -1.3773758 207.64
7.7286482 -4.0473123 -1.226115 207.64
7.6708283 -4.0170336 -1.0126017 207.64
7.6791234 -4.0213776 -0.80871719 207.64
3.0445549 -1.5943623 -1.5301433 207.64
11.429604 -5.9854164 -0.60167152 207.64
2.9656608 -1.5530473 -1.3983145 207.64
15.810468 -8.2795725 -0.41435909 207.64
2.9690623 -1.5548285 -1.308733 207.64
7.7390471 -4.0527582 0 207.64
3.2915263 -1.7236954 -1.3523476 207.64
7.7050791 -4.0349698 0.20193391 207.64
3.256341 -1.7052697 -1.2420539 207.64
4.899785 -2.5659029 -1.7258862 207.64
5.2762809 -2.7630649 -1.707849 207.64
5.6167822 -2.9413776 -1.6598099 207.64
6.1099467 -3.1996362 -1.634204 207.64
6.6271548 -3.4704862 -1.5901086 207.64
7.095088 -3.7155318 -1.5089896 207.64
7.5095582 -3.9610159 -1.3948849 207.81
7.7148538 -4.0693021 -1.2258366 207.81
10.471228 -5.5231876 -1.1044852 207.81
15.90515 -8.3893824 -1.2574302 207.81
2.9412313 -1.5513914 -1.4805213 207.81
2.8973792 -1.5282611 -1.3682514 207.81
15.93262 -8.4038715 -0.41821209 207.81
2.8787491 -1.5184343 -1.2709041 207.81
7.7535233 -4.0896988 0 207.81
3.2996962 -1.7404685 -1.3578199 207.81
7.6771564 -4.049418 0.20151612 207.81
3.234508 -1.7060841 -1.2356516 207.81
4.9073486 -2.5884461 -1.731248 207.81
5.2714605 -2.7805016 -1.7089516 207.81
5.6148758 -2.9616406 -1.661836 207.81
6.1021476 -3.2186587 -1.6346651 207.81
6.6168289 -3.490134 -1.5901086 207.81
7.1083703 -3.7494042 -1.5141739 207.81
7.4559441 -3.9610579 -1.3871031 207.98
7.6974988 -4.0893869 -1.2250017 207.98
7.7117634 -4.0969653 -1.021197 207.98
10.113628 -5.3729839 -1.0684431 207.98
7.7471638 -4.1157718 -0.61343843 207.98
2.9107988 -1.5463961 -1.4675058 207.98
7.7011933 -4.0913496 -0.40667331 207.98
2.8944616 -1.5377169 -1.3690224 207.98
2.9087811 -1.5453242 -1.2861811 207.98
7.750186 -4.1173773 0 207.98
3.3044758 -1.7555416 -1.3619242 207.98
7.6898284 -4.0853119 0.20216602 207.98
4.8996472 -2.6029952 -1.731248 207.98
5.2682805 -2.798836 -1.7106054 207.98
5.6094809 -2.9801028 -1.6628491 207.98
6.1011639 -3.2413151 -1.6369708 207.98
6.6098995 -3.5115869 -1.5909402 207.98
7.0937428 -3.7686343 -1.5134332 207.98
7.4545989 -3.9887493 -1.3890486 208.14999
7.6538987 -4.0953889 -1.2199914 208.14999
10.311053 -5.5171585 -1.3675584 208.14999
10.292537 -5.5072508 -1.0890651 208.14999
15.135601 -8.0986404 -1.2003694 208.14999
2.9271405 -1.5662316 -1.478081 208.14999
15.873026 -8.4932156 -0.83952653 208.14999
2.8752418 -1.5384622 -1.3620847 208.14999
16.062292 -8.5944862 -0.42294711 208.14999
2.8844717 -1.5434008 -1.2774514 208.14999
7.7432256 -4.1431851 0 208.14999
3.2942812 -1.7626785 -1.3598721 208.14999
7.6917768 -4.1156564 0.20253739 208.14999
3.3262358 -1.7797765 -1.2747059 208.14999
3.3482428 -1.7915518 -1.1849457 208.14999
5.2633433 -2.8162692 -1.7117079 208.14999
5.6006141 -2.9967332 -1.6628491 208.14999
6.0846562 -3.2557309 -1.6351262 208.14999
6.5804772 -3.5210309 -1.5863662 208.14999
7.0998597 -3.7989378 -1.5171362 208.14999
7.4191065 -3.9964476 -1.3845092 208.31
7.7017169 -4.1486812 -1.2294552 208.31
7.7789803 -4.1903009 -1.0332766 208.31
7.8051391 -4.204392 -0.82710981 208.31
7.6987395 -4.1470776 -0.61148524 208.31
2.8970182 -1.5605359 -1.4650654 208.31
15.603004 -8.4048653 -0.82648313 208.31
2.8319404 -1.5254804 -1.3435844 208.31
15.647438 -8.4288006 -0.4126415 208.31
2.8260245 -1.5222937 -1.2534447 208.31
7.7615585 -4.1809163 0 208.31
3.1222312 -1.6818514 -1.290784 208.31
7.687295 -4.1409125 0.20272309 208.31
3.3262572 -1.7917539 -1.2766266 208.31
3.3365033 -1.7972732 -1.1825627 208.31
3.3513069 -1.8052474 -1.0915239 208.31
5.5905204 -3.0114439 -1.6623425 208.31
6.090961 -3.2810161 -1.6392764 208.31
6.5930095 -3.5514543 -1.591772 208.31
7.0909534 -3.8196816 -1.5175066 208.31
7.4769225 -4.0596375 -1.3978031 208.5
8.1352329 -4.4170709 -1.3009901 208.5
11.200654 -6.081459 -1.4904457 208.5
8.1761618 -4.4392934 -0.86798227 208.5
14.935059 -8.1090755 -1.1883713 208.5
2.8789821 -1.5631597 -1.4585576 208.5
15.664589 -8.5051775 -0.83123469 208.5
2.8284881 -1.5357437 -1.3443552 208.5
7.7104211 -4.1864171 -0.20369793 208.5
2.8193235 -1.5307678 -1.2527171 208.5
7.7441363 -4.2047229 0 208.5
3.1364565 -1.702957 -1.2989925 208.5
7.7139354 -4.1883254 0.20379077 208.5
3.2919898 -1.7874047 -1.2657425 208.5
3.3053572 -1.7946626 -1.1736265 208.5
3.3554392 -1.8218548 -1.0948316 208.5
5.5873046 -3.033659 -1.6643685 208.5
6.071496 -3.2965534 -1.6369708 208.5
6.5863538 -3.5760982 -1.5930194 208.5
7.0540667 -3.8300457 -1.5123223 208.5
7.5115972 -4.1073689 -1.4065576 208.67
8.0213041 -4.3860784 -1.2848461 208.67
7.9389906 -4.3410692 -1.0581329 208.67
8.0249243 -4.3880582 -0.85330534 208.67
7.7040401 -4.2125974 -0.61399651 208.67
2.771734 -1.5155942 -1.4064953 208.67
15.802303 -8.6407576 -0.83989918 208.67
2.7526731 -1.5051718 -1.310438 208.67
7.6944571 -4.2073574 -0.20360509 208.67
2.8621726 -1.5650464 -1.2738141 208.67
7.7544389 -4.2401557 0 208.67
3.075325 -1.681599 -1.2757351 208.67
7.6804228 -4.1996832 0.20323372 208.67
3.0722153 -1.6798986 -1.1831524 208.67
3.1023519 -1.6963774 -1.1033281 208.67
3.3449585 -1.8290355 -1.0931778 208.67
3.3544369 -1.8342184 -1.0008497 208.67
6.0633955 -3.3154869 -1.6374319 208.67
6.5757141 -3.5956247 -1.5930194 208.67
7.0254269 -3.8415291 -1.5086193 208.67
7.4336843 -4.0934634 -1.3942364 208.84
8.0183001 -4.41539 -1.0704448 208.84
16.064608 -8.8462029 -1.282403 208.84
2.7480192 -1.5132356 -1.3967336 208.84
15.865848 -8.7367535 -0.84465069 208.84
2.7417288 -1.5097717 -1.3073547 208.84
15.847285 -8.726531 -0.42002255 208.84
2.9472728 -1.6229573 -1.3138254 208.84
7.7628474 -4.2747216 0 208.84
3.0061171 -1.6553608 -1.2490575 208.84
7.6906972 -4.2349911 0.2038372 208.84
3.0622382 -1.6862648 -1.1812317 208.84
3.0755637 -1.6936026 -1.0955833 208.84
3.3496213 -1.8445163 -1.0964854 208.84
5.5861526 -3.0760939 -1.6694336 208.84
6.0535316 -3.3334627 -1.6374319 208.84
6.5513077 -3.6075702 -1.5896928 208.84
7.0208845 -3.8661494 -1.5101005 208.84
7.4673834 -4.1426463 -1.4029909 209.02
8.6905775 -4.8212318 -1.3967413 209.02
9.8508873 -5.464932 -1.3173813 209.02
8.020607 -4.4495559 -0.85572052 209.02
16.113501 -8.9392138 -1.2885416 209.02
2.7400563 -1.5200886 -1.3951067 209.02
2.7418137 -1.5210634 -1.3096672 209.02
13.144694 -7.2922225 -0.3489975 209.02
2.9633379 -1.6439575 -1.3232825 209.02
7.7528772 -4.3010287 0 209.02
2.9614594 -1.6429154 -1.2326406 209.02
7.6895938 -4.2659211 0.20416215 209.02
2.949229 -1.6361303 -1.1396165 209.02
3.1570423 -1.751418 -1.1265622 209.02
5.2233372 -2.8977273 -1.7128105 209.02
5.579845 -3.0955052 -1.6704465 209.02
6.0396261 -3.3505759 -1.6365097 209.02
6.5690231 -3.6442673 -1.5967618 209.02
7.044796 -3.9082096 -1.5178769 209.02
7.5522785 -4.2173667 -1.4211484 209.17999
7.8747354 -4.3974342 -1.2675886 209.17999
11.061785 -6.1771564 -1.4816183 209.17999
7.8429799 -4.3797011 -0.83807105 209.17999
12.719581 -7.1029077 -1.0187235 209.17999
2.7517529 -1.5366423 -1.4032414 209.17999
12.682725 -7.0823269 -0.67741621 209.17999
2.7601132 -1.5413109 -1.320459 209.17999
2.9928935 -1.6713009 -1.3385596 209.17999
7.754806 -4.3304629 0 209.17999
2.9322469 -1.6374344 -1.22238 209.17999
7.7020912 -4.3010254 0.20481205 209.17999
2.9496114 -1.6471312 -1.1415372 209.17999
2.9321063 -1.6373558 -1.0479233 209.17999
5.2051539 -2.9066782 -1.7095029 209.17999
5.5678005 -3.1091886 -1.6694336 209.17999
6.0319448 -3.3683774 -1.6369708 209.17999
6.5605292 -3.6635511 -1.5971776 209.17999
7.0527306 -3.9384079 -1.5219502 209.17999
7.6068206 -4.2774816 -1.4337938 209.35001
7.8609395 -4.4203782 -1.0546483 209.35001
12.816704 -7.2071133 -1.0282104 209.35001
2.759922 -1.5519645 -1.4097492 209.35001
15.719539 -8.8394403 -0.84101719 209.35001
2.7716138 -1.558539 -1.3281674 209.35001
13.097248 -7.3648691 -0.34885824 209.35001
3.0723627 -1.7276567 -1.3763884 209.35001
7.7000842 -4.329926 0 209.35001
2.9404807 -1.6534966 -1.2278523 209.35001
7.6997528 -4.3297391 0.20509058 209.35001
2.9430597 -1.6549469 -1.1408969 209.35001
2.9338918 -1.6497915 -1.0503063 209.35001
2.9241869 -1.6443343 -0.96197438 209.35001
5.573729 -3.1342297 -1.673992 209.35001
6.0422802 -3.3977063 -1.6425042 209.35001
6.5445147 -3.6801238 -1.5959301 209.35001
7.0615721 -3.9708765 -1.5263939 209.35001
7.62082 -4.3169217 -1.4389817 209.53
7.8218775 -4.4308133 -1.2634134 209.53
12.702212 -7.1953487 -1.3619815 209.53
13.06828 -7.4027128 -1.0502535 209.53
2.7454944 -1.5552242 -1.4048684 209.53
14.323645 -8.1138315 -0.76769489 209.53
2.7859728 -1.5781538 -1.3374176 209.53
13.098402 -7.4197755 -0.34950814 209.53
3.0798879 -1.7446462 -1.3822082 209.53
7.7577915 -4.3945112 0 209.53
3.0268457 -1.7145996 -1.2661586 209.53
7.7017698 -4.3627768 0.20550838 209.53
2.9840076 -1.6903334 -1.1588235 209.53
2.9286942 -1.6590004 -1.0503063 209.53
2.9089701 -1.6478274 -0.95866674 209.53
5.5638552 -3.1517246 -1.673992 209.53
6.0315762 -3.4166718 -1.6425042 209.53
6.5431337 -3.7064509 -1.598425 209.53
7.0336714 -3.9843228 -1.5230612 209.53
7.6157908 -4.3457322 -1.4406029 209.71001
7.7752352 -4.4367146 -1.2581248 209.71001
12.715866 -7.2559438 -1.365883 209.71001
7.718152 -4.4041419 -0.62139064 209.71001
2.7405949 -1.5638417 -1.4048684 209.71001
14.341463 -8.1835442 -0.77002406 209.71001
2.7377234 -1.5622032 -1.3166049 209.71001
13.057661 -7.4509792 -0.34904394 209.71001
3.2863631 -1.8752687 -1.4775078 209.71001
7.7526331 -4.4238172 0 209.71001
3.1683538 -1.8079301 -1.3277222 209.71001
7.7071285 -4.3978515 0.20601901 209.71001
3.0280528 -1.7278714 -1.1780305 209.71001
2.951658 -1.6842788 -1.0604341 209.71001
2.903779 -1.656958 -0.95866674 209.71001
2.9105599 -1.6608273 -0.87726301 209.71001
6.0140514 -3.4317455 -1.6406597 209.71001
6.5348558 -3.7289276 -1.5992568 209.71001
7.039897 -4.0171151 -1.5271345 209.71001
7.6156054 -4.3738627 -1.4428726 209.87
7.6826062 -4.4123435 -0.82655245 209.87
2.9231734 -1.6788632 -1.5008582 209.87
14.261384 -8.1907263 -0.76694953 209.87
2.757355 -1.5836289 -1.3281674 209.87
13.014263 -7.4744687 -0.34844044 209.87
7.762795 -4.4583983 0 209.87
4.162313 -2.390537 -1.7470388 209.87
7.7121563 -4.4293146 0.20648323 209.87
3.1612325 -1.8155874 -1.2318102 209.87
3.1174684 -1.7904525 -1.1217963 209.87
5.1731071 -2.9710653 -1.7106054 209.87
5.5668654 -3.1972122 -1.6805766 209.87
6.0196328 -3.4572496 -1.6448097 209.87
6.5379887 -3.7549562 -1.6025833 209.87
7.0252433 -4.0348005 -1.5263939 209.87
7.5522866 -4.3691068 -1.4334697 210.05
7.8242011 -4.526413 -1.270372 210.05
10.008978 -5.790338 -1.3522264 210.05
11.912436 -6.8915162 -1.2839524 210.05
7.72124 -4.4668489 -0.62376237 210.05
3.1646001 -1.8307668 -1.6277601 210.05
7.6988354 -4.453887 -0.41477883 210.05
2.976006 -1.7216624 -1.4360859 210.05
3.0671527 -1.774392 -1.3836632 210.05
7.7729869 -4.4967847 0 210.05
4.2019591 -2.4308939 -1.7668761 210.05
7.6895494 -4.4485149 0.20625111 210.05
4.5052986 -2.60638 -1.7587228 210.05
4.7958179 -2.7744498 -1.728865 210.05
5.1670756 -2.9892278 -1.7117079 210.05
5.5467453 -3.2088721 -1.6775376 210.05
6.0121112 -3.4780929 -1.645732 210.05
6.53124 -3.7784164 -1.6038308 210.05
6.9870143 -4.0420885 -1.5208393 210.05
7.5444059 -4.3944755 -1.4344423 210.22
7.7534361 -4.5162315 -1.0493054 210.22
7.7251925 -4.4997802 -0.62515754 210.22
