# .PCD v0.7 - Point Cloud Data file format
VERSION 0.7
FIELDS x y z intensity
SIZE 4 4 4 4
TYPE F F F F
COUNT 1 1 1 1
WIDTH 1245
HEIGHT 1
VIEWPOINT 0 0 0 1 0 0 0
POINTS 1245
DATA ascii
7.3329182 2.9003472 -1.8684522 158.42
8.2044506 3.2450593 -1.8753635 158.42
9.2460995 3.6570568 -1.8733689 158.42
10.746672 4.2137384 -1.8964858 158.59
12.615714 4.9465847 -1.9044447 158.59
15.423842 6.0476432 -1.9373937 158.59
19.558998 7.6690254 -1.9600198 158.59
26.578232 10.421247 -1.9962908 158.59
3.9803569 1.5606862 -1.9035275 158.59
4.2283115 1.6579086 -1.8970518 158.59
31.341784 12.289021 -0.7816003 158.59
4.5199509 1.7722594 -1.8958077 158.59
60.626205 23.771358 0 158.59
4.8414001 1.8982987 -1.8927394 158.59
16.079487 6.3047194 0.40098968 158.59
5.2461448 2.056998 -1.9040558 158.59
31.580309 12.382546 1.58188 158.59
5.6683178 2.2225308 -1.8998451 158.59
6.1696272 2.4190927 -1.9002439 158.59
6.744009 2.6443062 -1.8963468 158.59
15.636521 6.1310344 1.9641083 158.59
7.3342443 2.8757355 -1.8666078 158.59
8.2176847 3.2221301 -1.8761951 158.59
9.2550793 3.6288896 -1.8729986 158.59
10.767215 4.1828146 -1.8977828 158.77
12.620115 4.9026237 -1.9027747 158.77
15.439062 5.9977198 -1.936929 158.77
19.577425 7.6053782 -1.9594625 158.77
26.607121 10.336252 -1.9960117 158.77
3.9920528 1.5508204 -1.9067814 158.77
4.2334991 1.6446167 -1.8970518 158.77
31.395145 12.19629 -0.78197169 158.77
4.5220227 1.7567016 -1.8943528 158.77
60.827358 23.630026 0 158.77
4.8455882 1.8823992 -1.8920554 158.77
16.164446 6.2795143 0.40261444 158.77
5.2614121 2.0439372 -1.907257 158.77
31.669334 12.302806 1.5843955 158.77
5.6645947 2.2005644 -1.8962706 158.77
27.775028 10.789958 2.0836258 158.77
6.196909 2.4073563 -1.9063079 158.77
6.7486763 2.6217051 -1.8953339 158.77
15.803838 6.1394262 1.9826924 158.77
7.3414283 2.8519754 -1.8661467 158.77
8.2259436 3.1955893 -1.8757793 158.77
9.2682657 3.6005075 -1.8733689 158.77
10.788787 4.1543951 -1.8994039 158.94
12.641999 4.8680043 -1.903888 158.94
15.443813 5.946888 -1.935303 158.94
19.607338 7.5501194 -1.9602056 158.94
26.579952 10.235037 -1.9916868 158.94
4.0051618 1.5422517 -1.9108487 158.94
4.2418046 1.6333748 -1.8985934 158.94
31.371485 12.080093 -0.78048617 158.94
4.5219994 1.7412684 -1.8921703 158.94
4.8529058 1.8686891 -1.8927394 158.94
16.160616 6.2229042 0.40205738 158.94
5.263917 2.0269556 -1.9059765 158.94
15.843528 6.1008043 0.79173189 158.94
5.6693172 2.1830614 -1.8956748 158.94
15.607996 6.0101089 1.1695371 158.94
6.1986423 2.3868866 -1.9046541 158.94
6.7582307 2.602365 -1.8958404 158.94
15.883159 6.1160645 1.9903584 158.94
7.3498578 2.8301806 -1.8661467 158.94
8.2372141 3.1718714 -1.8761951 158.94
9.2789087 3.5729923 -1.8733689 158.94
10.816939 4.1305876 -1.9023222 159.10001
12.659245 4.8340955 -1.9044447 159.10001
15.295197 5.8406677 -1.9146281 159.10001
19.615322 7.4903636 -1.9589051 159.10001
26.451866 10.100986 -1.9799677 159.10001
4.0026255 1.5284541 -1.9075948 159.10001
4.2429013 1.6202064 -1.8970518 159.10001
31.369606 11.978888 -0.77960414 159.10001
4.5303254 1.7299631 -1.8936253 159.10001
4.8703952 1.8598231 -1.8975278 159.10001
16.172327 6.175611 0.40191811 159.10001
5.2624764 2.0095444 -1.9034156 159.10001
5.6807418 2.1692643 -1.8974621 159.10001
28.004461 10.693864 2.0961821 159.10001
6.2124677 2.3723106 -1.9068593 159.10001
6.7654715 2.5834823 -1.8958404 159.10001
15.870483 6.0603485 1.9866415 159.10001
7.3631868 2.8117275 -1.86753 159.10001
8.2442122 3.1481586 -1.8757793 159.10001
9.2925224 3.5484691 -1.8741095 159.10001
10.826171 4.0951881 -1.9016737 159.28
12.665107 4.7907977 -1.9030529 159.28
13.953429 5.2781286 -1.7445835 159.28
13.909545 5.2615285 -1.3874339 159.28
26.41629 9.9924231 -1.9749453 159.28
4.0056987 1.5152254 -1.9067814 159.28
4.2496963 1.6075219 -1.8978226 159.28
4.5374804 1.7163812 -1.8943528 159.28
4.876214 1.8445132 -1.8975278 159.28
16.337519 6.1799517 0.40553901 159.28
5.2723079 1.9943426 -1.9046961 159.28
15.692591 5.9359965 0.78241521 159.28
5.6928859 2.1534336 -1.8992493 159.28
28.045382 10.608656 2.09674 159.28
6.2180915 2.3521018 -1.9063079 159.28
6.7771735 2.5635843 -1.8968533 159.28
7.3847256 2.7934015 -1.8707578 159.28
8.2540617 3.1222432 -1.8757793 159.28
15.686411 5.9336591 2.7554002 159.28
9.3036242 3.5192583 -1.8741095 159.28
10.831591 4.0583868 -1.9003767 159.46001
12.670821 4.7475114 -1.9016613 159.46001
13.801067 5.1709924 -1.3749864 159.46001
26.445684 9.9086847 -1.9748057 159.46001
4.0138607 1.5039158 -1.9084083 159.46001
4.2564535 1.5948106 -1.8985934 159.46001
4.5480838 1.7040788 -1.8965352 159.46001
4.8802247 1.8285257 -1.8968437 159.46001
16.997196 6.3685203 0.42141518 159.46001
5.2749987 1.9764397 -1.9034156 159.46001
15.763544 5.9062943 0.78502393 159.46001
5.6853204 2.1301794 -1.8944833 159.46001
27.755358 10.399394 2.0726044 159.46001
6.2272506 2.33323 -1.9068593 159.46001
6.7851939 2.5422807 -1.8968533 159.46001
15.858024 5.9416938 1.9803694 159.46001
7.4080439 2.7756505 -1.8744467 159.46001
8.2656612 3.0969832 -1.8761951 159.46001
9.3164749 3.4907024 -1.8744798 159.46001
10.850985 4.0289788 -1.9016737 159.63
12.671855 4.7050695 -1.8997128 159.63
15.493824 5.7528687 -1.9327476 159.63
13.775279 5.1147718 -1.3708992 159.63
26.454393 9.8225365 -1.9732711 159.63
4.0217309 1.4932718 -1.9100353 159.63
31.005749 11.512459 -1.5423772 159.63
4.261167 1.5821745 -1.8985934 159.63
4.546134 1.6879829 -1.8936253 159.63
25.875891 9.6077385 0 159.63
4.8838668 1.8133835 -1.8961596 159.63
16.461187 6.112052 0.4076744 159.63
5.2843924 1.9620988 -1.9046961 159.63
14.436262 5.3601952 0.71813011 159.63
5.6969852 2.1152949 -1.8962706 159.63
17.199844 6.3863153 1.282961 159.63
6.2305412 2.3134048 -1.9057567 159.63
6.7908936 2.5214639 -1.8963468 159.63
7.4162469 2.7536581 -1.8744467 159.63
8.2711468 3.0710831 -1.8753635 159.63
9.3194208 3.4603081 -1.8729986 159.63
10.858031 3.9928262 -1.9007009 159.81
12.69401 4.6679707 -1.9008262 159.81
15.509956 5.7034798 -1.9325153 159.81
13.768851 5.0632229 -1.3686697 159.81
26.481377 9.7380018 -1.9729921 159.81
4.0178285 1.4774768 -1.905968 159.81
31.053015 11.419131 -1.5429362 159.81
4.2678485 1.5694168 -1.8993644 159.81
4.5514145 1.6736926 -1.8936253 159.81
27.418896 10.082756 0 159.81
4.8895397 1.7980314 -1.8961596 159.81
16.606041 6.1065431 0.41078463 159.81
5.2958651 1.9474497 -1.9066168 159.81
14.501781 5.3327432 0.72055244 159.81
5.694643 2.0940924 -1.8932918 159.81
16.452084 6.0499282 1.2257607 159.81
6.221539 2.2878478 -1.9007952 159.81
15.910714 5.8508506 1.5815781 159.81
6.7987814 2.5001173 -1.8963468 159.81
16.061819 5.9064164 2.0012765 159.81
7.4230347 2.7296741 -1.8739856 159.81
15.932106 5.858717 2.3857052 159.81
8.2807531 3.0450833 -1.8753635 159.81
15.799899 5.8101006 2.7657759 159.81
9.330245 3.4310131 -1.8729986 159.81
10.867285 3.9618134 -1.9003767 159.97
12.712578 4.6345391 -1.9016613 159.97
13.782937 5.0247531 -1.3686697 159.97
26.534708 9.6735811 -1.9749453 159.97
4.0253716 1.4675028 -1.9075948 159.97
27.188156 9.9118042 -1.3495219 159.97
4.2670131 1.5555964 -1.8970518 159.97
27.152136 9.8986731 -0.67097765 159.97
4.5578208 1.6616142 -1.8943528 159.97
25.938086 9.4560747 0 159.97
4.8892446 1.7824391 -1.8941076 159.97
16.258596 5.9272876 0.40177885 159.97
5.2870417 1.9274614 -1.9014949 159.97
15.907464 5.7992778 0.78958911 159.97
5.7004685 2.0781817 -1.8932918 159.97
15.422972 5.6226497 1.1479125 159.97
6.2387409 2.274416 -1.9041028 159.97
16.035503 5.8459563 1.5923536 159.97
6.8075542 2.4817846 -1.8968533 159.97
15.609807 5.690763 1.9429688 159.97
7.4342852 2.7102675 -1.8749079 159.97
15.907469 5.7992792 2.3795817 159.97
8.2855492 3.020607 -1.8745317 159.97
15.804937 5.7619004 2.7638307 159.97
9.3416367 3.405618 -1.8733689 159.97
10.887103 3.9303339 -1.9016737 160.14999
12.71776 4.5912161 -1.9002695 160.14999
15.300632 5.523654 -1.9023161 160.14999
13.787416 4.9773707 -1.367555 160.14999
26.549955 9.584753 -1.9738292 160.14999
4.0282435 1.4542291 -1.9067814 160.14999
27.268019 9.8439789 -1.3519442 160.14999
4.2753506 1.5434368 -1.8985934 160.14999
27.220713 9.8269014 -0.67190605 160.14999
4.5612659 1.6466546 -1.8936253 160.14999
26.067368 9.4105339 0 160.14999
4.9018908 1.769623 -1.8968437 160.14999
26.603857 9.6042109 0.65667981 160.14999
5.2948532 1.9114856 -1.9021351 160.14999
15.961308 5.7621636 0.79135925 160.14999
5.708765 2.0609112 -1.8938876 160.14999
6.2277722 2.2482772 -1.8985901 160.14999
16.059408 5.7975788 1.5929109 160.14999
6.8225965 2.4630136 -1.8988794 160.14999
15.863031 5.726685 1.9722389 160.14999
7.435441 2.6842554 -1.8730634 160.14999
8.2968378 2.9952266 -1.8749477 160.14999
9.3559866 3.3775885 -1.8741095 160.14999
10.890604 3.8972564 -1.9003767 160.31
12.74545 4.5610223 -1.9024963 160.31
15.244925 5.4554715 -1.8934886 160.31
13.821886 4.9462304 -1.3695987 160.31
26.593523 9.5166235 -1.9750848 160.31
4.0305686 1.4423589 -1.905968 160.31
4.2761688 1.5302482 -1.8970518 160.31
4.5640926 1.633283 -1.8928978 160.31
4.9121218 1.7578272 -1.8988959 160.31
16.901546 6.0483022 0.41677302 160.31
5.305522 1.8986074 -1.9040558 160.31
15.958527 5.7108378 0.79042757 160.31
5.714498 2.0449612 -1.8938876 160.31
15.92944 5.700429 1.1830698 160.31
6.2285962 2.2289338 -1.8969363 160.31
16.452394 5.8875709 1.6302534 160.31
6.8349133 2.4459074 -1.9003989 160.31
15.994921 5.7238612 1.9866415 160.31
7.4612312 2.6700385 -1.8776746 160.31
16.049757 5.7434845 2.3957257 160.31
8.3051691 2.9720459 -1.8749477 160.31
15.74966 5.6360936 2.7482669 160.31
9.3690834 3.352773 -1.8748502 160.31
10.9077 3.8669045 -1.9013494 160.48
12.747726 4.5192151 -1.9008262 160.48
15.268534 5.4128699 -1.8944179 160.48
13.872162 4.9178405 -1.3731285 160.48
26.655491 9.4496775 -1.977596 160.48
4.0331082 1.4297831 -1.9051545 160.48
4.2806902 1.5175538 -1.8970518 160.48
4.5706744 1.6203564 -1.8936253 160.48
27.370924 9.7033062 0 160.48
4.9155445 1.7426169 -1.8982118 160.48
16.889265 5.9874382 0.41603029 160.48
5.3057747 1.8809578 -1.9021351 160.48
16.103445 5.7088561 0.79676294 160.48
5.7223396 2.028635 -1.8944833 160.48
15.948164 5.6538067 1.1832093 160.48
6.2551146 2.2175097 -1.9030004 160.48
16.357178 5.7988067 1.6191064 160.48
6.8384929 2.424324 -1.8993859 160.48
7.4562807 2.643337 -1.8744467 160.48
8.3121071 2.9467373 -1.8745317 160.48
15.88908 5.6328611 2.7696669 160.48
9.3752851 3.3236461 -1.8741095 160.48
10.913538 3.832562 -1.9003767 160.64999
12.761079 4.4813719 -1.9008262 160.64999
15.293898 5.3708348 -1.8955793 160.64999
13.922391 4.8891959 -1.3766584 160.64999
26.672117 9.366581 -1.976759 160.64999
4.0356088 1.417205 -1.904341 160.64999
4.2851739 1.504846 -1.8970518 160.64999
73.2836 25.735369 -1.803293 160.64999
4.5789776 1.6080225 -1.8950802 160.64999
31.943548 11.217775 0 160.64999
4.91892 1.7274019 -1.8975278 160.64999
16.854134 5.9187503 0.41473049 160.64999
5.3113322 1.8652071 -1.9021351 160.64999
14.77444 5.1884141 0.73024178 160.64999
5.724731 2.0103824 -1.8932918 160.64999
15.968634 5.6077847 1.1834884 160.64999
6.2634802 2.1995778 -1.9035516 160.64999
16.394978 5.7575064 1.62115 160.64999
6.8474813 2.4046643 -1.8998923 160.64999
7.4640908 2.621202 -1.8744467 160.64999
8.3226595 2.9227099 -1.8749477 160.64999
15.915033 5.5889621 2.7712882 160.64999
9.3758335 3.2925584 -1.8722579 160.64999
10.924323 3.7957025 -1.9000524 160.84
12.783353 4.4416299 -1.9019396 160.84
15.472997 5.3761582 -1.9155573 160.84
13.961101 4.8508434 -1.3788879 160.84
26.746378 9.2931423 -1.9799677 160.84
4.0437384 1.4050139 -1.905968 160.84
4.2953706 1.4924448 -1.8993644 160.84
4.5825248 1.5922177 -1.8943528 160.84
31.950344 11.101283 0 160.84
4.9157448 1.7079965 -1.8941076 160.84
27.48251 9.5489149 0.67548054 160.84
5.3210678 1.8488276 -1.9034156 160.84
5.7475972 1.997027 -1.8986536 160.84
16.107758 5.5967083 1.1924171 160.84
6.2471313 2.1705923 -1.896385 160.84
16.6999 5.8024507 1.6493891 160.84
6.8554182 2.3819439 -1.8998923 160.84
7.4653888 2.5938809 -1.8726023 160.84
8.3286104 2.8938107 -1.8741159 160.84
15.987542 5.5549393 2.7806911 160.84
9.3774176 3.2582235 -1.8704065 160.84
10.931806 3.7619884 -1.8994039 161.00999
12.77962 4.3978815 -1.8994344 161.00999
14.021888 4.825386 -1.7341299 161.00999
19.827715 6.823359 -1.9563042 161.00999
26.839861 9.2364664 -1.9848506 161.00999
4.042706 1.3912262 -1.9035275 161.00999
4.2980347 1.479093 -1.8985934 161.00999
4.5889907 1.5792203 -1.8950802 161.00999
31.939646 10.991467 0 161.00999
4.935008 1.6982961 -1.8995799 161.00999
15.410617 5.3032928 0.37838238 161.00999
5.324738 1.832415 -1.9027754 161.00999
17.370255 5.9776669 0.85666925 161.00999
5.7516918 1.9793435 -1.8980578 161.00999
16.231825 5.585897 1.2003694 161.00999
6.2499084 2.1507959 -1.8952825 161.00999
16.031639 5.5170064 1.5817639 161.00999
6.8533077 2.3584452 -1.8973598 161.00999
7.4896135 2.5774188 -1.8767524 161.00999
8.3390093 2.8697233 -1.8745317 161.00999
9.3851852 3.2297463 -1.8700361 161.00999
10.941051 3.7289 -1.8990797 161.17999
12.801986 4.3631387 -1.9008262 161.17999
19.836563 6.7606444 -1.9551895 161.17999
26.999342 9.2018433 -1.9946166 161.17999
4.0485454 1.3798145 -1.904341 161.17999
4.3093915 1.4687154 -1.9016768 161.17999
4.5918927 1.5649966 -1.8943528 161.17999
27.404131 9.3398027 0 161.17999
4.9275727 1.6794022 -1.8947916 161.17999
27.075012 9.2276335 0.66410726 161.17999
5.3283582 1.8159969 -1.9021351 161.17999
14.908789 5.0811734 0.73452747 161.17999
5.7466965 1.9585738 -1.8944833 161.17999
14.75833 5.0298948 1.0902936 161.17999
6.2744598 2.1384447 -1.9007952 161.17999
6.8676004 2.3405974 -1.8993859 161.17999
7.5045962 2.5576966 -1.8785969 161.17999
8.3493385 2.8455994 -1.8749477 161.17999
9.377984 3.1961794 -1.8667034 161.17999
10.948972 3.6932476 -1.8984312 161.36
12.817507 4.3235316 -1.9011046 161.36
19.85393 6.6970201 -1.9548179 161.36
27.092392 9.1386585 -1.9993601 161.36
4.0493979 1.3659209 -1.902714 161.36
4.3069897 1.4528104 -1.8985934 161.36
4.5985518 1.5511584 -1.8950802 161.36
27.357534 9.2280951 0 161.36
4.9328246 1.6639135 -1.8947916 161.36
26.094057 8.8019056 0.63936454 161.36
5.3412185 1.8016708 -1.9046961 161.36
14.937929 5.0387812 0.73517966 161.36
5.7781482 1.9490535 -1.9028239 161.36
15.029274 5.069593 1.1091279 161.36
6.2683954 2.1144211 -1.8969363 161.36
16.404682 5.5335383 1.6152049 161.36
6.8749199 2.3190105 -1.8993859 161.36
16.283468 5.492651 2.0096393 161.36
7.4978423 2.5291314 -1.8749079 161.36
8.3545303 2.8181047 -1.8741159 161.36
9.3786669 3.1635609 -1.864852 161.36
10.961114 3.6632836 -1.8987554 161.52
12.827652 4.2870936 -1.9008262 161.52
15.388757 5.1430335 -1.8974378 161.52
19.88011 6.6440759 -1.955561 161.52
27.250263 9.107235 -2.0091259 161.52
4.0566621 1.3557658 -1.904341 161.52
4.3145308 1.4419473 -1.9001352 161.52
4.6010985 1.5377203 -1.8943528 161.52
27.155573 9.0755882 0 161.52
4.9552765 1.6560892 -1.901632 161.52
16.716393 5.5867391 0.4092063 161.52
5.3426347 1.7855471 -1.9034156 161.52
14.993628 5.0109787 0.73722929 161.52
5.7890005 1.9347258 -1.9046111 161.52
14.297826 4.7784367 1.0541599 161.52
6.2870393 2.1011739 -1.9007952 161.52
16.5485 5.5306282 1.6278383 161.52
6.8703589 2.2961235 -1.8963468 161.52
16.366568 5.4698253 2.0180023 161.52
7.5030298 2.5075667 -1.8744467 161.52
8.3642225 2.7953835 -1.8745317 161.52
9.3818722 3.1354895 -1.863741 161.52
10.971935 3.6307452 -1.8987554 161.69
12.844076 4.2502589 -1.9013829 161.69
15.394519 5.0942311 -1.8962764 161.69
19.873268 6.576303 -1.95296 161.69
27.280954 9.0275955 -2.0094049 161.69
4.064136 1.3448715 -1.905968 161.69
4.31879 1.4291395 -1.9001352 161.69
4.6074095 1.5246471 -1.8950802 161.69
32.227337 10.664412 0 161.69
4.9476786 1.6372464 -1.8968437 161.69
5.347909 1.7696874 -1.9034156 161.69
5.7947154 1.917541 -1.9046111 161.69
6.2768192 2.0770748 -1.8958337 161.69
16.593195 5.4908876 1.630625 161.69
6.8844886 2.2781601 -1.8983729 161.69
16.378954 5.4199924 2.0175376 161.69
7.5122848 2.4859052 -1.8749079 161.69
8.376194 2.7717834 -1.8753635 161.69
9.3874025 3.1064043 -1.8630004 161.69
10.975785 3.5938015 -1.8974586 161.87
12.86113 4.2111197 -1.9019396 161.87
15.440653 5.0557332 -1.8999931 161.87
19.873013 6.5070205 -1.9509164 161.87
27.458971 8.9908915 -2.0204265 161.87
4.0631318 1.3303914 -1.9035275 161.87
4.317997 1.4138417 -1.8978226 161.87
32.14748 10.52605 -0.78536046 161.87
4.6157174 1.5113245 -1.8965352 161.87
32.249275 10.559381 0 161.87
4.9510117 1.6211098 -1.8961596 161.87
16.839518 5.5137634 0.41138813 161.87
5.3498411 1.7516985 -1.9021351 161.87
5.7934532 1.8969506 -1.9022281 161.87
14.194024 4.6475496 1.0443939 161.87
6.296103 2.0615332 -1.8996927 161.87
16.682278 5.4622784 1.6376848 161.87
6.8860955 2.2547143 -1.8968533 161.87
7.5163584 2.4610813 -1.8739856 161.87
8.3830013 2.7448463 -1.8749477 161.87
9.3915119 3.0750628 -1.8618895 161.87
10.984523 3.5606112 -1.8971343 162.03999
12.873568 4.1729417 -1.9019396 162.03999
15.536841 5.0362363 -1.9099821 162.03999
16.842381 5.4594245 -1.6518044 162.03999
4.0705376 1.3194568 -1.9051545 162.03999
16.823036 5.4531546 -0.82471299 162.03999
4.3362174 1.4055763 -1.9039893 162.03999
16.834881 5.4569936 -0.4108775 162.03999
4.6148648 1.4958993 -1.8943528 162.03999
32.312809 10.474133 0 162.03999
4.9558001 1.6064128 -1.8961596 162.03999
16.285194 5.2788134 0.39746165 162.03999
5.3586197 1.736986 -1.9034156 162.03999
16.566473 5.3699894 0.81213546 162.03999
5.8045049 1.8815188 -1.9040154 162.03999
14.186873 4.5986471 1.0428593 162.03999
6.2930479 2.0398791 -1.8969363 162.03999
16.088442 5.2150364 1.5778624 162.03999
6.8909144 2.2336764 -1.8963468 162.03999
7.5254784 2.4393692 -1.8744467 162.03999
8.3929701 2.7205646 -1.8753635 162.03999
9.4062033 3.0490024 -1.8630004 162.03999
10.988137 3.5236742 -1.8958373 162.22
12.890386 4.133687 -1.9024963 162.22
15.531778 4.9807286 -1.9074267 162.22
16.84807 5.4028368 -1.6506897 162.22
16.857218 5.4057703 -1.2378983 162.22
4.0764027 1.3072202 -1.905968 162.22
4.3406115 1.3919468 -1.9039893 162.22
16.7834 5.3820982 -0.4092063 162.22
4.6177673 1.4808251 -1.8936253 162.22
16.759354 5.3743877 0 162.22
4.9626117 1.5914097 -1.8968437 162.22
15.97612 5.12322 0.38952357 162.22
5.356833 1.7178285 -1.9008547 162.22
5.8103871 1.8632742 -1.9040154 162.22
15.183464 4.8690314 1.1149875 162.22
6.2975945 2.0195117 -1.896385 162.22
15.939773 5.1115642 1.5616992 162.22
6.8923707 2.2102444 -1.8948274 162.22
7.5331049 2.4157152 -1.8744467 162.22
8.405201 2.6953788 -1.8761951 162.22
9.4475517 3.0296397 -1.8692956 162.22
11.000424 3.4916534 -1.8961616 162.39
12.895042 4.0930257 -1.9013829 162.39
15.427206 4.8967614 -1.8927917 162.39
16.871618 5.3552341 -1.6514329 162.39
16.888395 5.360559 -1.2390145 162.39
4.0820045 1.2956723 -1.9067814 162.39
16.846514 5.3472652 -0.82424718 162.39
4.3394456 1.3773868 -1.9016768 162.39
16.805012 5.3340917 -0.40934557 162.39
4.6239166 1.4676811 -1.8943528 162.39
16.742821 5.3143516 0 162.39
4.9673119 1.5766783 -1.8968437 162.39
5.3709364 1.7047931 -1.9040558 162.39
14.9842 4.7561464 0.73312998 162.39
5.8140702 1.8454486 -1.9034196 162.39
16.574627 5.2609653 1.2159948 162.39
6.3053913 2.0013993 -1.8969363 162.39
16.013708 5.0829239 1.5674585 162.39
6.9007425 2.1903701 -1.8953339 162.39
7.5439491 2.3945308 -1.8753691 162.39
8.4131613 2.6704283 -1.8761951 162.39
9.4845991 3.010514 -1.8748502 162.39
11.015105 3.4582598 -1.8968101 162.57001
12.917286 4.0554609 -1.9027747 162.57001
15.49179 4.8637424 -1.8988316 162.57001
16.903559 5.3069758 -1.6529191 162.57001
16.929899 5.3152452 -1.2408282 162.57001
4.0825686 1.2817473 -1.9051545 162.57001
16.954721 5.3230386 -0.82871914 162.57001
4.3402295 1.3626417 -1.9001352 162.57001
16.848392 5.2896562 -0.40999547 162.57001
4.6267271 1.4525893 -1.8936253 162.57001
16.770882 5.2653208 0 162.57001
4.988378 1.5661318 -1.9030001 162.57001
16.566061 5.2010159 0.40312508 162.57001
5.3744578 1.6873438 -1.9034156 162.57001
5.8107314 1.8243147 -1.9004409 162.57001
15.283355 4.7983027 1.1201495 162.57001
6.3208189 1.9844598 -1.8996927 162.57001
6.9131274 2.1704187 -1.8968533 162.57001
7.5514345 2.3708191 -1.8753691 162.57001
8.4196424 2.6433983 -1.8757793 162.57001
9.5165119 2.9877672 -1.8792938 162.57001
11.017181 3.4251428 -1.8955131 162.73
12.924778 4.0181975 -1.902218 162.73
15.376322 4.7803602 -1.8830351 162.73
19.418884 6.0371566 -1.8972249 162.73
27.497471 8.5487165 -2.0135903 162.73
4.0878768 1.2708842 -1.905968 162.73
4.3422556 1.3499683 -1.8993644 162.73
4.6289864 1.4391103 -1.8928978 162.73
4.9801698 1.54829 -1.8982118 162.73
16.467869 5.1197128 0.40038621 162.73
5.3791485 1.6723289 -1.9034156 162.73
14.655408 4.5562348 0.71570778 162.73
5.8085108 1.8058138 -1.8980578 162.73
47.320873 14.711635 3.4652226 162.73
6.3189926 1.964518 -1.8974875 162.73
16.035982 4.9854426 1.5667154 162.73
6.9117713 2.1488075 -1.8948274 162.73
7.5561671 2.3491445 -1.8749079 162.73
8.423255 2.6187143 -1.8749477 162.73
9.5173111 2.9588466 -1.8778125 162.73
11.02541 3.3918588 -1.8951888 162.89999
12.940429 3.9809959 -1.9027747 162.89999
14.581614 4.4858904 -1.7840748 162.89999
19.455744 5.9853683 -1.8990827 162.89999
27.541782 8.4729586 -2.0149856 162.89999
4.0898833 1.2582123 -1.9051545 162.89999
4.3568254 1.3403345 -1.9039893 162.89999
4.6350164 1.4259173 -1.8936253 162.89999
32.338303 9.9485607 0 162.89999
4.9793525 1.5318489 -1.8961596 162.89999
16.362591 5.0337901 0.39746165 162.89999
5.3822761 1.6558043 -1.9027754 162.89999
5.8193173 1.7902558 -1.8998451 162.89999
15.528127 4.7770758 1.1360539 162.89999
6.3303061 1.9474565 -1.8991414 162.89999
6.9199657 2.1288593 -1.8953339 162.89999
7.5649643 2.327287 -1.8753691 162.89999
8.4328575 2.5942857 -1.8753635 162.89999
9.5354414 2.9334848 -1.8796641 162.89999
11.042976 3.3614297 -1.8964858 163.07001
12.944605 3.9402764 -1.9016613 163.07001
15.767389 4.7995186 -1.9274046 163.07001
19.955395 6.0743275 -1.946086 163.07001
27.540079 8.38307 -2.0130324 163.07001
4.0953465 1.246604 -1.905968 163.07001
42.416267 12.911311 -2.067652 163.07001
4.3590174 1.3268642 -1.9032185 163.07001
4.6445737 1.4137862 -1.8958077 163.07001
4.9838758 1.5170681 -1.8961596 163.07001
16.316244 4.9665871 0.39597616 163.07001
5.3907905 1.640931 -1.9040558 163.07001
15.0243 4.5733256 0.73238462 163.07001
5.8282566 1.7740936 -1.9010366 163.07001
6.3323779 1.9275458 -1.8980389 163.07001
6.406682 1.9501636 0.62479115 163.07001
6.9225497 2.1071913 -1.8943208 163.07001
7.571836 2.304831 -1.8753691 163.07001
8.4405184 2.5692537 -1.8753635 163.07001
9.553504 2.9080412 -1.8815156 163.07001
11.051012 3.3280807 -1.8961616 163.24001
12.961928 3.9035649 -1.9024963 163.24001
15.775854 4.7509961 -1.9267077 163.24001
19.948542 6.007627 -1.9436709 163.24001
27.530445 8.2909641 -2.0105212 163.24001
4.1060247 1.2365549 -1.9092218 163.24001
4.3558669 1.3117963 -1.9001352 163.24001
4.6451802 1.3989248 -1.8943528 163.24001
4.9883552 1.502274 -1.8961596 163.24001
16.191147 4.8760643 0.39258736 163.24001
5.3974495 1.6254754 -1.9046961 163.24001
5.8389792 1.7584447 -1.9028239 163.24001
15.613512 4.702106 1.1402394 163.24001
6.3435917 1.910412 -1.8996927 163.24001
6.4410415 1.9397595 0.6275779 163.24001
6.930624 2.0872004 -1.8948274 163.24001
7.5767779 2.2817936 -1.8749079 163.24001
8.4443579 2.5430706 -1.8745317 163.24001
9.552681 2.8768489 -1.8796641 163.24001
11.065196 3.2944729 -1.8968101 163.42
12.977924 3.863955 -1.9030529 163.42
15.84401 4.7172832 -1.9332123 163.42
27.544884 8.2010183 -2.0096841 163.42
4.1011338 1.2210424 -1.9051545 163.42
4.3599668 1.2981055 -1.9001352 163.42
40.781376 12.141958 -0.98789781 163.42
4.6477666 1.3837931 -1.8936253 163.42
4.9948511 1.4871316 -1.8968437 163.42
16.068411 4.7840943 0.38924503 163.42
5.4043455 1.6090515 -1.9053363 163.42
5.8371553 1.7379131 -1.9004409 163.42
15.574667 4.6370907 1.136333 163.42
6.3440347 1.8888278 -1.8980389 163.42
6.4642806 1.924629 0.62924999 163.42
6.9445643 2.0676253 -1.8968533 163.42
6.4465055 1.9193368 0.78657252 163.42
7.583909 2.2579792 -1.8749079 163.42
8.4523058 2.5165293 -1.8745317 163.42
9.5673227 2.8485067 -1.880775 163.42
11.081171 3.2613659 -1.8977828 163.60001
12.9786 3.8198094 -1.9013829 163.60001
15.875903 4.6725321 -1.935303 163.60001
19.936226 5.8675504 -1.9388405 163.60001
27.559027 8.111063 -2.008847 163.60001
4.1049495 1.2081523 -1.9051545 163.60001
40.678669 11.972383 -1.9774665 163.60001
4.3675642 1.285444 -1.9016768 163.60001
40.869194 12.028458 -0.98910481 163.60001
4.6574526 1.3707629 -1.8958077 163.60001
32.701096 9.6244555 0 163.60001
5.0013018 1.471963 -1.8975278 163.60001
16.058426 4.7262516 0.38864154 163.60001
5.4075561 1.5915303 -1.9046961 163.60001
5.844418 1.7201058 -1.9010366 163.60001
15.58533 4.5870118 1.1360539 163.60001
6.3591585 1.8716022 -1.9007952 163.60001
6.4932189 1.9110583 0.63147938 163.60001
6.9473133 2.0447056 -1.8958404 163.60001
7.5946989 2.2352414 -1.8758302 163.60001
8.4564161 2.4888587 -1.8737001 163.60001
9.583766 2.8206556 -1.8822562 163.60001
11.090798 3.2284732 -1.8977828 163.77
13.008892 3.7868199 -1.9041663 163.77
15.893511 4.6265173 -1.9357675 163.77
19.867508 5.7833271 -1.9304802 163.77
27.554237 8.0208941 -2.0067542 163.77
4.1102705 1.1964781 -1.905968 163.77
40.725521 11.854985 -1.9780254 163.77
4.3695869 1.2719637 -1.900906 163.77
40.816391 11.881436 -0.98696941 163.77
4.6632881 1.3574586 -1.8965352 163.77
5.0092559 1.458168 -1.8988959 163.77
16.005186 4.6590252 0.38701677 163.77
5.4122543 1.5754788 -1.9046961 163.77
15.397474 4.4821239 0.74785036 163.77
5.8549953 1.7043582 -1.9028239 163.77
15.633352 4.5507865 1.1385652 163.77
6.3628378 1.8521886 -1.9002439 163.77
6.5160685 1.8967932 0.63315141 163.77
6.9552073 2.0246243 -1.8963468 163.77
6.5038848 1.8932467 0.79214776 163.77
7.6012979 2.2126977 -1.8758302 163.77
8.4637632 2.463757 -1.8737001 163.77
9.5845442 2.7900105 -1.880775 163.77
11.102225 3.1960979 -1.8981071 163.94
13.008651 3.7449179 -1.9024963 163.94
15.901442 4.5776916 -1.9350706 163.94
19.955385 5.7447367 -1.9373542 163.94
27.560659 7.9341359 -2.0054986 163.94
4.1155581 1.1847829 -1.9067814 163.94
40.827713 11.753442 -1.9812863 163.94
4.3733416 1.2589933 -1.900906 163.94
40.893738 11.772449 -0.98799068 163.94
4.6637149 1.3425857 -1.8950802 163.94
5.0135603 1.4432988 -1.8988959 163.94
5.4223676 1.5609859 -1.9066168 163.94
5.8545222 1.6853942 -1.9010366 163.94
16.649515 4.793046 1.2115304 163.94
6.3793902 1.8364927 -1.9035516 163.94
6.5446315 1.8840622 0.63538086 163.94
6.9537468 2.001838 -1.8943208 163.94
6.5381079 1.8821841 0.7956323 163.94
7.6078296 2.1901345 -1.8758302 163.94
8.471036 2.4386337 -1.8737001 163.94
9.5984468 2.7631915 -1.8818859 163.94
11.110313 3.1606636 -1.8977828 164.12
13.016541 3.7029476 -1.9019396 164.12
15.896638 4.5222778 -1.9327476 164.12
20.007811 5.6918249 -1.9406983 164.12
27.570097 7.8431454 -2.0043826 164.12
4.1227746 1.1728475 -1.9084083 164.12
40.906712 11.637147 -1.983336 164.12
4.3826003 1.2467628 -1.9032185 164.12
40.855515 11.622582 -0.98618025 164.12
4.6679096 1.3279276 -1.8950802 164.12
5.0198774 1.4280554 -1.8995799 164.12
16.377592 4.6590996 0.39532626 164.12
5.4217777 1.5423881 -1.9046961 164.12
5.854279 1.6654261 -1.8992493 164.12
15.622479 4.4442854 1.1357749 164.12
6.3610892 1.8096036 -1.896385 164.12
6.5696716 1.8689411 0.63723868 164.12
6.9562793 1.9789233 -1.8933078 164.12
6.5592737 1.8659831 0.79749072 164.12
7.62216 2.1683531 -1.8776746 164.12
8.4767742 2.411474 -1.8732843 164.12
9.6108608 2.7340989 -1.8826265 164.12
11.105798 3.1258824 -1.8955131 164.28
13.036364 3.6692672 -1.9033313 164.28
15.897732 4.4746389 -1.9313538 164.28
20.044712 5.6418653 -1.9427419 164.28
27.551561 7.7547727 -2.0014527 164.28
4.1295514 1.16232 -1.9100353 164.28
43.916016 12.360777 -2.1275582 164.28
4.3825121 1.2335193 -1.9016768 164.28
40.849319 11.497613 -0.98525178 164.28
4.6751862 1.3158966 -1.8965352 164.28
5.0274639 1.4150501 -1.9009479 164.28
5.4242396 1.5267283 -1.9040558 164.28
14.709826 4.1402864 0.71263325 164.28
5.860745 1.6495887 -1.8998451 164.28
15.529202 4.3709111 1.1281017 164.28
6.3605661 1.7902704 -1.8947312 164.28
6.5959506 1.8565227 0.63928229 164.28
6.5185194 1.8347285 -1.7727602 164.28
6.5912294 1.8551937 0.80074292 164.28
6.532289 1.8386043 -1.6079203 164.28
6.56775 1.8485852 0.95890266 164.28
6.5363245 1.8397402 -1.443323 164.28
6.5422163 1.8413985 -1.2805119 164.28
6.5370011 1.8177865 -1.1147406 164.46001
6.5544438 1.8226368 -0.95611918 164.46001
6.5300403 1.8158509 -0.79261237 164.46001
6.5154157 1.811784 -0.63092202 164.46001
6.5220027 1.8136157 -0.47336742 164.46001
4.131422 1.1488514 -1.9092218 164.46001
6.5712519 1.8273108 -0.31807163 164.46001
4.3845878 1.2192508 -1.900906 164.46001
6.6112957 1.838446 -0.15931889 164.46001
4.679297 1.3012027 -1.8965352 164.46001
44.927303 12.493228 0 164.46001
5.0282631 1.3982419 -1.8995799 164.46001
15.983077 4.4445181 0.38515991 164.46001
5.4344859 1.5112028 -1.9059765 164.46001
14.959511 4.1598887 0.72409278 164.46001
5.8603802 1.629634 -1.8980578 164.46001
6.3717155 1.7718245 -1.896385 164.46001
6.624773 1.8421938 0.64151168 164.46001
6.4981542 1.8069841 -1.7656691 164.46001
6.6161633 1.8397996 0.80306596 164.46001
6.5136585 1.8112954 -1.6019257 164.46001
6.6021471 1.835902 0.96307784 164.46001
6.51757 1.8123832 -1.4379172 164.46001
6.5044169 1.8087256 -1.2719949 164.46001
6.5135088 1.7916733 -1.109877 164.62
6.5270443 1.7953966 -0.95138735 164.62
6.5159326 1.79234 -0.79028934 164.62
4.1328526 1.1368253 -1.9084083 164.62
4.3897548 1.2074915 -1.9016768 164.62
4.6847086 1.2886246 -1.8972627 164.62
5.0321484 1.384195 -1.8995799 164.62
5.4386845 1.496021 -1.9059765 164.62
6.5455084 1.8004755 0.31658098 164.62
5.8685894 1.6142751 -1.8992493 164.62
6.5520496 1.8022747 0.4751811 164.62
6.3970294 1.7596332 -1.902449 164.62
6.5953312 1.8141803 0.63816762 164.62
6.4863849 1.7842124 -1.7611105 164.62
6.6059527 1.817102 0.80120754 164.62
6.5036798 1.7889696 -1.5982368 164.62
6.612977 1.8190341 0.9639129 164.62
6.5226054 1.7941756 -1.4379172 164.62
6.5496631 1.8016183 1.1160376 164.62
6.5113378 1.7910761 -1.2723652 164.62
6.5606084 1.8046291 1.2819932 164.62
6.509583 1.7686145 -1.1082559 164.8
6.5119462 1.7692566 -0.78912783 164.8
6.520287 1.7715228 -0.63036466 164.8
4.1364036 1.1238359 -1.9084083 164.8
6.5260692 1.7730938 -0.31536978 164.8
4.3953075 1.1941786 -1.9024477 164.8
4.6941276 1.2753662 -1.8994452 164.8
5.0455403 1.3708429 -1.9030001 164.8
5.4360437 1.4769404 -1.9034156 164.8
6.5260692 1.7730938 0.31536978 164.8
5.8754745 1.5963311 -1.8998451 164.8
6.5461273 1.7785434 0.47434402 164.8
6.3839731 1.7344871 -1.8969363 164.8
6.5433474 1.7777882 0.63259405 164.8
6.5050282 1.767377 -1.7646561 164.8
6.5464516 1.7786316 0.79330927 164.8
6.5055118 1.7675084 -1.5973146 164.8
6.5460315 1.7785174 0.95333576 164.8
6.5206585 1.7716237 -1.4362539 164.8
6.5362458 1.7758586 1.1127952 164.8
6.5283122 1.7737032 -1.274587 164.8
6.5128956 1.7487806 -1.1079316 164.97
6.5302391 1.7534375 -0.95027393 164.97
6.5171671 1.7499275 -0.78912783 164.97
6.5235915 1.7516525 -0.63017887 164.97
6.539814 1.7560085 -0.47350696 164.97
4.1379552 1.1110842 -1.9075948 164.97
4.3988314 1.1811322 -1.9024477 164.97
6.5366378 1.7551557 -0.15713708 164.97
4.6960917 1.2609497 -1.8987176 164.97
6.5441942 1.7571846 0 164.97
5.0532155 1.3568412 -1.9043682 164.97
6.5366378 1.7551557 0.15713708 164.97
5.4440618 1.4617876 -1.9046961 164.97
6.5370898 1.755277 0.3156493 164.97
5.883873 1.5798814 -1.9010366 164.97
6.539814 1.7560085 0.47350696 164.97
6.3872347 1.7150393 -1.896385 164.97
6.5409002 1.7563002 0.63185096 164.97
6.5046377 1.7465632 -1.7631366 164.97
6.5344338 1.7545638 0.79121858 164.97
6.516366 1.7497125 -1.5986979 164.97
6.5436282 1.7570326 0.95222235 164.97
6.5239968 1.7517614 -1.4358381 164.97
6.526238 1.7523632 1.1102012 164.97
6.5316482 1.7538159 -1.2742168 164.97
6.5164623 1.7497383 1.2712543 164.97
6.5336185 1.7323575 -1.1105255 165.14999
6.5433726 1.7349439 -0.95138735 165.14999
6.534153 1.7324994 -0.79052168 165.14999
6.5406113 1.7342117 -0.63129359 165.14999
6.551084 1.7369884 -0.47392547 165.14999
4.1378932 1.0971426 -1.905968 165.14999
6.5445032 1.7352436 -0.31574246 165.14999
4.3971686 1.1658881 -1.9001352 165.14999
6.5479178 1.736149 -0.15727635 165.14999
4.6946278 1.2447579 -1.8965352 165.14999
6.5458159 1.7355917 0 165.14999
5.0501866 1.3390328 -1.901632 165.14999
6.5459852 1.7356365 0.15722992 165.14999
5.4522905 1.4456486 -1.9059765 165.14999
6.5445032 1.7352436 0.31574246 165.14999
5.8888068 1.5613889 -1.9010366 165.14999
6.5568695 1.7385224 0.47434402 165.14999
6.4148908 1.7008774 -1.9030004 165.14999
6.5502353 1.7367635 0.63222253 165.14999
6.5381451 1.7335578 -1.7707342 165.14999
6.551434 1.7370813 0.79261237 165.14999
6.5481663 1.7362149 -1.6051536 165.14999
6.5548592 1.7379894 0.95305741 165.14999
6.5162315 1.7277474 -1.4329274 165.14999
6.5526948 1.7374156 1.113768 165.14999
6.5485244 1.7363098 -1.2764386 165.14999
6.5447245 1.7353023 1.2756979 165.14999
6.5534029 1.7192531 -1.1131195 165.3
6.5689654 1.7233357 -0.95444912 165.3
6.5617237 1.721436 -0.79330927 165.3
6.5643907 1.7221357 -0.63315141 165.3
6.5633283 1.721857 -0.47448352 165.3
4.1442862 1.0872331 -1.9075948 165.3
6.5702801 1.7236807 -0.31676731 165.3
4.4002056 1.1543723 -1.9001352 165.3
6.5640445 1.7220448 -0.15755488 165.3
4.6978703 1.2324632 -1.8965352 165.3
6.5658135 1.7225089 0 165.3
5.0536752 1.3258069 -1.901632 165.3
6.5582428 1.7205228 0.15741561 165.3
5.4505582 1.4299271 -1.9040558 165.3
6.5702801 1.7236807 0.31676731 165.3
5.9002614 1.5479046 -1.9034196 165.3
6.5633283 1.721857 0.47448352 165.3
6.4118834 1.682126 -1.9007952 165.3
6.5778737 1.7256728 0.63445193 165.3
6.9263124 1.8170841 -1.8745673 165.3
6.5694094 1.7234523 0.79423845 165.3
7.6576676 2.0089514 -1.8758302 165.3
6.5689654 1.7233357 0.95444912 165.3
6.6229143 1.7374891 -1.4553819 165.3
6.5782194 1.7257634 1.1173346 165.3
9.6879396 2.5415835 -1.8870702 165.3
6.5739594 1.724646 1.2805119 165.3
11.176973 2.8926432 -1.8968101 165.49001
13.107106 3.3921688 -1.9027747 165.49001
15.980985 4.1359396 -1.9304246 165.49001
20.047567 5.1883864 -1.9319664 165.49001
24.941347 6.4549155 -1.8015307 165.49001
4.1478686 1.0734842 -1.9075948 165.49001
4.4057961 1.1402369 -1.900906 165.49001
60.457287 15.646576 -1.4498855 165.49001
4.7181635 1.2210786 -1.9030825 165.49001
5.058044 1.3090409 -1.901632 165.49001
5.4552698 1.4118446 -1.9040558 165.49001
14.881011 3.8512621 0.71682578 165.49001
5.9109068 1.5297651 -1.9052069 165.49001
6.7660141 1.7510701 0.48871386 165.49001
6.4230094 1.6622993 -1.902449 165.49001
6.7782717 1.7542424 0.65321606 165.49001
6.9304271 1.7936208 -1.8740608 165.49001
6.7577834 1.74894 0.81630713 165.49001
7.6624031 1.983059 -1.8753691 165.49001
8.5206432 2.2051747 -1.8707894 165.49001
9.7096338 2.5128901 -1.8896623 165.49001
11.180269 2.85605 -1.8958373 165.67
13.106184 3.3480337 -1.9011046 165.67
15.993899 4.0857134 -1.9304246 165.67
20.036757 5.1184797 -1.9293655 165.67
25.015629 6.3903546 -1.8054371 165.67
4.1565313 1.0618047 -1.9100353 165.67
4.4039927 1.1250197 -1.8985934 165.67
4.7147565 1.2044057 -1.9001726 165.67
24.745356 6.3213124 0 165.67
5.0621314 1.2931442 -1.901632 165.67
5.4578428 1.3942305 -1.9034156 165.67
5.9156837 1.511188 -1.9052069 165.67
6.7927456 1.7352374 0.4902485 165.67
6.4263377 1.6416368 -1.9018978 165.67
6.8030434 1.737868 0.65507394 165.67
6.9322786 1.7708818 -1.8730477 165.67
6.7728677 1.7301595 0.81746864 165.67
7.6667099 1.9584955 -1.8749079 165.67
8.521842 2.1769428 -1.8695419 165.67
9.7060547 2.4794555 -1.8874404 165.67
11.188201 2.8248177 -1.8958373 165.83
13.111642 3.3104517 -1.9005479 165.83
16.011024 4.0424929 -1.9311215 165.83
20.012356 5.0527568 -1.9256498 165.83
28.155537 7.1087618 -2.030611 165.83
4.1577086 1.049746 -1.9092218 165.83
4.4160638 1.1149759 -1.9024477 165.83
4.718101 1.1912349 -1.9001726 165.83
24.280064 6.1302752 0 165.83
5.0639005 1.278543 -1.9009479 165.83
16.028551 4.0469179 0.38381371 165.83
5.463552 1.3794477 -1.9040558 165.83
15.279388 3.8577683 0.73490012 165.83
5.8921137 1.4876518 -1.8962706 165.83
6.8130403 1.7201689 0.4913646 165.83
6.4159846 1.6199197 -1.8974875 165.83
6.8194542 1.7217884 0.65618861 165.83
6.9278169 1.7491481 -1.8705152 165.83
7.6759229 1.9380312 -1.8758302 165.83
17.430342 4.4008451 2.5265484 165.83
8.5297852 2.153616 -1.8699578 165.83
9.7186584 2.4537847 -1.8885514 165.83
11.184101 2.7843633 -1.8935676 166.02
13.120626 3.2664752 -1.9002695 166.02
16.01663 3.9874568 -1.9301924 166.02
20.001949 4.9796305 -1.9230489 166.02
28.238972 7.0302973 -2.034936 166.02
4.1593938 1.0355114 -1.9084083 166.02
4.4143643 1.0989881 -1.9001352 166.02
4.7202177 1.1751325 -1.8994452 166.02
5.0699363 1.2621975 -1.901632 166.02
5.4699349 1.36178 -1.9046961 166.02
5.9155412 1.472717 -1.9022281 166.02
6.8438754 1.7038325 0.49317828 166.02
6.4381113 1.6028146 -1.902449 166.02
6.8405852 1.7030134 0.65767491 166.02
6.9354568 1.7266324 -1.8710217 166.02
17.265732 4.2984295 2.0807235 166.02
7.6823072 1.9125663 -1.8758302 166.02
8.533083 2.124373 -1.8691261 166.02
9.7324629 2.4229674 -1.8896623 166.02
11.186084 2.7517064 -1.8925949 166.17999
13.116235 3.2265112 -1.8983212 166.17999
16.029633 3.9431889 -1.9304246 166.17999
19.998373 4.9194741 -1.9213768 166.17999
28.260431 6.9518886 -2.0350754 166.17999
4.158721 1.0230192 -1.9067814 166.17999
4.419208 1.0870974 -1.900906 166.17999
60.614147 14.910699 -1.4492356 166.17999
4.7234812 1.1619467 -1.8994452 166.17999
24.280159 5.9727664 0 166.17999
5.0716162 1.2475857 -1.9009479 166.17999
14.557957 3.581166 0.34806907 166.17999
5.4718766 1.3460473 -1.9040558 166.17999
15.789608 3.8841443 0.75828505 166.17999
5.9159231 1.4552798 -1.9010366 166.17999
6.8699179 1.6899565 0.49471292 166.17999
6.4425621 1.5848298 -1.902449 166.17999
6.8182425 1.6772448 0.65507394 166.17999
6.9440093 1.7081826 -1.8720347 166.17999
7.689508 1.8915707 -1.8762913 166.17999
16.943405 4.1679711 2.45223 166.17999
8.5370827 2.1000686 -1.8687103 166.17999
17.142286 4.2168946 2.900336 166.17999
9.7525511 2.3990662 -1.8922544 166.17999
11.187971 2.7190599 -1.8916222 166.34
13.125194 3.1898713 -1.8983212 166.34
16.050234 3.9007561 -1.9315861 166.34
19.961723 4.8513818 -1.9165463 166.34
28.334019 6.8861361 -2.0389817 166.34
4.1651125 1.0122648 -1.9084083 166.34
4.4258132 1.0756241 -1.9024477 166.34
4.7230868 1.1478717 -1.8979902 166.34
24.310347 5.9082465 0 166.34
5.0641232 1.2307552 -1.8968437 166.34
16.512749 4.0131631 0.39453709 166.34
5.4756141 1.3307617 -1.9040558 166.34
5.9255295 1.4401065 -1.9028239 166.34
6.8804264 1.6721791 0.49513146 166.34
6.4488306 1.5672866 -1.9030004 166.34
17.372658 4.2221508 1.6679676 166.34
6.9468722 1.6883277 -1.8715283 166.34
17.158211 4.1700325 2.0649271 166.34
7.6947603 1.8700901 -1.8762913 166.34
17.037733 4.1407523 2.4641988 166.34
8.5410128 2.0757585 -1.8682945 166.34
17.238375 4.1895151 2.9146025 166.34
9.763032 2.372751 -1.892995 166.34
11.192151 2.684932 -1.8909737 166.50999
13.126897 3.149066 -1.8972077 166.50999
16.044352 3.8489463 -1.9294955 166.50999
19.945045 4.7847004 -1.9135739 166.50999
28.348505 6.8006411 -2.0385633 166.50999
4.1680975 0.99990231 -1.9084083 166.50999
4.4289851 1.0624877 -1.9024477 166.50999
4.7264719 1.1338531 -1.8979902 166.50999
24.697287 5.9247351 0 166.50999
5.0659246 1.2152859 -1.8961596 166.50999
15.789639 3.7878423 0.37698972 166.50999
5.4813809 1.3149513 -1.9046961 166.50999
15.831143 3.7977991 0.75921667 166.50999
5.9242067 1.4211826 -1.9010366 166.50999
6.4553223 1.5485941 -1.9035516 166.50999
17.787884 4.2672095 1.7066107 166.50999
6.9518509 1.6677085 -1.8715283 166.50999
17.197552 4.1255922 2.0681794 166.50999
7.7002754 1.8472512 -1.8762913 166.50999
17.142385 4.1123586 2.4775596 166.50999
8.5471344 2.0504076 -1.8682945 166.50999
17.114473 4.1056623 2.8915815 166.50999
9.7662067 2.3428562 -1.8922544 166.50999
11.202452 2.6502118 -1.8912979 166.69
13.134797 3.1073551 -1.8969294 166.69
16.044765 3.7957788 -1.9281015 166.69
19.938663 4.7169747 -1.9115303 166.69
28.262945 6.686286 -2.03089 166.69
4.1712184 0.98680294 -1.9084083 166.69
4.4305053 1.0481435 -1.9016768 166.69
56.858795 13.451328 -1.3565316 166.69
4.7372622 1.1207144 -1.9009001 166.69
24.770273 5.8600092 0 166.69
5.0752044 1.2006629 -1.8982118 166.69
15.820918 3.7428222 0.37745395 166.69
5.4891725 1.298597 -1.9059765 166.69
5.9323578 1.4034433 -1.9022281 166.69
24.22455 5.7309051 1.740703 166.69
6.4395757 1.523438 -1.8974875 166.69
6.95329 1.6449696 -1.8705152 166.69
17.627977 4.1703262 2.1183565 166.69
7.7136159 1.824843 -1.8781357 166.69
17.074272 4.0393338 2.4658689 166.69
8.5554371 2.0239964 -1.8687103 166.69
17.142651 4.0555105 2.8941755 166.69
9.7811699 2.3139732 -1.8937356 166.69
11.196813 2.6138215 -1.8890282 166.86
13.145888 3.06882 -1.8972077 166.86
16.050154 3.7468016 -1.9274046 166.86
19.892456 4.6437612 -1.9057709 166.86
28.199116 6.5828958 -2.0248909 166.86
4.1723485 0.97400701 -1.9075948 166.86
4.4300013 1.0341543 -1.9001352 166.86
76.122276 17.770239 -1.814852 166.86
4.7387524 1.1062303 -1.9001726 166.86
24.808975 5.7914901 0 166.86
5.0787444 1.1855991 -1.8982118 166.86
15.806642 3.6899552 0.37685046 166.86
5.4966917 1.2831661 -1.907257 166.86
15.459107 3.6088257 0.74030381 166.86
5.9309182 1.3845334 -1.9004409 166.86
6.4459395 1.5047617 -1.8980389 166.86
17.652664 4.1208968 1.6911906 166.86
6.9581404 1.6243316 -1.8705152 166.86
17.584175 4.1049085 2.1116197 166.86
7.7133107 1.8006212 -1.8767524 166.86
17.228905 4.0219731 2.4864666 166.86
8.5575943 1.9977136 -1.8678787 166.86
9.7860785 2.2844949 -1.8933654 166.86
11.204969 2.5786328 -1.8890282 167.03999
13.147744 3.0257292 -1.8960943 167.03999
16.05023 3.693687 -1.9260108 167.03999
19.877836 4.5745454 -1.9029841 167.03999
28.204102 6.4906936 -2.0237749 167.03999
4.1771684 0.96130419 -1.9084083 167.03999
4.4350266 1.0206459 -1.900906 167.03999
76.187469 17.533249 -1.8150841 167.03999
4.7422042 1.0913376 -1.9001726 167.03999
16.329172 3.7578809 0 167.03999
5.0879388 1.1709025 -1.9002639 167.03999
14.711391 3.3855762 0.350483 167.03999
5.4988494 1.2654665 -1.9066168 167.03999
15.731257 3.620281 0.75278819 167.03999
5.9464021 1.3684632 -1.9040154 167.03999
6.4674969 1.4883842 -1.9030004 167.03999
6.955667 1.6007283 -1.8684891 167.03999
17.591175 4.0483093 2.1109228 167.03999
7.7189298 1.7763802 -1.8767524 167.03999
17.349541 3.9927013 2.502054 167.03999
8.5600157 1.9699417 -1.867047 167.03999
9.7970371 2.2546213 -1.8941059 167.03999
11.216864 2.5442917 -1.8896767 167.22
13.180362 2.9896669 -1.8994344 167.22
16.021072 3.6340177 -1.9211326 167.22
19.888226 4.5111938 -1.9026126 167.22
28.057024 6.3641009 -2.0117767 167.22
4.1819496 0.94858062 -1.9092218 167.22
31.744236 7.2004614 -1.5179676 167.22
4.4364114 1.0062996 -1.9001352 167.22
31.785772 7.2098832 -0.75671834 167.22
4.7474265 1.0768462 -1.9009001 167.22
16.161455 3.6658604 0 167.22
5.0915923 1.1549125 -1.9002639 167.22
14.811651 3.359688 0.3526184 167.22
5.5083413 1.2494426 -1.9085375 167.22
15.984147 3.6256421 0.76434088 167.22
5.9413624 1.3476636 -1.9010366 167.22
6.4740157 1.468484 -1.9035516 167.22
17.414093 3.9499929 1.665924 167.22
6.9644351 1.5797246 -1.8695022 167.22
17.603807 3.9930253 2.1109228 167.22
7.7206764 1.7512608 -1.8758302 167.22
17.029785 3.8628213 2.4541786 167.22
8.5623465 1.9421746 -1.8662153 167.22
9.8040724 2.2238319 -1.8941059 167.22
11.222438 2.5105686 -1.8893524 167.39
13.202703 2.9535735 -1.9013829 167.39
16.066679 3.5942724 -1.9253139 167.39
19.868486 4.4447742 -1.8994542 167.39
27.803202 6.2198472 -1.9922448 167.39
4.1883116 0.93696618 -1.9108487 167.39
31.796656 7.1132216 -1.5194582 167.39
4.4447808 0.99434072 -1.9024477 167.39
31.756292 7.1041923 -0.75551134 167.39
4.7506003 1.0627556 -1.9009001 167.39
31.651649 7.0807824 0 167.39
5.0949965 1.1398003 -1.9002639 167.39
14.87814 3.3283849 0.35396463 167.39
5.5046277 1.2314389 -1.9059765 167.39
24.310043 5.4383936 1.1616975 167.39
5.9434714 1.3296125 -1.9004409 167.39
6.4783444 1.4492688 -1.9035516 167.39
17.429623 3.8991764 1.6662955 167.39
6.9634271 1.5577865 -1.8679827 167.39
17.303471 3.870955 2.0735223 167.39
7.7296367 1.7291951 -1.8767524 167.39
17.454782 3.9048049 2.5137446 167.39
8.5699806 1.917188 -1.8666312 167.39
9.7952833 2.1913004 -1.8911434 167.39
11.239473 2.4793856 -1.8909737 167.56
13.213344 2.914814 -1.9016613 167.56
16.088911 3.5491533 -1.9267077 167.56
19.850473 4.3789401 -1.8964818 167.56
27.747499 6.1209946 -1.9869434 167.56
4.1857209 0.92335433 -1.9084083 167.56
4.4603267 0.9839313 -1.9078436 167.56
4.7537327 1.0486556 -1.9009001 167.56
24.610312 5.4289422 0 167.56
5.1001911 1.1250831 -1.9009479 167.56
14.882092 3.282934 0.35382536 167.56
5.5082574 1.2151009 -1.9059765 167.56
16.399467 3.617661 0.78316057 167.56
5.9455261 1.3115608 -1.8998451 167.56
6.4638424 1.4258994 -1.8980389 167.56
17.507231 3.8620296 1.6726122 167.56
6.9661293 1.536702 -1.8674762 167.56
17.295483 3.8153186 2.0711992 167.56
7.7347336 1.7062532 -1.8767524 167.56
17.49917 3.8602514 2.5184765 167.56
8.5698996 1.8904878 -1.8653837 167.56
9.7998228 2.1618042 -1.8907732 167.56
11.244852 2.4456072 -1.8906494 167.73
13.223868 2.8760173 -1.9019396 167.73
16.099371 3.5014012 -1.9267077 167.73
19.865324 4.3204465 -1.8966675 167.73
27.738245 6.0327029 -1.9849902 167.73
4.1866565 0.91054267 -1.9075948 167.73
4.4469962 0.96716315 -1.900906 167.73
4.7568235 1.0345465 -1.9009001 167.73
24.825651 5.3992519 0 167.73
5.099834 1.1091467 -1.8995799 167.73
17.32814 3.7686424 0.41171306 167.73
5.5118384 1.1987523 -1.9059765 167.73
24.090054 5.2392697 1.1496789 167.73
5.9437947 1.2926971 -1.8980578 167.73
6.4830732 1.409983 -1.902449 167.73
17.693741 3.8481555 1.6893327 167.73
6.9706578 1.5160264 -1.8674762 167.73
17.320314 3.7669401 2.0728254 167.73
7.7397618 1.6832963 -1.8767524 167.73
17.502806 3.8066297 2.5173631 167.73
8.5735598 1.8646363 -1.8649678 167.73
9.8042736 2.1323004 -1.8904029 167.73
11.259356 2.4158523 -1.8919464 167.89
13.222166 2.8370006 -1.9005479 167.89
16.099375 3.4543459 -1.9255463 167.89
19.873419 4.2641196 -1.8962959 167.89
27.6633 5.9355478 -1.9784331 167.89
4.1927557 0.89961439 -1.9092218 167.89
4.4478755 0.95435387 -1.9001352 167.89
68.255699 14.645215 -1.6207633 167.89
4.7596936 1.0212588 -1.9009001 167.89
24.760456 5.3127022 0 167.89
5.1084242 1.0960838 -1.901632 167.89
5.5225749 1.1849457 -1.9085375 167.89
16.162188 3.4678233 0.77086252 167.89
5.9660487 1.2800992 -1.9040154 167.89
6.4869852 1.3918735 -1.902449 167.89
6.9748645 1.4965547 -1.8674762 167.89
17.37738 3.72856 2.0784006 167.89
7.7501407 1.662901 -1.8781357 167.89
8.5729952 1.839456 -1.8637204 167.89
9.8121109 2.1053257 -1.8907732 167.89
11.270752 2.381284 -1.8925949 168.07001
13.240703 2.7974951 -1.9019396 168.07001
16.121809 3.406215 -1.9269401 168.07001
19.884768 4.2012529 -1.8961102 168.07001
27.71109 5.8547983 -1.9805259 168.07001
4.1973491 0.88681573 -1.9100353 168.07001
43.043953 9.0943251 -2.0516274 168.07001
4.454463 0.94113874 -1.9016768 168.07001
68.416794 14.455097 -1.6235023 168.07001
4.7701697 1.0078413 -1.90381 168.07001
5.1063261 1.0788643 -1.8995799 168.07001
16.63616 3.5148871 0.39476919 168.07001
5.5207086 1.1664151 -1.9066168 168.07001
16.233597 3.4298337 0.77375072 168.07001
5.9457569 1.2562194 -1.8962706 168.07001
6.4913263 1.3714871 -1.902449 168.07001
6.9776382 1.4742352 -1.8669697 168.07001
7.7572308 1.6389475 -1.8785969 168.07001
8.5806456 1.8129185 -1.8641362 168.07001
9.8071394 2.072052 -1.8885514 168.07001
11.273904 2.3470283 -1.8919464 168.24001
13.231494 2.754564 -1.8994344 168.24001
16.133789 3.3587706 -1.9271724 168.24001
19.897146 4.1422353 -1.8961102 168.24001
27.718573 5.7705188 -1.9798282 168.24001
4.1963844 0.8736133 -1.9084083 168.24001
38.644558 8.0451164 -1.8407907 168.24001
4.4572358 0.92791796 -1.9016768 168.24001
38.742687 8.0655451 -0.91877609 168.24001
4.7658434 0.99216467 -1.9009001 168.24001
18.10581 3.7693107 0 168.24001
5.1168642 1.065241 -1.9023161 168.24001
16.57996 3.4516556 0.39319086 168.24001
5.5334201 1.1519606 -1.9098179 168.24001
16.134171 3.3588502 0.76853335 168.24001
5.9662805 1.2420745 -1.9016324 168.24001
6.4972491 1.3526129 -1.9030004 168.24001
6.9838762 1.45392 -1.8674762 168.24001
7.7620597 1.6159241 -1.8785969 168.24001
8.589817 1.7882487 -1.8649678 168.24001
