# .PCD v0.7 - Point Cloud Data file format
VERSION 0.7
FIELDS x y z intensity
SIZE 4 4 4 4
TYPE F F F F
COUNT 1 1 1 1
WIDTH 1225
HEIGHT 1
VIEWPOINT 0 0 0 1 0 0 0
POINTS 1225
DATA ascii
-5.2878323 0.51940829 -2.0747674 5.6100001
-5.6878366 0.55869955 -2.0801666 5.6100001
-6.162405 0.60531497 -2.0922847 5.6100001
-6.6806302 0.65621877 -2.0946553 5.6100001
-7.3375635 0.72074741 -2.1141386 5.6100001
-8.1007214 0.79571015 -2.1308577 5.6100001
-9.0796967 0.89187199 -2.1617236 5.6100001
-10.215517 1.0034403 -2.1818254 5.6100001
-11.419164 1.121671 -2.1618359 5.6100001
-12.778286 1.2957177 -2.1101606 5.79
-14.401888 1.460351 -2.0344324 5.79
-14.824443 1.503198 -1.7424928 5.79
-18.635103 1.8895988 -1.7474831 5.79
-20.09166 2.0372937 -1.41215 5.79
-4.6153173 0.46799302 -2.0654087 5.79
-24.839495 2.5187237 -1.1643062 5.79
-4.918818 0.498768 -2.0650961 5.79
-30.34816 3.0773022 -0.70820779 5.79
-5.2824674 0.53564203 -2.0733123 5.79
-5.6748347 0.57542801 -2.0760622 5.79
-6.1604729 0.62467176 -2.0922847 5.79
-6.6785359 0.6772033 -2.0946553 5.79
-7.329525 0.74321359 -2.1124847 5.79
-8.1039562 0.82174093 -2.1323771 5.79
-9.0787859 0.92058861 -2.1621847 5.79
-10.21426 1.0357256 -2.1822412 5.79
-11.415584 1.1575397 -2.1618359 5.79
-12.774385 1.3336259 -2.1101606 5.96
-14.395522 1.5028701 -2.0341539 5.96
-14.58283 1.5224248 -1.7146167 5.96
-18.573957 1.9390923 -1.7422811 5.96
-4.6157255 0.48187456 -2.0662222 5.96
-31.36924 3.2748997 -1.4708251 5.96
-4.9136457 0.51297694 -2.0635545 5.96
-30.519863 3.1862261 -0.71243215 5.96
-5.2882667 0.55208683 -2.0762222 5.96
-30.464434 3.1804395 0 5.96
-5.6749716 0.59245819 -2.0767462 5.96
-6.1567078 0.64275074 -2.0916443 5.96
-6.676497 0.69701588 -2.0946553 5.96
-7.3253756 0.76475781 -2.1119335 5.96
-8.1034069 0.84598309 -2.1328838 5.96
-9.0760145 0.94752181 -2.1621847 5.96
-10.201413 1.0650117 -2.180162 5.96
-11.417963 1.1920176 -2.1629467 5.96
-12.759076 1.3658042 -2.1082151 6.1100001
-14.371845 1.5384443 -2.0313706 6.1100001
-18.586637 1.9896197 -1.7439532 6.1100001
-20.004583 2.1414046 -1.4068485 6.1100001
-4.6126313 0.49376237 -2.0654087 6.1100001
-27.316086 2.9240694 -1.2811373 6.1100001
-4.9122858 0.52583909 -2.0635545 6.1100001
-30.431892 3.2576032 -0.71057528 6.1100001
-5.2849507 0.56573129 -2.0754948 6.1100001
-19.627865 2.1010785 0 6.1100001
-5.6883507 0.60891348 -2.0822186 6.1100001
-6.155004 0.6588667 -2.0916443 6.1100001
-6.6708527 0.71408612 -2.0934637 6.1100001
-7.3271713 0.78434223 -2.1130359 6.1100001
-8.0953932 0.86657703 -2.1313641 6.1100001
-9.0715675 0.97107232 -2.1617236 6.1100001
-10.202481 1.0921317 -2.1809936 6.1100001
-11.414804 1.2219056 -2.1629467 6.1100001
-12.760116 1.4109842 -2.1091878 6.3099999
-14.362451 1.5881666 -2.0308139 6.3099999
-14.476512 1.6007793 -1.7032338 6.3099999
-18.532078 2.0492344 -1.7394943 6.3099999
-20.177444 2.2311752 -1.4195442 6.3099999
-4.6036158 0.50905722 -2.0621548 6.3099999
-28.35219 3.1351197 -1.3302363 6.3099999
-4.9140892 0.54338861 -2.0650961 6.3099999
-30.404438 3.3620524 -0.71020389 6.3099999
-5.2847958 0.58438051 -2.0762222 6.3099999
-37.225109 4.1162663 0 6.3099999
-5.6824546 0.6283527 -2.0808506 6.3099999
-6.1545501 0.68055594 -2.0922847 6.3099999
-6.6721148 0.73778701 -2.0946553 6.3099999
-7.3224783 0.80970275 -2.1124847 6.3099999
-8.0942421 0.8950426 -2.1318707 6.3099999
-9.0603857 1.0018766 -2.1598792 6.3099999
-10.194717 1.1273084 -2.180162 6.3099999
-11.410468 1.2617433 -2.1629467 6.3099999
-12.767892 1.4479458 -2.1111333 6.4699998
-14.354024 1.6278216 -2.0302572 6.4699998
-14.481854 1.6423182 -1.7043953 6.4699998
-18.552004 2.1038947 -1.7419096 6.4699998
-4.6112537 0.52294034 -2.0662222 6.4699998
-30.677807 3.4790242 -1.4398005 6.4699998
-4.9180536 0.55773306 -2.0674088 6.4699998
-31.010815 3.5167892 -0.72459459 6.4699998
-5.281292 0.59892619 -2.0754948 6.4699998
-5.6750755 0.6435833 -2.0787985 6.4699998
-6.14886 0.69731295 -2.0910041 6.4699998
-6.6681314 0.75620103 -2.0940595 6.4699998
-7.3201885 0.83014774 -2.1124847 6.4699998
-8.0859432 0.91698837 -2.1303513 6.4699998
-9.0652876 1.0280511 -2.1617236 6.4699998
-10.189586 1.1555525 -2.1797462 6.4699998
-11.404947 1.2933809 -2.1625764 6.4699998
-12.747598 1.4862218 -2.1085393 6.6500001
-14.372445 1.6756603 -2.0335975 6.6500001
-14.583171 1.7002283 -1.7169396 6.6500001
-18.596731 2.1681628 -1.74674 6.6500001
-19.922081 2.3226833 -1.4025236 6.6500001
-4.6077733 0.53721285 -2.0654087 6.6500001
-4.912611 0.57275337 -2.0658669 6.6500001
-38.264435 4.4611888 -0.89440477 6.6500001
-5.277534 0.61529917 -2.0747674 6.6500001
-19.660828 2.2922242 0 6.6500001
-5.6786256 0.66206181 -2.0808506 6.6500001
-6.150403 0.71706557 -2.0922847 6.6500001
-6.6619301 0.77670366 -2.0928679 6.6500001
-7.3213634 0.85358596 -2.1135871 6.6500001
-8.0849447 0.94261062 -2.1308577 6.6500001
-9.0581474 1.0560747 -2.1608014 6.6500001
-10.187848 1.1877848 -2.180162 6.6500001
-11.400828 1.3292041 -2.1625764 6.6500001
-12.760768 1.5261474 -2.1114576 6.8200002
-14.365444 1.7180614 -2.033319 6.8200002
-14.426187 1.7253261 -1.6990525 6.8200002
-18.590216 2.2233307 -1.74674 6.8200002
-4.6043448 0.55066502 -2.0645952 6.8200002
-4.9200521 0.5884226 -2.0697212 6.8200002
-29.640726 3.5449367 -0.69307435 6.8200002
-5.2719855 0.63051271 -2.0733123 6.8200002
-5.6691723 0.67801499 -2.0781145 6.8200002
-6.1482482 0.73531097 -2.0922847 6.8200002
-6.6577005 0.79623985 -2.0922723 6.8200002
-7.3130717 0.8746202 -2.1119335 6.8200002
-8.0821123 0.96659493 -2.1308577 6.8200002
-9.0549736 1.0829461 -2.1608014 6.8200002
-10.178452 1.2173105 -2.1789145 6.8200002
-11.402689 1.3637253 -2.1636875 6.8200002
-12.752266 1.5635222 -2.1108091 6.9899998
-14.364215 1.7611591 -2.0338757 6.9899998
-14.598456 1.7898788 -1.7199595 6.9899998
-18.557842 2.2753286 -1.7443248 6.9899998
-20.117859 2.4665983 -1.417312 6.9899998
-4.6081314 0.564991 -2.0670357 6.9899998
-30.442705 3.732501 -1.4302975 6.9899998
-4.9127893 0.60234433 -2.0674088 6.9899998
-19.655478 2.4099071 -0.45975941 6.9899998
-5.2700915 0.6461522 -2.0733123 6.9899998
-19.690552 2.4142075 0 6.9899998
-5.6708665 0.69529015 -2.0794826 6.9899998
-6.1460395 0.75354993 -2.0922847 6.9899998
-6.6572037 0.81622243 -2.0928679 6.9899998
-7.3066282 0.89584666 -2.1108308 6.9899998
-8.0830498 0.99104166 -2.1318707 6.9899998
-9.0439939 1.1088606 -2.158957 6.9899998
-10.176737 1.2477432 -2.1793303 6.9899998
-11.400543 1.3977909 -2.1640577 6.9899998
-12.729947 1.5991381 -2.1078908 7.1599998
-14.356961 1.8035239 -2.0335975 7.1599998
-14.616734 1.8361565 -1.7227472 7.1599998
-18.519396 2.3264096 -1.7413522 7.1599998
-19.7957 2.4867392 -1.3951294 7.1599998
-4.600996 0.5779779 -2.0645952 7.1599998
-28.407619 3.5685699 -1.3351742 7.1599998
-4.9073181 0.61645812 -2.0658669 7.1599998
-19.650225 2.4684646 -0.45980585 7.1599998
-5.2718477 0.6622504 -2.0747674 7.1599998
-19.681318 2.4723704 0 7.1599998
-5.6650491 0.71164441 -2.0781145 7.1599998
-6.1418967 0.77154613 -2.0916443 7.1599998
-6.6585412 0.83644706 -2.0940595 7.1599998
-7.3096604 0.91824079 -2.1124847 7.1599998
-8.0762339 1.0145378 -2.1308577 7.1599998
-9.0464573 1.1364175 -2.1603403 7.1599998
-10.149698 1.2750068 -2.1743405 7.1599998
-11.402196 1.4323457 -2.1651685 7.1599998
-12.754508 1.6406784 -2.1127546 7.3299999
-14.359404 1.8471246 -2.0347106 7.3299999
-18.486736 2.3780446 -1.738937 7.3299999
-19.788235 2.5454631 -1.3951294 7.3299999
-4.5956364 0.59116054 -2.0629683 7.3299999
-19.559408 2.5160279 -0.91965002 7.3299999
-4.9072981 0.63125116 -2.0666378 7.3299999
-19.672562 2.5305836 -0.46050215 7.3299999
-5.2661643 0.677414 -2.0733123 7.3299999
-19.699684 2.5340724 0 7.3299999
-5.6685047 0.72916913 -2.0801666 7.3299999
-6.1433392 0.79024953 -2.0929248 7.3299999
-6.6560302 0.85619962 -2.0940595 7.3299999
-7.3030906 0.93943435 -2.1113822 7.3299999
-8.071269 1.0382491 -2.1303513 7.3299999
-9.0449753 1.1635021 -2.1608014 7.3299999
-10.161392 1.3071126 -2.1776671 7.3299999
-11.395947 1.4659196 -2.1647983 7.3299999
-12.753497 1.6790297 -2.1134031 7.5
-14.35386 1.8897215 -2.0347106 7.5
-14.558313 1.9166383 -1.7171719 7.5
-18.499342 2.4354846 -1.7407949 7.5
-19.752903 2.6005189 -1.3931763 7.5
-4.5956736 0.60503191 -2.0637817 7.5
-19.593451 2.5795269 -0.92160654 7.5
-4.8999143 0.64508599 -2.0643253 7.5
-19.688755 2.5920737 -0.46105921 7.5
-5.2641311 0.69303602 -2.0733123 7.5
-5.6551361 0.7445128 -2.0760622 7.5
-6.1372104 0.80797905 -2.0916443 7.5
-6.6439962 0.8746987 -2.0910807 7.5
-7.2983646 0.96084797 -2.1108308 7.5
-8.0700712 1.062445 -2.1308577 7.5
-9.0299072 1.1888098 -2.1580346 7.5
-10.141953 1.3352134 -2.1743405 7.5
-11.397392 1.5004952 -2.1659093 7.5
-12.744247 1.7185602 -2.1127546 7.6799998
-14.340002 1.9337474 -2.0335975 7.6799998
-18.515282 2.4967833 -1.7430242 7.6799998
-19.580524 2.6404314 -1.3815967 7.6799998
-4.5937505 0.61946666 -2.0637817 7.6799998
-27.964222 3.7709718 -1.3158886 7.6799998
-4.8996925 0.66072291 -2.0650961 7.6799998
-19.801388 2.6702147 -0.46389094 7.6799998
-5.2637744 0.70981932 -2.0740399 7.6799998
-5.6583571 0.76302874 -2.0781145 7.6799998
-6.1383972 0.82776207 -2.0929248 7.6799998
-6.6449995 0.89607733 -2.0922723 7.6799998
-7.2991209 0.98428553 -2.1119335 7.6799998
-8.0628586 1.0872755 -2.1298447 7.6799998
-9.0319138 1.2179524 -2.1594181 7.6799998
-10.147402 1.3683759 -2.1764195 7.6799998
-11.390675 1.536031 -2.1655388 7.6799998
-12.741354 1.7544112 -2.1130788 7.8400002
-14.344356 1.9751354 -2.0349891 7.8400002
-18.573338 2.5574419 -1.7491552 7.8400002
-4.5920024 0.63229239 -2.0637817 7.8400002
-28.048582 3.8621287 -1.3203607 7.8400002
-4.901485 0.67490631 -2.0666378 7.8400002
-5.2617717 0.72451574 -2.0740399 7.8400002
-5.6580658 0.77908319 -2.0787985 7.8400002
-6.1341848 0.84464204 -2.0922847 7.8400002
-6.6462541 0.91515106 -2.0934637 7.8400002
-7.2944388 1.0044024 -2.1113822 7.8400002
-8.0636244 1.1103148 -2.1308577 7.8400002
-9.0149813 1.2413112 -2.1561902 7.8400002
-10.143541 1.3967074 -2.1764195 7.8400002
-11.386341 1.5678338 -2.1655388 7.8400002
-12.737734 1.794706 -2.1134031 8.0200005
-14.342002 2.0207424 -2.0355458 8.0200005
-16.037231 2.2595949 -1.8939533 8.0200005
-18.563238 2.6155012 -1.7489693 8.0200005
-19.775902 2.7863617 -1.3965245 8.0200005
-4.5936117 0.64722526 -2.0654087 8.0200005
-31.949366 4.501564 -1.5046446 8.0200005
-4.893858 0.689529 -2.0643253 8.0200005
-19.85449 2.7974343 -0.4655157 8.0200005
-5.2594695 0.74104249 -2.0740399 8.0200005
-5.6518683 0.79633027 -2.0774302 8.0200005
-6.1315007 0.86390895 -2.0922847 8.0200005
-6.6433463 0.93602628 -2.0934637 8.0200005
-7.2893438 1.0270454 -2.1108308 8.0200005
-8.0581808 1.135372 -2.1303513 8.0200005
-9.0110378 1.2696265 -2.1561902 8.0200005
-10.137166 1.4282944 -2.1760037 8.0200005
-11.383306 1.6038715 -2.1659093 8.0200005
-12.733986 1.8349954 -2.1137273 8.1999998
-14.337543 2.0660715 -2.0358241 8.1999998
-16.381996 2.3606815 -1.9355352 8.1999998
-18.547047 2.6726704 -1.7482262 8.1999998
-20.130402 2.9008353 -1.422195 8.1999998
-4.5897474 0.66139275 -2.0645952 8.1999998
-31.903427 4.5973539 -1.503154 8.1999998
-4.8953209 0.70542651 -2.0658669 8.1999998
-28.765043 4.1451063 -0.67473781 8.1999998
-5.2534275 0.75703049 -2.0725849 8.1999998
-5.6474786 0.8138141 -2.0767462 8.1999998
-6.1287565 0.88316733 -2.0922847 8.1999998
-6.6403728 0.95689231 -2.0934637 8.1999998
-7.2841787 1.0496662 -2.1102796 8.1999998
-8.0507441 1.1601299 -2.1293383 8.1999998
-9.0166359 1.299317 -2.1584959 8.1999998
-10.130692 1.4598551 -2.1755879 8.1999998
-11.384047 1.6404661 -2.1670201 8.1999998
-12.722628 1.8719079 -2.1127546 8.3699999
-14.335269 2.1091793 -2.0363808 8.3699999
-18.550856 2.7294278 -1.7493409 8.3699999
-20.092098 2.9561942 -1.4201022 8.3699999
-4.5859575 0.67474186 -2.0637817 8.3699999
-4.8913803 0.71967947 -2.0650961 8.3699999
-19.941874 2.9340913 -0.46797603 8.3699999
-5.2511582 0.77261436 -2.0725849 8.3699999
-5.6450391 0.83056688 -2.0767462 8.3699999
-6.1186109 0.90024453 -2.0897236 8.3699999
-6.6431708 0.9774242 -2.0952508 8.3699999
-7.2848363 1.0718338 -2.1113822 8.3699999
-8.053009 1.1848568 -2.1308577 8.3699999
-9.0108156 1.3257809 -2.1580346 8.3699999
-10.126317 1.489907 -2.1755879 8.3699999
-11.386907 1.6753803 -2.1685014 8.3699999
-12.720921 1.9102346 -2.1134031 8.54
-14.332865 2.1522918 -2.0369375 8.54
-18.564339 2.7877102 -1.7513845 8.54
-20.250944 3.0409789 -1.4319609 8.54
-4.582128 0.68807441 -2.0629683 8.54
-28.017086 4.20718 -1.3211992 8.54
-4.8873987 0.73391527 -2.0643253 8.54
-25.47543 3.8255129 -0.59809577 8.54
-5.2470002 0.78791475 -2.0718575 8.54
-31.403904 4.7157607 0 8.54
-5.64255 0.84731239 -2.0767462 8.54
-6.1234078 0.91952032 -2.0922847 8.54
-6.6326895 0.99599653 -2.0928679 8.54
-7.283525 1.0937291 -2.1119335 8.54
-8.0437183 1.2078834 -2.1293383 8.54
-9.0029926 1.3519326 -2.1571124 8.54
-10.125721 1.5205269 -2.1764195 8.54
-11.379942 1.7088667 -2.1681311 8.54
-12.716807 1.9504882 -2.1137273 8.7200003
-14.345609 2.2003117 -2.039721 8.7200003
-15.405635 2.3628972 -1.8226367 8.7200003
-18.549583 2.8451121 -1.7508272 8.7200003
-20.120995 3.0861332 -1.4234506 8.7200003
-4.5763321 0.70191216 -2.0613413 8.7200003
-27.723318 4.2521682 -1.3079695 8.7200003
-4.8850689 0.74926579 -2.0643253 8.7200003
-25.467239 3.9061337 -0.59818858 8.7200003
-5.2481823 0.80495965 -2.0733123 8.7200003
-5.6361451 0.86446494 -2.0753782 8.7200003
-47.171509 7.2351074 1.1079905 8.7200003
-6.1204886 0.93875301 -2.0922847 8.7200003
-6.6314149 1.0171182 -2.0934637 8.7200003
-7.2762527 1.1160226 -2.1108308 8.7200003
-8.0398836 1.2331474 -2.1293383 8.7200003
-8.9967775 1.3799146 -2.1566513 8.7200003
-10.09769 1.5487711 -2.1714296 8.7200003
-11.378403 1.7452053 -2.1688716 8.7200003
-12.707412 1.9853833 -2.1130788 8.8800001
-14.329625 2.2388351 -2.0383291 8.8800001
-15.151682 2.3672717 -1.7933668 8.8800001
-15.564763 2.4318109 -1.4697362 8.8800001
-4.5743542 0.7146889 -2.0613413 8.8800001
-28.846317 4.5068974 -1.3615404 8.8800001
-4.8866043 0.76347429 -2.0658669 8.8800001
-20.033497 3.129998 -0.47076133 8.8800001
-5.2422323 0.81903702 -2.0718575 8.8800001
-5.6374226 0.88078088 -2.0767462 8.8800001
-6.1140995 0.95525599 -2.0910041 8.8800001
-6.6285486 1.0356326 -2.0934637 8.8800001
-7.2712083 1.1360406 -2.1102796 8.8800001
-8.0383205 1.2558929 -2.1298447 8.8800001
-8.9909658 1.4047325 -2.1561902 8.8800001
-10.106855 1.579077 -2.1743405 8.8800001
-11.377369 1.7775798 -2.1696122 8.8800001
-12.701112 2.025295 -2.1130788 9.0600004
-14.330344 2.2850893 -2.0394425 9.0600004
-18.548105 2.9576454 -1.7523135 9.0600004
-20.058981 3.1985667 -1.4203813 9.0600004
-4.5793033 0.73020697 -2.0645952 9.0600004
-25.527403 4.0705509 -1.2054859 9.0600004
-4.882359 0.77853161 -2.0650961 9.0600004
-25.246161 4.0257044 -0.59354645 9.0600004
-5.245153 0.83638203 -2.0740399 9.0600004
-5.6420517 0.89967072 -2.0794826 9.0600004
-6.1110682 0.97445923 -2.0910041 9.0600004
-6.6196065 1.0555497 -2.0916765 9.0600004
-7.2695017 1.1591809 -2.1108308 9.0600004
-8.0305138 1.2805303 -2.1288316 9.0600004
-8.9826651 1.4323586 -2.155268 9.0600004
-10.09798 1.6102047 -2.1735089 9.0600004
-11.373669 1.8136234 -2.1699827 9.0600004
-12.691151 2.0623379 -2.1124303 9.2299995
-14.331321 2.3288689 -2.040556 9.2299995
-15.191839 2.4687047 -1.7998712 9.2299995
-18.572662 3.0180957 -1.7554718 9.2299995
-20.098635 3.2660692 -1.4238691 9.2299995
-4.5753136 0.74349773 -2.0637817 9.2299995
-23.034485 3.7431507 -1.088282 9.2299995
-4.8800278 0.79301447 -2.0650961 9.2299995
-25.214369 4.0973864 -0.59308225 9.2299995
-5.2408094 0.85164219 -2.0733123 9.2299995
-5.6356473 0.91580415 -2.0781145 9.2299995
-6.10815 0.99258685 -2.0910041 9.2299995
-6.6164455 1.0751859 -2.0916765 9.2299995
-7.2660303 1.1807448 -2.1108308 9.2299995
-8.0285892 1.3046621 -2.1293383 9.2299995
-8.9726133 1.4580679 -2.1538846 9.2299995
-10.093159 1.6401589 -2.1735089 9.2299995
-11.360477 1.8461008 -2.1685014 9.2299995
-12.690817 2.1009512 -2.1134031 9.3999996
-14.328256 2.3720274 -2.0411127 9.3999996
-15.166809 2.510849 -1.7977805 9.3999996
-20.106571 3.3286211 -1.4251248 9.3999996
-4.5730872 0.75706965 -2.0637817 9.3999996
-25.392422 4.2036881 -1.2002686 9.3999996
-4.8758326 0.80718887 -2.0643253 9.3999996
-20.181801 3.3410754 -0.47493929 9.3999996
-5.240097 0.8674925 -2.0740399 9.3999996
-5.6291966 0.93190747 -2.0767462 9.3999996
-6.1033087 1.0103962 -2.090364 9.3999996
-6.6207604 1.0960598 -2.0940595 9.3999996
-7.2587018 1.2016703 -2.1097283 9.3999996
-8.0208645 1.3278456 -2.1283252 9.3999996
-8.9720869 1.4853194 -2.1548069 9.3999996
-10.084388 1.6694596 -2.1726773 9.3999996
-11.362706 1.8810838 -2.1699827 9.3999996
-12.682581 2.138268 -2.1130788 9.5699997
-14.32506 2.4151881 -2.0416694 9.5699997
-15.153403 2.5548458 -1.4336941 9.5699997
-20.193007 3.4045169 -1.4319609 9.5699997
-4.5690193 0.7703312 -2.0629683 9.5699997
-27.009048 4.5536938 -1.2773175 9.5699997
-4.8770556 0.8222658 -2.0658669 9.5699997
-27.433331 4.625227 -0.64590997 9.5699997
-5.2264781 0.88117796 -2.069675 9.5699997
-5.6227007 0.94798064 -2.0753782 9.5699997
-6.1040206 1.0291307 -2.0916443 9.5699997
-6.6155963 1.1153817 -2.0934637 9.5699997
-7.2588959 1.2238412 -2.1108308 9.5699997
-8.0149822 1.3513165 -2.1278186 9.5699997
-8.9638023 1.5112865 -2.1538846 9.5699997
-10.075532 1.6987227 -2.1718454 9.5699997
-11.357075 1.9147893 -2.1699827 9.5699997
-12.675801 2.1781011 -2.1130788 9.75
-14.33497 2.4631982 -2.0441744 9.75
-15.207964 2.6132061 -1.8045173 9.75
-15.019697 2.5808558 -1.421804 9.75
-20.201876 3.4713171 -1.433356 9.75
-4.5665765 0.78468138 -2.0629683 9.75
-27.150158 4.6652503 -1.2846777 9.75
-4.8762674 0.83789599 -2.0666378 9.75
-5.2347002 0.89948601 -2.0740399 9.75
-5.6215467 0.96595842 -2.0760622 9.75
-6.097023 1.0476601 -2.090364 9.75
-6.6120596 1.1361597 -2.0934637 9.75
-7.2588048 1.2472907 -2.1119335 9.75
-8.0164175 1.3774725 -2.1293383 9.75
-8.9551744 1.5387805 -2.1529624 9.75
-10.070146 1.7303674 -2.1718454 9.75
-11.352941 1.950792 -2.1703529 9.75
-12.675888 2.2122965 -2.1140516 9.8999996
-14.334325 2.5017402 -2.0450096 9.8999996
-15.134537 2.6413994 -1.7966191 9.8999996
-15.091356 2.6338634 -1.4292353 9.8999996
-20.233992 3.5313969 -1.4362859 9.8999996
-4.5663066 0.79694808 -2.0637817 9.8999996
-22.782492 3.9761813 -1.0784996 9.8999996
-4.8740568 0.85065913 -2.0666378 9.8999996
-5.2304921 0.91286701 -2.0733123 9.8999996
-5.618999 0.9806723 -2.0760622 9.8999996
-6.0961256 1.0639442 -2.0910041 9.8999996
-6.6109433 1.1537943 -2.0940595 9.8999996
-7.2498326 1.2652984 -2.1102796 9.8999996
-8.0070658 1.3974568 -2.1278186 9.8999996
-8.9530325 1.5625544 -2.1534235 9.8999996
-10.059799 1.7557161 -2.170598 9.8999996
-11.351667 1.9811831 -2.1710935 9.8999996
-12.660709 2.2529361 -2.1127546 10.09
-14.33375 2.5506487 -2.046123 10.09
-14.961411 2.6623392 -1.7771057 10.09
-14.833549 2.6395864 -1.4056407 10.09
-20.285027 3.6096609 -1.4407502 10.09
-4.5618396 0.81176597 -2.0629683 10.09
-27.365896 4.8696809 -1.2962304 10.09
-4.8693924 0.86649406 -2.0658669 10.09
-27.967007 4.9766464 -0.65951151 10.09
-5.2274365 0.93020695 -2.0733123 10.09
-5.6175661 0.99962944 -2.0767462 10.09
-6.0888329 1.08349 -2.0897236 10.09
-6.6014419 1.1747072 -2.0922723 10.09
-7.2474899 1.2896695 -2.1108308 10.09
-7.9966731 1.4229845 -2.1262991 10.09
-8.9439697 1.5915531 -2.1525013 10.09
-10.053922 1.789066 -2.170598 10.09
-11.345035 2.0188155 -2.1710935 10.09
-12.656311 2.2886338 -2.1130788 10.25
-14.326571 2.5906661 -2.046123 10.25
-14.842498 2.6839607 -1.7638645 10.25
-15.300337 2.7667515 -1.4506005 10.25
-20.249344 3.6616781 -1.4389366 10.25
-4.5577574 0.82417673 -2.0621548 10.25
-27.312872 4.938972 -1.2943671 10.25
-4.8669538 0.88008857 -2.0658669 10.25
-5.2248182 0.94480109 -2.0733123 10.25
-5.6166019 1.0156472 -2.0774302 10.25
-6.0876484 1.1008261 -2.090364 10.25
-6.5962572 1.1927975 -2.0916765 10.25
-7.2438602 1.3099033 -2.1108308 10.25
-7.9964762 1.4459984 -2.1273122 10.25
-8.9318304 1.6151379 -2.1506567 10.25
-10.045036 1.8164386 -2.1697664 10.25
-11.347089 2.051888 -2.1725748 10.25
-12.637413 2.3262398 -2.1111333 10.43
-14.314466 2.6349444 -2.0455663 10.43
-14.980515 2.7575479 -1.7812871 10.43
-20.398638 3.7548923 -1.4503766 10.43
-4.5587392 0.83915281 -2.0637817 10.43
-23.078756 4.2482367 -1.0943378 10.43
-4.8641648 0.89537418 -2.0658669 10.43
-27.724607 5.1034245 -0.65449798 10.43
-5.2163277 0.96019882 -2.07113 10.43
-20.515326 3.7763717 0 10.43
-5.6059904 1.0319263 -2.0746942 10.43
-6.0804329 1.1192595 -2.0890834 10.43
-6.5924773 1.2135144 -2.0916765 10.43
-7.2340369 1.33161 -2.1091771 10.43
-7.9880881 1.4704124 -2.1262991 10.43
-8.924798 1.6428379 -2.1501956 10.43
-10.035433 1.8472786 -2.1689348 10.43
-11.344453 2.0882373 -2.1733153 10.43
-12.627689 2.3677704 -2.1108091 10.62
-14.30565 2.6823983 -2.0455663 10.62
-14.885382 2.7911017 -1.7710658 10.62
-14.837856 2.7821906 -1.4084275 10.62
-20.348816 3.8155298 -1.4477259 10.62
-4.5505443 0.85325533 -2.0613413 10.62
-23.066505 4.3251133 -1.094431 10.62
-4.8647966 0.91217965 -2.0674088 10.62
-27.288942 5.1168466 -0.64461017 10.62
-5.2131147 0.9774915 -2.07113 10.62
-5.6025376 1.0505106 -2.0746942 10.62
-6.0766878 1.1394168 -2.0890834 10.62
-6.5865402 1.2350173 -2.0910807 10.62
-7.2333608 1.3563001 -2.1102796 10.62
-7.9831681 1.4968938 -2.1262991 10.62
-8.9154758 1.6717072 -2.1492734 10.62
-10.025406 1.8798261 -2.1681032 10.62
-11.341329 2.1265697 -2.1740558 10.62
-12.626844 2.4041317 -2.1117818 10.78
-14.305885 2.7238185 -2.0466797 10.78
-14.87948 2.8330302 -1.7712982 10.78
-15.158673 2.886188 -1.4396392 10.78
-16.874905 3.212956 -1.2012064 10.78
-4.5499382 0.86630124 -2.0621548 10.78
-22.914995 4.3629794 -1.0878162 10.78
-4.8604174 0.92541599 -2.0666378 10.78
-5.2085347 0.99169701 -2.0704024 10.78
-5.5995822 1.0661519 -2.0746942 10.78
-6.0753436 1.156736 -2.0897236 10.78
-6.5868168 1.2541198 -2.0922723 10.78
-7.2257676 1.375775 -2.1091771 10.78
-7.9789572 1.5191811 -2.1262991 10.78
-8.9088602 1.6962333 -2.1488123 10.78
-10.008587 1.9056195 -2.1656082 10.78
-11.339208 2.1589677 -2.1747966 10.78
-12.62202 2.4397576 -2.1121061 10.94
-14.300168 2.7641332 -2.046958 10.94
-14.813001 2.8632607 -1.7643291 10.94
-14.951127 2.8899598 -1.4206892 10.94
-20.474104 3.9575167 -1.4581894 10.94
-4.5403261 0.8776167 -2.0589008 10.94
-22.7458 4.3966212 -1.0803628 10.94
-4.839695 0.9354828 -2.0589294 10.94
-5.2075744 1.0065917 -2.07113 10.94
-20.620319 3.985779 0 10.94
-5.5984282 1.0821413 -2.0753782 10.94
-6.0720897 1.1736971 -2.0897236 10.94
-6.5851636 1.272871 -2.0928679 10.94
-7.2218976 1.3959478 -2.1091771 10.94
-7.972784 1.5410894 -2.1257927 10.94
-8.9060001 1.7214743 -2.1492734 10.94
-9.9993849 1.9328188 -2.1647766 10.94
-11.346642 2.1932352 -2.1773887 10.94
-12.602674 2.4771152 -2.1101606 11.12
-14.291413 2.8090448 -2.046958 11.12
-14.653846 2.8802826 -1.7464418 11.12
-15.303458 3.007967 -1.4550593 11.12
-16.777235 3.2976449 -1.1956259 11.12
-4.541132 0.89258099 -2.0605278 11.12
-23.894344 4.6965466 -1.1356108 11.12
-4.8530293 0.95388591 -2.0658669 11.12
-25.497139 5.0115833 -0.60329497 11.12
-5.2062144 1.023306 -2.0718575 11.12
-5.5968451 1.1000863 -2.0760622 11.12
-6.0646544 1.1920364 -2.0884433 11.12
-6.5736389 1.2920798 -2.0904849 11.12
-7.2212496 1.4193707 -2.1102796 11.12
-7.9641061 1.5653827 -2.1247797 11.12
-8.9043665 1.7501954 -2.1501956 11.12
-9.9894247 1.9634686 -2.163945 11.12
-11.333911 2.2277339 -2.1762776 11.12
-12.593333 2.5141106 -2.1098363 11.29
-14.298553 2.8545377 -2.0491848 11.29
-14.592639 2.9132485 -1.7401698 11.29
-15.19292 3.0330875 -1.4453984 11.29
-20.484766 4.0895419 -1.4607005 11.29
-4.5384636 0.9060508 -2.0605278 11.29
-4.8393192 0.96611309 -2.0612419 11.29
-5.1976743 1.0376545 -2.069675 11.29
-5.5935564 1.1166877 -2.0760622 11.29
-6.0666647 1.2111382 -2.090364 11.29
-6.567904 1.3112047 -2.0898893 11.29
-7.2170062 1.4407903 -2.1102796 11.29
-7.9670162 1.590521 -2.1268058 11.29
-8.8876839 1.7743214 -2.147429 11.29
-9.9777994 1.9919502 -2.1626973 11.29
-11.338816 2.2636609 -2.1784995 11.29
-12.587752 2.5518568 -2.1101606 11.46
-14.295844 2.8981304 -2.0500197 11.46
-14.492429 2.937983 -1.7292516 11.46
-16.385855 3.3218284 -1.1691185 11.46
-4.5411272 0.92060173 -2.0629683 11.46
-23.333479 4.730288 -1.1102694 11.46
-4.8382401 0.98083407 -2.0620127 11.46
-25.539457 5.177496 -0.6050126 11.46
-5.203702 1.0549225 -2.0733123 11.46
-5.586535 1.1325324 -2.0746942 11.46
-6.0593309 1.2283801 -2.0890834 11.46
-6.5677271 1.3314449 -2.0910807 11.46
-7.207047 1.4610513 -2.1086259 11.46
-7.956573 1.6129992 -2.1252861 11.46
-8.8785658 1.7999105 -2.1465068 11.46
-9.9660931 2.02038 -2.1614499 11.46
-11.333976 2.2976844 -2.17887 11.46
-12.581606 2.5917878 -2.1104848 11.64
-14.286669 2.9430277 -2.0500197 11.64
-14.523985 2.9919143 -1.7341299 11.64
-15.441313 3.1808822 -1.4708509 11.64
-20.476988 4.2182221 -1.4619561 11.64
-4.5382128 0.93486357 -2.0629683 11.64
-25.130447 5.176826 -1.1965419 11.64
-4.8333273 0.99565661 -2.0612419 11.64
-25.201897 5.1915445 -0.59739941 11.64
-5.1930633 1.0697616 -2.0704024 11.64
-5.579268 1.1493189 -2.0733261 11.64
-6.0572977 1.2477922 -2.0897236 11.64
-6.5560317 1.3505306 -2.0886977 11.64
-7.2043042 1.4840735 -2.1091771 11.64
-7.9514666 1.6379876 -2.1252861 11.64
-8.8614311 1.8254386 -2.1437399 11.64
-9.9596968 2.0516794 -2.1614499 11.64
-11.326701 2.3332796 -2.17887 11.64
-12.561811 2.6288757 -2.1085393 11.82
-14.28123 2.9887073 -2.0505764 11.82
-14.442574 3.0224726 -1.7255348 11.82
-15.534548 3.2509956 -1.4806974 11.82
-20.541748 4.2988787 -1.4675367 11.82
-4.5316768 0.94836766 -2.0613413 11.82
-25.153168 5.2639346 -1.1984053 11.82
-4.8374009 1.0123481 -2.0643253 11.82
-25.179592 5.2694645 -0.59726018 11.82
-5.1933241 1.086834 -2.0718575 11.82
-5.5737901 1.1664561 -2.0726421 11.82
-6.0514932 1.2664275 -2.0890834 11.82
-6.5536256 1.3715113 -2.0892935 11.82
-7.2014885 1.507093 -2.1097283 11.82
-7.9387064 1.6613744 -2.1232603 11.82
-8.8632717 1.854863 -2.1455846 11.82
-9.9551172 2.0833592 -2.1618657 11.82
-11.325087 2.3700597 -2.1799808 11.82
-12.553956 2.6661358 -2.1085393 11.99
-14.262612 3.0290103 -2.0491848 11.99
-14.528755 3.0855319 -1.7369175 11.99
-14.562566 3.0927126 -1.3889202 11.99
-16.453959 3.4943953 -1.1762336 11.99
-4.5270557 0.9614296 -2.0605278 11.99
-25.01823 5.3132253 -1.1927221 11.99
-4.8253498 1.0247796 -2.0604711 11.99
-5.1937213 1.1030121 -2.0733123 11.99
-5.5813351 1.1853312 -2.0767462 11.99
-6.0458555 1.2839833 -2.0884433 11.99
-6.5532622 1.3917435 -2.0904849 11.99
-7.1951041 1.5280541 -2.1091771 11.99
-7.9375272 1.6857256 -2.1242731 11.99
-8.8558254 1.8807484 -2.1451235 11.99
-9.9508057 2.1132939 -2.1622815 11.99
-11.325694 2.4052846 -2.181462 11.99
-12.54599 2.7033722 -2.1085393 12.16
-14.24969 3.0704803 -2.0486281 12.16
-14.663237 3.1595902 -1.7541078 12.16
-14.84922 3.1996653 -1.4171593 12.16
-20.613396 4.4417124 -1.4745123 12.16
-4.5241833 0.97485739 -2.0605278 12.16
-24.369583 5.2510843 -1.162536 12.16
-4.8258963 1.0398697 -2.0620127 12.16
-5.1776772 1.1156703 -2.0682201 12.16
-25.096003 5.4076114 0 12.16
-5.5704446 1.2003026 -2.0740101 12.16
-6.0420194 1.3019161 -2.0884433 12.16
-6.5453715 1.4103769 -2.0892935 12.16
-7.18678 1.5485858 -2.1080744 12.16
-7.9230337 1.7072315 -2.1217406 12.16
-8.8464012 1.906196 -2.144201 12.16
-9.9387541 2.141573 -2.1610341 12.16
-11.312744 2.4376361 -2.180351 12.16
-12.543698 2.7418494 -2.1095121 12.33
-14.244387 3.1135924 -2.0491848 12.33
-14.770236 3.2285345 -1.7680459 12.33
-15.25209 3.3338599 -1.4565456 12.33
-20.594278 4.5015759 -1.4740938 12.33
-4.523056 0.98866677 -2.0613413 12.33
-21.125706 4.6177373 -1.008438 12.33
-4.8191838 1.0533956 -2.0604711 12.33
-24.565222 5.3695598 -0.58379793 12.33
-5.1834445 1.1330171 -2.0718575 12.33
-24.603104 5.37784 0 12.33
-5.5668588 1.2168251 -2.0740101 12.33
-6.0362787 1.3194329 -2.0878029 12.33
-6.5486183 1.431422 -2.0916765 12.33
-7.1859102 1.5707237 -2.1091771 12.33
-7.923604 1.7319715 -2.1232603 12.33
-8.8426075 1.932851 -2.1446621 12.33
-9.9400005 2.1727233 -2.1626973 12.33
-11.318902 2.4741287 -2.1829431 12.33
-12.527801 2.7773466 -2.1082151 12.5
-14.231219 3.1549852 -2.0486281 12.5
-14.45223 3.2039824 -1.73111 12.5
-15.562916 3.4502153 -1.4871999 12.5
-20.660692 4.5803652 -1.4798138 12.5
-4.5218863 1.002478 -2.0621548 12.5
-24.11759 5.3467407 -1.1520082 12.5
-4.8160372 1.0676898 -2.0604711 12.5
-25.517406 5.657073 -0.60682303 12.5
-5.1800599 1.1483916 -2.0718575 12.5
-5.5650587 1.2337438 -2.0746942 12.5
-6.0341868 1.3377471 -2.0884433 12.5
-6.5331588 1.4483664 -2.0881019 12.5
-7.183095 1.5924538 -2.1097283 12.5
-7.9127631 1.7542174 -2.1217406 12.5
-8.8330345 1.9582366 -2.1437399 12.5
-9.9296904 2.2013595 -2.1618657 12.5
-11.303836 2.506 -2.181462 12.5
-12.521431 2.8149378 -2.1085393 12.67
-14.215999 3.195893 -2.0477929 12.67
-14.67717 3.2995687 -1.7592185 12.67
-14.456836 3.2500358 -1.3824178 12.67
-4.5188918 1.0158904 -2.0621548 12.67
-24.017805 5.3994331 -1.148002 12.67
-4.8146486 1.0823792 -2.0612419 12.67
-5.1675415 1.161713 -2.0682201 12.67
-24.406849 5.4868941 0 12.67
-5.5577064 1.2494258 -2.0733261 12.67
-6.026494 1.3548138 -2.0871627 12.67
-6.534421 1.4690006 -2.0898893 12.67
-7.1745872 1.6129161 -2.1086259 12.67
-7.9075236 1.7776873 -2.1217406 12.67
-8.8233881 1.9835823 -2.1428177 12.67
-9.9135723 2.2286663 -2.1597867 12.67
-11.292516 2.538666 -2.1807213 12.67
-12.516871 2.8529544 -2.1091878 12.84
-14.206453 3.2380586 -2.0477929 12.84
-14.591781 3.3258858 -1.7501587 12.84
-20.780987 4.7365832 -1.4904168 12.84
-4.5087323 1.0276695 -2.0589008 12.84
-23.898441 5.4471407 -1.1430641 12.84
-4.8150144 1.0974801 -2.0627837 12.84
-5.1695213 1.1782823 -2.0704024 12.84
-5.5503097 1.265075 -2.0719581 12.84
-38.032085 8.6686039 0.90563875 12.84
-6.0187531 1.3718466 -2.0858822 12.84
-6.5225878 1.486685 -2.0875063 12.84
-7.1735187 1.6350509 -2.1097283 12.84
-7.9135327 1.8037213 -2.1247797 12.84
-8.8193607 2.0101855 -2.1432788 12.84
-9.9050083 2.2576358 -2.1593709 12.84
-11.28685 2.5725973 -2.1810918 12.84
-12.505924 2.8918185 -2.1088636 13.02
-14.192351 3.281781 -2.0472362 13.02
-14.718673 3.4034855 -1.7666521 13.02
-15.657072 3.6204772 -1.4992758 13.02
-20.826262 4.8157792 -1.4947417 13.02
-4.5072618 1.0422406 -2.0597143 13.02
-20.472946 4.7340798 -0.97992897 13.02
-4.806149 1.1113541 -2.0604711 13.02
-21.917601 5.0681357 -0.52228928 13.02
-5.1676092 1.1949366 -2.07113 13.02
-5.5518012 1.2837757 -2.0740101 13.02
-37.94622 8.7745285 0.90424615 13.02
-6.0144134 1.3907483 -2.0858822 13.02
-6.5178847 1.5071689 -2.0875063 13.02
-7.1627274 1.6562797 -2.1080744 13.02
-7.9078274 1.8285735 -2.1247797 13.02
-8.8148985 2.0383208 -2.1437399 13.02
-9.8997726 2.2891829 -2.1597867 13.02
-11.276797 2.6076002 -2.1807213 13.02
-12.504975 2.9307129 -2.1101606 13.19
-14.182551 3.3238761 -2.0472362 13.19
-14.97541 3.5096931 -1.7987098 13.19
-20.844904 4.8852901 -1.4971135 13.19
-4.505928 1.0560262 -2.0605278 13.19
-20.521053 4.809391 -0.98291028 13.19
-4.8010335 1.1251882 -2.0597003 13.19
-22.027056 5.1623435 -0.52526027 13.19
-5.164041 1.210264 -2.07113 13.19
-5.5516276 1.3011003 -2.0753782 13.19
-37.772072 8.8524046 0.90071809 13.19
-6.0121055 1.4090196 -2.0865226 13.19
-6.5133843 1.5265012 -2.0875063 13.19
-7.1577816 1.6775246 -2.1080744 13.19
-7.8985991 1.8511454 -2.1237667 13.19
-8.8088112 2.0644662 -2.1437399 13.19
-9.8872232 2.3172069 -2.1585391 13.19
-11.269011 2.6410477 -2.1807213 13.19
-12.496742 2.9656219 -2.1101606 13.35
-14.163579 3.3611817 -2.0458446 13.35
-14.859247 3.5262718 -1.7859331 13.35
-15.752213 3.7381828 -1.5104228 13.35
-20.817593 4.9402561 -1.4961369 13.35
-4.501184 1.0681832 -2.0597143 13.35
-20.49588 4.8639102 -0.9823513 13.35
-4.7996683 1.139017 -2.0604711 13.35
-5.1552029 1.2233895 -2.0689476 13.35
-23.602493 5.6011457 0 13.35
-5.5443153 1.3157303 -2.0740101 13.35
-6.0063038 1.4253656 -2.0858822 13.35
-6.5146689 1.5460066 -2.0892935 13.35
-7.153069 1.6975063 -2.1080744 13.35
-7.8915167 1.8727485 -2.1232603 13.35
-8.8049059 2.0895064 -2.144201 13.35
-9.8788109 2.3443563 -2.1581233 13.35
-11.253942 2.670691 -2.1792402 13.35
-12.488758 3.0075083 -2.1104848 13.54
-14.15043 3.4076676 -2.0455663 13.54
-15.877187 3.8235004 -1.5236136 13.54
-16.479496 3.9685469 -1.185302 13.54
-4.4976172 1.0831038 -2.0597143 13.54
-20.893349 5.0314789 -1.0021958 13.54
-4.7994533 1.1557912 -2.0620127 13.54
-5.1511178 1.240478 -2.0689476 13.54
-5.5399218 1.3341087 -2.0740101 13.54
-37.697849 9.0782928 0.90025389 13.54
-5.99786 1.4443882 -2.0846019 13.54
-6.5095067 1.5676014 -2.0892935 13.54
-7.153008 1.7225677 -2.1097283 13.54
-7.885263 1.8989074 -2.1232603 13.54
-8.7960358 2.1182373 -2.1437399 13.54
-9.8690805 2.3766448 -2.1577075 13.54
-11.245025 2.7079959 -2.1792402 13.54
-12.48798 3.0442414 -2.1117818 13.7
-14.129313 3.4443552 -2.0438962 13.7
-15.985747 3.8969052 -1.9241525 13.7
-15.78906 3.8489578 -1.5161822 13.7
-4.494575 1.0956593 -2.0597143 13.7
-20.593891 5.0202494 -0.9885003 13.7
-4.7908278 1.1678779 -2.0597003 13.7
-20.556326 5.0110922 -0.49123326 13.7
-5.1530638 1.2561815 -2.07113 13.7
-5.5361743 1.3495739 -2.0740101 13.7
-37.786964 9.2114687 0.90299273 13.7
-5.9974847 1.4620291 -2.0858822 13.7
-6.5051036 1.5857733 -2.0892935 13.7
-7.1406984 1.7407147 -2.1075232 13.7
-7.8836889 1.9218363 -2.1242731 13.7
-8.7844143 2.1414094 -2.1423566 13.7
-9.8643055 2.4046586 -2.1581233 13.7
-11.241238 2.7403183 -2.1799808 13.7
-12.464943 3.0801444 -2.1095121 13.88
-14.120346 3.489202 -2.0441744 13.88
-15.923286 3.9347167 -1.9181126 13.88
-15.92768 3.9358025 -1.5306733 13.88
-20.676098 5.109158 -1.4893007 13.88
-4.4928842 1.1102122 -2.0605278 13.88
-20.405403 5.0422683 -0.98020846 13.88
-4.79251 1.1842511 -2.0620127 13.88
-21.623604 5.3432913 -0.51713651 13.88
-5.1454744 1.2714703 -2.069675 13.88
-22.13813 5.4704328 0 13.88
-5.5300827 1.3665087 -2.0733261 13.88
-5.9947014 1.4813181 -2.0865226 13.88
-6.4982362 1.6057439 -2.0886977 13.88
-7.1370611 1.7636003 -2.1080744 13.88
-7.8607078 1.9424168 -2.1197147 13.88
-8.775754 2.168529 -2.1418955 13.88
-9.8529043 2.4346976 -2.1572917 13.88
-11.226849 2.7742057 -2.17887 13.88
-12.455205 3.1192889 -2.1095121 14.06
-14.109315 3.533545 -2.0441744 14.06
-15.895431 3.9808609 -1.9162542 14.06
-16.179878 4.0520983 -1.5561256 14.06
-20.654139 5.1726346 -1.4888822 14.06
-4.4840574 1.1229899 -2.0580873 14.06
-20.422407 5.1145997 -0.98179233 14.06
-4.7923465 1.2001981 -2.0635545 14.06
-21.812304 5.4626861 -0.52205718 14.06
-5.1414547 1.287629 -2.069675 14.06
-21.635813 5.4184861 0 14.06
-5.5257626 1.3838753 -2.0733261 14.06
-36.446293 9.1276312 0.87230808 14.06
-5.9900179 1.5001436 -2.0865226 14.06
-6.4950113 1.6266145 -2.0892935 14.06
-7.1296206 1.7855463 -2.1075232 14.06
-7.8695812 1.9708626 -2.1237667 14.06
-8.7670107 2.1956153 -2.1414344 14.06
-9.8414116 2.4646888 -2.15646 14.06
-11.216171 2.8089845 -2.1784995 14.06
-12.44262 3.1530886 -2.1088636 14.22
-14.097472 3.5724454 -2.0438962 14.22
-15.949722 4.0418248 -1.9241525 14.22
-16.172361 4.0982437 -1.5564972 14.22
-20.600933 5.2204895 -1.486092 14.22
-4.484446 1.136405 -2.0597143 14.22
-4.7836094 1.2122161 -2.0612419 14.22
-21.762075 5.5147352 -0.52122158 14.22
-5.1342273 1.3010663 -2.0682201 14.22
-21.659372 5.488709 0 14.22
-5.5218763 1.3993007 -2.0733261 14.22
-36.197769 9.1728888 0.86696959 14.22
-5.9876423 1.5173305 -2.0871627 14.22
-6.4885931 1.6442766 -2.0886977 14.22
-7.1227427 1.8049767 -2.106972 14.22
-7.8490429 1.9890287 -2.1197147 14.22
-8.7589588 2.2196107 -2.1409733 14.22
-9.8325939 2.4916811 -2.1560442 14.22
-11.204473 2.8393295 -2.1777589 14.22
-12.414892 3.1899123 -2.1059456 14.41
-14.08363 3.6186817 -2.0436177 14.41
-16.446083 4.2256961 -1.9857123 14.41
-16.152895 4.1503639 -1.5559399 14.41
-20.929399 5.3776507 -1.5110648 14.41
-4.4788833 1.150815 -2.0589008 14.41
-20.388849 5.23876 -0.98169911 14.41
-4.7759881 1.2271539 -2.0597003 14.41
-20.382269 5.2370691 -0.48858723 14.41
-5.1316886 1.3185484 -2.0689476 14.41
-21.304001 5.4739013 0 14.41
-5.5208464 1.4185395 -2.0746942 14.41
-36.486683 9.3749762 0.87462914 14.41
-5.973402 1.5348203 -2.0839615 14.41
-6.4849539 1.6662596 -2.0892935 14.41
-7.1148562 1.8281082 -2.1064208 14.41
-7.8480258 2.0164907 -2.1212342 14.41
-8.7534351 2.2491286 -2.1414344 14.41
-9.820487 2.5232997 -2.1552126 14.41
-11.193092 2.8759801 -2.1773887 14.41
-12.402116 3.2235758 -2.1052971 14.57
-14.065803 3.6560035 -2.0425043 14.57
-16.4496 4.2756038 -1.9875708 14.57
-15.892619 4.1308327 -1.5319738 14.57
-20.900785 5.4325619 -1.5100881 14.57
-4.4738836 1.1628584 -2.0580873 14.57
-20.749254 5.3931761 -0.9997735 14.57
-4.7761149 1.2414147 -2.0612419 14.57
-21.242258 5.521318 -0.50956976 14.57
-5.1297898 1.3333423 -2.069675 14.57
-21.41445 5.5660748 0 14.57
-5.5132256 1.4330056 -2.0733261 14.57
-5.9709263 1.5519718 -2.0846019 14.57
-6.4784279 1.6838822 -2.0886977 14.57
-7.1115837 1.8484532 -2.106972 14.57
-7.8404913 2.0379119 -2.1207275 14.57
-8.7452364 2.2730744 -2.1409733 14.57
-9.8152962 2.5512059 -2.1556284 14.57
-11.188822 2.9082148 -2.1781292 14.57
-12.403949 3.2633722 -2.1072423 14.74
-14.070215 3.7017529 -2.0447311 14.74
-16.431078 4.3228755 -1.9868739 14.74
-20.562353 5.4097781 -1.4867895 14.74
-4.473948 1.1770573 -2.0597143 14.74
-20.373795 5.3601699 -0.98244447 14.74
-4.7688413 1.2546412 -2.0597003 14.74
-20.396242 5.366076 -0.48965493 14.74
-5.1258111 1.3485569 -2.069675 14.74
-5.5125847 1.4503137 -2.0746942 14.74
-36.588707 9.6261749 0.8783893 14.74
-5.9607983 1.5682348 -2.0826812 14.74
-6.473403 1.7030967 -2.0886977 14.74
-7.1060681 1.8695455 -2.106972 14.74
-7.8344102 2.061166 -2.1207275 14.74
-8.7365713 2.298517 -2.1405122 14.74
-9.7982235 2.5778284 -2.1535492 14.74
-11.164938 2.9373991 -2.1751668 14.74
-12.370751 3.2962267 -2.1033516 14.92
-14.056602 3.7454274 -2.0444529 14.92
-16.417416 4.3744736 -1.9868739 14.92
-17.872122 4.762085 -1.7255605 14.92
-20.988665 5.5924978 -1.5188775 14.92
-4.4631658 1.1892251 -2.0564604 14.92
-20.58272 5.4843321 -0.99334496 14.92
-4.7684426 1.2705669 -2.0612419 14.92
-22.336452 5.9516201 -0.53667998 14.92
-5.117949 1.3636941 -2.0682201 14.92
-48.46312 12.913156 0 14.92
-5.5007372 1.4656892 -2.0719581 14.92
-5.955842 1.5869534 -2.0826812 14.92
-6.4717102 1.7244081 -2.0898893 14.92
-7.0964441 1.8908706 -2.1058693 14.92
-7.8353748 2.0877609 -2.1227536 14.92
-8.7274275 2.3254511 -2.1400511 14.92
-9.7919674 2.6091015 -2.1539652 14.92
-11.149958 2.9709423 -2.1740558 14.92
-12.376742 3.334867 -2.1059456 15.08
-14.046089 3.7846663 -2.0444529 15.08
-16.399382 4.4187522 -1.986177 15.08
-16.010965 4.314095 -1.5470223 15.08
-21.055801 5.6734071 -1.5248765 15.08
-4.463356 1.2026346 -2.0580873 15.08
-20.613621 5.5542631 -0.99558097 15.08
-4.761312 1.2829177 -2.0597003 15.08
-5.1159196 1.3784654 -2.0689476 15.08
-5.4966226 1.4810444 -2.0719581 15.08
-5.9513874 1.603579 -2.0826812 15.08
-6.4668698 1.7424738 -2.0898893 15.08
-7.0929928 1.9111804 -2.1064208 15.08
-7.8145685 2.1056063 -2.1187017 15.08
-8.7227783 2.3503201 -2.1405122 15.08
-9.7808657 2.6354177 -2.1531334 15.08
-11.145412 3.0030899 -2.1747966 15.08
-12.357273 3.3689792 -2.1043243 15.25
-14.044352 3.8289297 -2.0458446 15.25
-16.3862 4.4673905 -1.986177 15.25
-17.333351 4.7256141 -1.6761421 15.25
-21.019627 5.730608 -1.5234814 15.25
-4.4597678 1.2158723 -2.0580873 15.25
-22.033022 6.0068913 -1.0649903 15.25
-4.7557039 1.2965537 -2.0589294 15.25
-5.1118069 1.3936386 -2.0689476 15.25
-5.4940176 1.497841 -2.0726421 15.25
-5.9429469 1.6202333 -2.0814006 15.25
-6.4616714 1.7616538 -2.0898893 15.25
-7.0872908 1.9322172 -2.1064208 15.25
-7.8138866 2.1303101 -2.1202211 15.25
-8.7120113 2.3751669 -2.13959 15.25
-9.7881021 2.6685429 -2.15646 15.25
-11.126972 3.0335608 -2.172945 15.25
-12.336521 3.4073119 -2.1027031 15.44
-14.033486 3.8760087 -2.046123 15.44
-16.369379 4.5211759 -1.9859446 15.44
-17.55752 4.8493366 -1.699365 15.44
-17.765814 4.906867 -1.2888206 15.44
-4.4627562 1.2326005 -2.0613413 15.44
-4.7567153 1.313791 -2.0612419 15.44
-20.577784 5.6835251 -0.49564332 15.44
-5.1107492 1.4115742 -2.0704024 15.44
-5.4853969 1.5150509 -2.071274 15.44
-37.385769 10.325842 0.90048599 15.44
-5.9357152 1.6394275 -2.0807605 15.44
-6.450273 1.781547 -2.0881019 15.44
-7.0789914 1.9551971 -2.1058693 15.44
-7.7993193 2.1541498 -2.1181951 15.44
-8.7097149 2.4055982 -2.1409733 15.44
-9.7735424 2.6994243 -2.1552126 15.44
-11.128219 3.0735822 -2.1751668 15.44
-12.328259 3.4444311 -2.1030273 15.61
-14.018109 3.916564 -2.0455663 15.61
-16.346327 4.5670519 -1.9847832 15.61
-17.305235 4.8349643 -1.6763278 15.61
-20.481684 5.7224426 -1.4870685 15.61
-4.4608388 1.2463279 -2.0621548 15.61
-21.939045 6.1296196 -1.0622885 15.61
-4.7474637 1.326409 -2.0589294 15.61
-5.0975671 1.4242253 -2.0667651 15.61
-43.66959 12.200984 0 15.61
-5.4863076 1.5328369 -2.0733261 15.61
-37.422367 10.455554 0.90211076 15.61
-5.9289999 1.656522 -2.0801201 15.61
-6.4486361 1.8017049 -2.0892935 15.61
-7.0750108 1.9767096 -2.1064208 15.61
-7.7928939 2.1772811 -2.1181951 15.61
-8.6931667 2.4288113 -2.1386678 15.61
-9.7692575 2.7294638 -2.1560442 15.61
-11.1058 3.1028845 -2.1725748 15.61
-12.314186 3.4799211 -2.1023788 15.78
-13.991179 3.9538305 -2.0433395 15.78
-16.325058 4.6133718 -1.9838539 15.78
-17.708567 5.004344 -1.7168287 15.78
-4.4500885 1.2575705 -2.0589008 15.78
-37.014599 10.460121 -1.7937415 15.78
-4.7452831 1.340991 -2.0597003 15.78
-37.012131 10.459425 -0.89296567 15.78
-5.1004901 1.4413704 -2.069675 15.78
-37.010555 10.45898 0 15.78
-5.4799271 1.5485972 -2.0726421 15.78
-29.91987 8.4551907 0.7218557 15.78
-5.934999 1.6771981 -2.0839615 15.78
-6.4450994 1.8213496 -2.0898893 15.78
-7.0728145 1.9987385 -2.1075232 15.78
-7.7882609 2.2009199 -2.1187017 15.78
-8.6877947 2.4551232 -2.1391289 15.78
-9.7404079 2.7525856 -2.1514702 15.78
-11.087088 3.1331499 -2.1707232 15.78
-12.301909 3.5159004 -2.1020546 15.95
-13.975578 3.9942372 -2.0427828 15.95
-16.315119 4.6628804 -1.9843185 15.95
-17.58259 5.025125 -1.7060533 15.95
-17.552622 5.0165606 -1.2765435 15.95
-4.4516077 1.2722749 -2.0613413 15.95
-4.7377348 1.3540503 -2.0581586 15.95
-5.0961909 1.4564974 -2.069675 15.95
-37.067822 10.594028 0 15.95
-5.4753084 1.5648497 -2.0726421 15.95
-29.996544 8.5730486 0.72431606 15.95
-5.931818 1.6953207 -2.0846019 15.95
-6.4415026 1.8409892 -2.0904849 15.95
-7.0613074 2.0181303 -2.1058693 15.95
-7.7891378 2.226145 -2.1207275 15.95
-8.6804724 2.4808893 -2.1391289 15.95
-9.7378416 2.7830868 -2.1527176 15.95
-11.075852 3.1654921 -2.1703529 15.95
-12.295215 3.5534813 -2.1027031 16.120001
-13.9161 4.0219383 -2.0358241 16.120001
-16.306936 4.7129226 -1.9850154 16.120001
-17.538906 5.0689783 -1.7032665 16.120001
-19.216677 5.5538759 -1.3987569 16.120001
-4.451324 1.286492 -2.0629683 16.120001
-4.7390151 1.3696387 -2.0604711 16.120001
-5.0864778 1.47006 -2.0674925 16.120001
-49.108158 14.192913 0 16.120001
-5.4652247 1.579523 -2.07059 16.120001
-31.117722 8.9934368 0.75202972 16.120001
-5.9267621 1.7129134 -2.0846019 16.120001
-38.521843 11.133327 1.869952 16.120001
-6.4378462 1.8606235 -2.0910807 16.120001
-7.0552888 2.0390725 -2.1058693 16.120001
-7.7769222 2.2476344 -2.1192081 16.120001
-8.6730728 2.506634 -2.1391289 16.120001
-9.7257824 2.8108809 -2.151886 16.120001
-11.064524 3.1977952 -2.1699827 16.120001
-12.282723 3.5893927 -2.1023788 16.290001
-13.852777 4.0482111 -2.0283089 16.290001
-16.296694 4.7623997 -1.9854801 16.290001
-17.447332 5.0986519 -1.6958351 16.290001
-17.593401 5.1413374 -1.2817055 16.290001
-4.4474874 1.2996937 -2.0629683 16.290001
-29.727015 8.6871557 -1.4442725 16.290001
-4.7296162 1.3821406 -2.0581586 16.290001
-29.747465 8.6931324 -0.71953464 16.290001
-5.0874581 1.4867131 -2.069675 16.290001
-29.740124 8.6909866 0 16.290001
-5.46773 1.5978402 -2.0733261 16.290001
-29.670698 8.6706982 0.71767777 16.290001
-5.9198351 1.7299594 -2.0839615 16.290001
-6.4304647 1.8791811 -2.0904849 16.290001
-7.0473623 2.0594578 -2.1053181 16.290001
-7.768362 2.2701564 -2.1187017 16.290001
-8.6637297 2.5318105 -2.1386678 16.290001
-9.7155218 2.8391767 -2.1514702 16.290001
-11.049327 3.2289562 -2.1688716 16.290001
-12.273278 3.6285217 -2.1027031 16.469999
-13.838092 4.0911493 -2.0280304 16.469999
-16.279747 4.8130102 -1.9852477 16.469999
-17.788332 5.2590146 -1.7305768 16.469999
-21.323334 6.3041167 -1.5548718 16.469999
-4.4363737 1.3115875 -2.0597143 16.469999
-23.48646 6.9436321 -1.1421324 16.469999
-4.7234812 1.3964691 -2.0573876 16.469999
-29.697001 8.7797413 -0.71897757 16.469999
-5.080976 1.5021602 -2.0689476 16.469999
-29.731853 8.7900457 0 16.469999
-5.4608808 1.6144769 -2.0726421 16.469999
-29.712339 8.784276 0.71934897 16.469999
-5.9034686 1.7453253 -2.0801201 16.469999
-29.667007 8.770874 1.4426887 16.469999
-6.4226985 1.8988326 -2.0898893 16.469999
-7.0427012 2.0821326 -2.1058693 16.469999
-7.7630472 2.2950988 -2.1192081 16.469999
-8.6575994 2.5595677 -2.1391289 16.469999
-9.7065535 2.8696849 -2.1514702 16.469999
-11.039128 3.2636526 -2.1688716 16.469999
-12.26624 3.6660516 -2.1033516 16.639999
-13.812609 4.1282196 -2.026082 16.639999
-16.240652 4.8538971 -1.9822278 16.639999
-17.404413 5.2017145 -1.6947205 16.639999
-20.954718 6.262805 -1.529341 16.639999
-4.4377141 1.3263142 -2.0621548 16.639999
-4.7246213 1.4120631 -2.0597003 16.639999
-5.0782814 1.5177627 -2.069675 16.639999
-41.595947 12.431917 0 16.639999
-5.4542661 1.6301343 -2.0719581 16.639999
-30.986925 9.2611637 0.75086921 16.639999
-5.9109721 1.7666316 -2.0846019 16.639999
-29.698278 8.8760214 1.4454837 16.639999
-6.4170361 1.9178807 -2.0898893 16.639999
-7.0346503 2.102469 -2.1053181 16.639999
-7.7524958 2.317014 -2.1181951 16.639999
-8.6481018 2.5846868 -2.1386678 16.639999
-9.6979971 2.8984721 -2.1514702 16.639999
-11.025631 3.2952664 -2.1681311 16.639999
-12.250884 3.7034268 -2.1027031 16.82
-13.79578 4.1704464 -2.0255253 16.82
-16.227226 4.9054694 -1.9824601 16.82
-17.710127 5.3537488 -1.726118 16.82
-21.8459 6.6039877 -1.5958886 16.82
-4.4317765 1.3397205 -2.0613413 16.82
-23.46273 7.0927534 -1.1430641 16.82
-4.7130961 1.424763 -2.0566168 16.82
-5.0663548 1.5315527 -2.0667651 16.82
-41.300152 12.484983 0 16.82
-5.4527159 1.648349 -2.0733261 16.82
-29.449507 8.9025488 0.71428901 16.82
-5.8926969 1.7813548 -2.0801201 16.82
-37.661995 11.385173 1.834828 16.82
-6.412807 1.9385834 -2.0904849 16.82
-7.0261703 2.1240022 -2.1047668 16.82
-7.7414746 2.3402379 -2.117182 16.82
-8.6399393 2.6118426 -2.1386678 16.82
-9.6832256 2.9272265 -2.1502228 16.82
-11.00958 3.328182 -2.1670201 16.82
-12.244269 3.738776 -2.1033516 16.98
-13.795445 4.2124257 -2.0271955 16.98
-16.230562 4.9559865 -1.9845508 16.98
-17.483704 5.3386321 -1.705496 16.98
-21.91324 6.6911869 -1.6021667 16.98
-4.4297657 1.3526247 -2.0621548 16.98
-22.50466 6.8717761 -1.0973192 16.98
-4.7126288 1.4389967 -2.0581586 16.98
-5.0638399 1.5462387 -2.0674925 16.98
-5.4480915 1.6635695 -2.0733261 16.98
-29.510586 9.0110283 0.71637797 16.98
-5.8876996 1.7978034 -2.0801201 16.98
-6.4073682 1.9564837 -2.0904849 16.98
-7.0165339 2.1424918 -2.1036644 16.98
-7.7349091 2.3618469 -2.117182 16.98
-8.6307507 2.6353915 -2.1382065 16.98
-9.6768837 2.9548271 -2.1506386 16.98
-11.002123 3.3594873 -2.1673903 16.98
-12.239439 3.7746985 -2.1043243 17.139999
-13.774165 4.2480149 -2.0258036 17.139999
-16.239439 5.0083165 -1.9873384 17.139999
-17.308882 5.3381381 -1.68989 17.139999
-21.067039 6.4971709 -1.5416181 17.139999
-4.4207335 1.3633742 -2.0597143 17.139999
-4.7068286 1.4516073 -2.0573876 17.139999
-5.0559421 1.5592754 -2.0660377 17.139999
-42.531288 13.116842 0 17.139999
-5.4398327 1.677669 -2.0719581 17.139999
-31.010014 9.5636292 0.75342238 17.139999
-5.879035 1.8131211 -2.0788398 17.139999
-6.4091773 1.9766194 -2.0928679 17.139999
-7.0086865 2.1615107 -2.1031129 17.139999
-7.7264347 2.3828676 -2.1166756 17.139999
-8.6084805 2.6548944 -2.1345177 17.139999
-9.6629868 2.980109 -2.1493912 17.139999
-10.994576 3.3907771 -2.1677606 17.139999
-12.22752 3.8131313 -2.1043243 17.32
-13.753189 4.2889085 -2.0246904 17.32
-16.21035 5.0551696 -1.9857123 17.32
-17.797709 5.5501847 -1.7393086 17.32
-18.153341 5.6610885 -1.3296978 17.32
-4.4199171 1.3783435 -2.0613413 17.32
-22.408176 6.9879513 -1.0946174 17.32
-4.7004833 1.4658376 -2.0566168 17.32
-5.0527968 1.575706 -2.0667651 17.32
-42.188198 13.156318 0 17.32
-5.4363294 1.69531 -2.0726421 17.32
