# .PCD v0.7 - Point Cloud Data file format
VERSION 0.7
FIELDS x y z intensity
SIZE 4 4 4 4
TYPE F F F F
COUNT 1 1 1 1
WIDTH 1152
HEIGHT 1
VIEWPOINT 0 0 0 1 0 0 0
POINTS 1152
DATA ascii
-8.9484215 -16.216726 -2.1659782 298.89001
-10.939826 -19.825638 -2.1125484 298.89001
-11.208292 -20.312164 -1.6222565 298.89001
-2.2465267 -4.0712552 -2.0702896 298.89001
-12.37496 -22.426451 -1.1944922 298.89001
-2.3868291 -4.3255181 -2.0635545 298.89001
-18.738445 -33.958641 -0.90048599 298.89001
-2.5607028 -4.6406193 -2.069675 298.89001
-2.7339478 -4.9545813 -2.0596454 298.89001
-2.9531214 -5.3517776 -2.0653949 298.89001
-3.2007134 -5.8004746 -2.0672507 298.89001
-3.4849622 -6.3156033 -2.0683827 298.89001
-3.7951238 -6.8776917 -2.0564017 298.89001
-4.1840076 -7.5824447 -2.0519774 298.89001
-4.6491637 -8.4254208 -2.0454352 298.89001
-5.2481761 -9.5109777 -2.0466712 298.89001
-6.1062765 -10.98886 -2.0654154 299.06
-7.241909 -13.032545 -2.0953903 299.06
-9.010006 -16.214413 -2.1692305 299.06
-11.024717 -19.84009 -2.1175644 299.06
-11.32181 -20.374737 -1.6299298 299.06
-2.2639213 -4.0741544 -2.0751703 299.06
-13.069292 -23.519508 -1.2547712 299.06
-2.4005492 -4.3200302 -2.0643253 299.06
-17.814516 -32.059017 -0.85151118 299.06
-2.5735555 -4.6313725 -2.0689476 299.06
-2.7477233 -4.9448047 -2.0589612 299.06
-2.9680669 -5.3413358 -2.0647545 299.06
-3.2151275 -5.7859459 -2.0654635 299.06
-3.5036857 -6.3052354 -2.0683827 299.06
-3.8155136 -6.8664012 -2.0564017 299.06
-4.2140493 -7.5836062 -2.0556664 299.06
-4.6788931 -8.4201393 -2.0475144 299.06
-5.2754183 -9.4936466 -2.0463009 299.06
-6.1446118 -10.971994 -2.0660639 299.25
-7.2879901 -13.013642 -2.0962253 299.25
-9.066637 -16.189646 -2.1699274 299.25
-11.086556 -19.796471 -2.1168215 299.25
-11.341544 -20.251783 -1.6230936 299.25
-2.2747409 -4.061842 -2.0727298 299.25
-2.4166653 -4.3152661 -2.0658669 299.25
-2.587079 -4.6195621 -2.0674925 299.25
-2.7659423 -4.9389453 -2.0603294 299.25
-2.9876149 -5.3347702 -2.066035 299.25
-3.2314982 -5.7702551 -2.0636761 299.25
-3.5255148 -6.2952595 -2.068934 299.25
-3.8382626 -6.8537107 -2.0564017 299.25
-4.2325177 -7.5577044 -2.0524385 299.25
-4.7029657 -8.3977499 -2.045851 299.25
-5.3107123 -9.4829597 -2.0477822 299.25
-6.180048 -10.958872 -2.0670366 299.42001
-7.3304615 -12.998861 -2.0973387 299.42001
-9.1302452 -16.190357 -2.1736441 299.42001
-11.089489 -19.664619 -2.1062317 299.42001
-11.445683 -20.296247 -1.6293718 299.42001
-2.2876799 -4.0566664 -2.0735433 299.42001
-16.472927 -29.21089 -1.5638988 299.42001
-2.4267387 -4.3032546 -2.0635545 299.42001
-16.943087 -30.044609 -0.8008188 299.42001
-2.600774 -4.6118655 -2.0674925 299.42001
-16.921127 -30.005669 0 299.42001
-2.7815075 -4.932354 -2.0610135 299.42001
-3.0015688 -5.3225813 -2.0647545 299.42001
-3.2514181 -5.7656307 -2.0654635 299.42001
-3.5375671 -6.2730494 -2.0650752 299.42001
-3.8585811 -6.8422923 -2.0564017 299.42001
-4.2606587 -7.5552835 -2.0552053 299.42001
-4.7269011 -8.3820553 -2.0454352 299.42001
-5.3368945 -9.4637365 -2.0470417 299.42001
-6.2135105 -10.942204 -2.0673609 299.59
-7.3699756 -12.978777 -2.0976169 299.59
-9.1811857 -16.168379 -2.174341 299.59
-11.087805 -19.526001 -2.0948989 299.59
-11.413247 -20.099115 -1.6162575 299.59
-2.3006084 -4.0514498 -2.0743568 299.59
-16.557552 -29.158411 -1.5637125 299.59
-2.439496 -4.2960353 -2.0635545 299.59
-16.9354 -29.823812 -0.79626954 299.59
-2.6144464 -4.6041288 -2.0674925 299.59
-16.9212 -29.798805 0 299.59
-2.7933457 -4.9191766 -2.0589612 299.59
-3.0173481 -5.313652 -2.0647545 299.59
-3.2656825 -5.7509775 -2.0636761 299.59
-3.5542655 -6.259182 -2.0639725 299.59
-3.8798208 -6.8324962 -2.0569084 299.59
-4.2792134 -7.5358396 -2.0533607 299.59
-4.7507839 -8.366292 -2.0450194 299.59
-5.3678622 -9.4529877 -2.0481524 299.59
-6.2517753 -10.929482 -2.0686579 299.76999
-7.4166131 -12.965875 -2.099287 299.76999
-9.2417974 -16.156698 -2.1766641 299.76999
-11.098666 -19.402914 -2.0854239 299.76999
-11.449587 -20.016401 -1.6124907 299.76999
-2.312418 -4.0426159 -2.0735433 299.76999
-13.166299 -23.017591 -1.2366036 299.76999
-2.4511478 -4.2851462 -2.0620127 299.76999
-2.6288977 -4.5958924 -2.0674925 299.76999
-2.8087859 -4.9103765 -2.0589612 299.76999
-3.035908 -5.307436 -2.066035 299.76999
-3.2818377 -5.7373753 -2.0624847 299.76999
-3.5748663 -6.2496538 -2.0645237 299.76999
-3.900306 -6.818594 -2.0564017 299.76999
-4.303833 -7.5240483 -2.0538218 299.76999
-4.7819009 -8.3598166 -2.0470984 299.76999
-5.3975329 -9.4360771 -2.0481524 299.76999
-6.2793179 -10.906849 -2.0676851 299.92999
-7.4567447 -12.951979 -2.1004004 299.92999
-9.2898531 -16.135992 -2.177361 299.92999
-10.643106 -18.486523 -1.9901168 299.92999
-11.447702 -19.884064 -1.6043988 299.92999
-2.323698 -4.0361428 -2.0735433 299.92999
-15.477311 -26.883287 -1.4466017 299.92999
-2.464946 -4.2814832 -2.0635545 299.92999
-21.933548 -38.097435 -1.020625 299.92999
-2.6407921 -4.5869188 -2.0667651 299.92999
-2.8234251 -4.9041429 -2.0596454 299.92999
-3.0497718 -5.2972956 -2.0653949 299.92999
-3.298799 -5.7298427 -2.0630805 299.92999
-3.5923045 -6.2396464 -2.0645237 299.92999
-3.9193318 -6.8076758 -2.0564017 299.92999
-4.3209434 -7.5052543 -2.0519774 299.92999
-4.8052273 -8.3464298 -2.0470984 299.92999
-5.4277849 -9.4277811 -2.0496337 299.92999
-6.3116517 -10.88817 -2.0676851 300.10001
-7.4981208 -12.934937 -2.1012354 300.10001
-9.3456583 -16.122107 -2.1792195 300.10001
-10.650971 -18.37389 -1.981385 300.10001
-11.461623 -19.772337 -1.5981208 300.10001
-2.3356633 -4.0292306 -2.0735433 300.10001
-15.40271 -26.571068 -1.4322541 300.10001
-2.478564 -4.2757473 -2.0643253 300.10001
-2.6543901 -4.5790629 -2.0667651 300.10001
-2.8379636 -4.8957438 -2.0596454 300.10001
-3.0626252 -5.2833056 -2.0634742 300.10001
-3.3157854 -5.7200298 -2.0630805 300.10001
-3.6136947 -6.2339501 -2.0661776 300.10001
-3.9414539 -6.7993646 -2.0574148 300.10001
-4.3480725 -7.5008192 -2.0542829 300.10001
-4.8338947 -8.3389063 -2.0487618 300.10001
-5.4547482 -9.409934 -2.0492635 300.10001
-6.3449244 -10.871099 -2.0680094 300.26999
-7.5424566 -12.922895 -2.1029055 300.26999
-9.3974581 -16.10117 -2.1801486 300.26999
-10.657259 -18.259653 -1.9724673 300.26999
-10.827314 -18.55102 -1.5019964 300.26999
-2.3485289 -4.0238609 -2.0743568 300.26999
-15.587221 -26.706423 -1.4420365 300.26999
-2.4903092 -4.2667809 -2.0635545 300.26999
-16.882988 -28.926529 -0.77760804 300.26999
-2.6660864 -4.5679493 -2.06531 300.26999
-16.889553 -28.937778 0 300.26999
-2.8543715 -4.8905482 -2.0610135 300.26999
-3.082108 -5.2807412 -2.066035 300.26999
-3.3288929 -5.7035708 -2.0606976 300.26999
-3.631206 -6.2215405 -2.0656264 300.26999
-3.9606354 -6.7859693 -2.0569084 300.26999
-4.3654041 -7.4794812 -2.0519774 300.26999
-4.8576293 -8.3228369 -2.048346 300.26999
-5.4866071 -9.4004984 -2.0507445 300.26999
-6.3781514 -10.853928 -2.0683336 300.44
-7.5817695 -12.902167 -2.103184 300.44
-9.4522343 -16.085203 -2.1817746 300.44
-10.659936 -18.140392 -1.9629924 300.44
-10.828735 -18.427645 -1.4946022 300.44
-2.3604577 -4.0168748 -2.0743568 300.44
-18.790966 -31.977255 -1.7296426 300.44
-2.5020232 -4.257782 -2.0627837 300.44
-19.450586 -33.099754 -0.89134091 300.44
-2.680572 -4.561625 -2.0660377 300.44
-2.8679175 -4.8804374 -2.0603294 300.44
-3.0948827 -5.2666721 -2.0641143 300.44
-3.3448339 -5.6920228 -2.0601017 300.44
-3.6506238 -6.2123966 -2.0661776 300.44
-3.9817326 -6.775856 -2.0574148 300.44
-4.3856049 -7.46314 -2.0510552 300.44
-4.8832932 -8.3100748 -2.0487618 300.44
-5.51547 -9.3858719 -2.0511148 300.44
-6.4212656 -10.849122 -2.0712516 300.62
-7.6232743 -12.87999 -2.1034622 300.62
-9.5118265 -16.070814 -2.1838653 300.62
-10.662102 -18.014275 -1.95296 300.62
-10.831699 -18.300821 -1.4870685 300.62
-2.3730652 -4.0094395 -2.0743568 300.62
-15.488552 -26.168858 -1.4180927 300.62
-2.5163269 -4.2514887 -2.0635545 300.62
-2.690145 -4.5451651 -2.0624001 300.62
-16.894869 -28.544918 0 300.62
-2.8841929 -4.8730206 -2.0610135 300.62
-3.1104481 -5.2552929 -2.0634742 300.62
-3.3626993 -5.6814866 -2.0601017 300.62
-3.6671848 -6.1959338 -2.0645237 300.62
-4.001029 -6.7599835 -2.0564017 300.62
-4.4159679 -7.4610486 -2.0542829 300.62
-4.9093761 -8.294692 -2.0487618 300.62
-5.5479326 -9.3735723 -2.0522258 300.62
-6.4573383 -10.832286 -2.0719001 300.79999
-7.6677566 -12.862782 -2.1045756 300.79999
-9.570405 -16.054504 -2.1857238 300.79999
-10.688053 -17.929375 -1.9473865 300.79999
-10.830909 -18.16902 -1.4791163 300.79999
-2.382843 -3.9972563 -2.0719163 300.79999
-2.5287261 -4.2419772 -2.0627837 300.79999
-2.7091804 -4.5446925 -2.0660377 300.79999
-16.900486 -28.35083 0 300.79999
-2.8966007 -4.8590927 -2.0589612 300.79999
-3.127913 -5.2471228 -2.0641143 300.79999
-3.3815091 -5.6725345 -2.0606976 300.79999
-3.6866319 -6.1843824 -2.0645237 300.79999
-4.0212555 -6.745719 -2.0558953 300.79999
-4.4433718 -7.4538255 -2.0561275 300.79999
-4.9364119 -8.2809086 -2.0491776 300.79999
-5.5803723 -9.3611622 -2.0533366 300.79999
-6.4914808 -10.816463 -2.0725486 300.97
-7.7181177 -12.860353 -2.1079159 300.97
-9.6190195 -16.02774 -2.1859562 300.97
-10.664349 -17.769526 -1.9334527 300.97
-10.826249 -18.039293 -1.471164 300.97
-2.3965731 -3.9933019 -2.0735433 300.97
-15.609052 -26.008661 -1.4145523 300.97
-2.5394018 -4.2312913 -2.0612419 300.97
-19.768278 -32.938992 -0.89189798 300.97
-2.7188182 -4.5302444 -2.0631278 300.97
-16.892935 -28.147938 0 300.97
-2.9119723 -4.8520885 -2.0596454 300.97
-3.1454177 -5.2410684 -2.0653949 300.97
-3.3993075 -5.664113 -2.0612931 300.97
-3.7049651 -6.1734166 -2.0645237 300.97
-4.0422482 -6.7354169 -2.0564017 300.97
-4.461462 -7.4339342 -2.0542829 300.97
-4.9609604 -8.2662249 -2.0491776 300.97
-5.6050887 -9.3395081 -2.0522258 300.97
-6.5286484 -10.805601 -2.0741699 301.14001
-7.7593136 -12.842482 -2.1087508 301.14001
-9.6809139 -16.022932 -2.1892083 301.14001
-10.670685 -17.661106 -1.9250925 301.14001
-10.836392 -17.935371 -1.4653045 301.14001
-2.4074659 -3.9846096 -2.0727298 301.14001
-2.5548081 -4.2284765 -2.0635545 301.14001
-2.7341745 -4.5253468 -2.0645826 301.14001
-16.884327 -27.945339 0 301.14001
-2.9263558 -4.8434272 -2.0596454 301.14001
-3.1589947 -5.2284689 -2.0641143 301.14001
-3.4160981 -5.6540022 -2.0612931 301.14001
-3.7232656 -6.1623969 -2.0645237 301.14001
-4.0622149 -6.7233934 -2.0564017 301.14001
-4.4865189 -7.4256611 -2.0556664 301.14001
-4.9854646 -8.2514696 -2.0491776 301.14001
-5.6368403 -9.329565 -2.0537071 301.14001
-6.5615368 -10.783351 -2.0738456 301.32001
-7.8016801 -12.821425 -2.1093075 301.32001
-9.7363672 -16.000925 -2.1903698 301.32001
-10.703342 -17.590071 -1.9210052 301.32001
-10.884387 -17.887604 -1.4641883 301.32001
-2.4190223 -3.975466 -2.0719163 301.32001
-15.7936 -25.955494 -1.4168816 301.32001
-2.5661609 -4.2172766 -2.0620127 301.32001
-16.906141 -27.783867 -0.75509357 301.32001
-2.7493463 -4.5183263 -2.06531 301.32001
-16.908619 -27.787937 0 301.32001
-2.948396 -4.8454485 -2.0644336 301.32001
-3.1754048 -5.2185192 -2.0641143 301.32001
-3.431859 -5.6399803 -2.0601017 301.32001
-3.7396088 -6.1457424 -2.06287 301.32001
-4.0802999 -6.7056398 -2.0548823 301.32001
-4.5057783 -7.4048796 -2.0538218 301.32001
-5.0133967 -8.239109 -2.0500093 301.32001
-5.6671438 -9.313489 -2.0540774 301.32001
-6.5998688 -10.77845 -2.0764396 301.48001
-7.8436594 -12.809723 -2.1109776 301.48001
-9.7893105 -15.987226 -2.1922283 301.48001
-10.685869 -17.451424 -1.9091151 301.48001
-10.816566 -17.664871 -1.4484234 301.48001
-2.4310684 -3.9702535 -2.0727298 301.48001
-15.761693 -25.74091 -1.4075649 301.48001
-2.5779278 -4.210094 -2.0620127 301.48001
-2.7609801 -4.5090423 -2.0645826 301.48001
-16.866045 -27.54446 0 301.48001
-2.9550457 -4.8259768 -2.0596454 301.48001
-3.1909547 -5.211247 -2.0647545 301.48001
-3.4396195 -5.6173491 -2.0553358 301.48001
-3.7557526 -6.133636 -2.0623188 301.48001
-4.1000199 -6.6958694 -2.0553887 301.48001
-4.5244064 -7.3889489 -2.0528996 301.48001
-5.0384283 -8.2284136 -2.0508409 301.48001
-5.6951828 -9.3009796 -2.0548179 301.48001
-6.63059 -10.752624 -2.0754669 301.66
-7.8880215 -12.791761 -2.1120911 301.66
-9.8447008 -15.964848 -2.1933899 301.66
-10.689425 -17.334713 -1.9000117 301.66
-10.816507 -17.540796 -1.4410292 301.66
-2.4387345 -3.9548206 -2.0686626 301.66
-15.879184 -25.750784 -1.4108256 301.66
-2.5921102 -4.2035451 -2.0627837 301.66
-20.860361 -33.828606 -0.92272192 301.66
-2.7712207 -4.4940033 -2.0616727 301.66
-16.937798 -27.467506 0 301.66
-2.9711788 -4.8182688 -2.0603294 301.66
-3.2083051 -5.2028093 -2.0653949 301.66
-3.4552457 -5.6032658 -2.0541441 301.66
-3.7790396 -6.1283522 -2.0645237 301.66
-4.1230664 -6.6862497 -2.0564017 301.66
-4.5527048 -7.3829808 -2.0552053 301.66
-5.0652804 -8.2142096 -2.0512567 301.66
-5.7233429 -9.2813692 -2.0544477 301.66
-6.6655869 -10.737933 -2.0764396 301.82999
-7.9322081 -12.778398 -2.1137609 301.82999
-9.8993597 -15.947382 -2.1950159 301.82999
-10.676747 -17.199715 -1.8886788 301.82999
-10.813788 -17.420483 -1.4337746 301.82999
-2.4485307 -3.9444625 -2.0670357 301.82999
-16.011362 -25.793518 -1.4157635 301.82999
-2.6065176 -4.1989717 -2.0643253 301.82999
-20.810898 -33.525333 -0.91613007 301.82999
-2.7845426 -4.4857612 -2.0616727 301.82999
-16.917961 -27.254004 0 301.82999
-2.9854617 -4.809432 -2.0603294 301.82999
-3.2227287 -5.1916575 -2.0647545 301.82999
-3.4708488 -5.5913668 -2.0535486 301.82999
-3.7951782 -6.1138458 -2.0634212 301.82999
-4.1418662 -6.6723433 -2.0558953 301.82999
-4.5817752 -7.3810143 -2.0584331 301.82999
-5.0875669 -8.1958199 -2.0504251 301.82999
-5.7560387 -9.2726955 -2.0562992 301.82999
-6.7013807 -10.720286 -2.0770881 302.01001
-7.9754624 -12.758452 -2.1145961 302.01001
-9.95257 -15.921257 -2.1957128 302.01001
-10.736007 -17.17453 -1.8896078 302.01001
-10.818758 -17.30691 -1.4272175 302.01001
-2.4647844 -3.9429481 -2.0702896 302.01001
-15.970532 -25.548271 -1.4050493 302.01001
-2.6187179 -4.1891975 -2.0635545 302.01001
-16.890812 -27.020454 -0.73982084 302.01001
-2.7976336 -4.4754114 -2.0609453 302.01001
-16.913387 -27.056566 0 302.01001
-2.9995601 -4.7984357 -2.0596454 302.01001
-3.2400272 -5.1831141 -2.0653949 302.01001
-3.4883974 -5.5804353 -2.0535486 302.01001
-3.8092713 -6.0937419 -2.0606649 302.01001
-4.1628075 -6.6592979 -2.0558953 302.01001
-4.5997825 -7.3583331 -2.0561275 302.01001
-5.1164002 -8.1847734 -2.0516725 302.01001
-5.7851415 -9.2545671 -2.0562992 302.01001
-6.7312913 -10.701531 -2.0770881 302.17001
-8.0173864 -12.74619 -2.1162663 302.17001
-10.005452 -15.906854 -2.1975713 302.17001
-10.796648 -17.164711 -1.8918371 302.17001
-10.811808 -17.188812 -1.4199628 302.17001
-2.47384 -3.9329565 -2.0686626 302.17001
-16.121593 -25.630407 -1.4120368 302.17001
-2.6304061 -4.1818686 -2.0635545 302.17001
-16.941717 -26.934254 -0.73875314 302.17001
-2.8121042 -4.4707355 -2.0624001 302.17001
-16.931374 -26.917812 0 302.17001
-3.0109468 -4.786859 -2.0582771 302.17001
-3.2565062 -5.1772537 -2.0666752 302.17001
-3.5029507 -5.569056 -2.0529528 302.17001
-3.830368 -6.0895901 -2.06287 302.17001
-4.1803575 -6.6460099 -2.0553887 302.17001
-4.6182408 -7.3421645 -2.0552053 302.17001
-5.1392365 -8.1704531 -2.0516725 302.17001
-5.8161945 -9.2466936 -2.0581508 302.17001
-6.7691016 -10.687 -2.0783851 302.35001
-8.0605698 -12.72596 -2.1171012 302.35001
-10.057502 -15.878698 -2.1980357 302.35001
-10.834536 -17.105473 -1.8890504 302.35001
-10.844403 -17.121052 -1.4171726 302.35001
-2.4881387 -3.9282525 -2.0702896 302.35001
-16.432941 -25.944187 -1.4321609 302.35001
-2.6415558 -4.1704659 -2.0620127 302.35001
-16.83046 -26.571787 -0.73025799 302.35001
-2.8261356 -4.4618788 -2.0624001 302.35001
-16.844625 -26.594152 0 302.35001
-3.0289872 -4.7821393 -2.0603294 302.35001
-3.2707272 -5.1637964 -2.0653949 302.35001
-3.5326884 -5.5773783 -2.0601017 302.35001
-3.845365 -6.0710297 -2.0606649 302.35001
-4.2043219 -6.6377473 -2.0569084 302.35001
-4.6444077 -7.332552 -2.0565886 302.35001
-5.1659265 -8.155921 -2.0520885 302.35001
-5.843112 -9.2250557 -2.05741 302.35001
-6.8039637 -10.671862 -2.0793576 302.51999
-8.104681 -12.712008 -2.1187713 302.51999
-10.126997 -15.883963 -2.2029142 302.51999
-10.916286 -17.121946 -1.8944381 302.51999
-2.4978187 -3.9177713 -2.0686626 302.51999
-2.6519339 -4.1594977 -2.0604711 302.51999
-2.8443694 -4.4613285 -2.0660377 302.51999
-3.0401316 -4.7683768 -2.0582771 302.51999
-3.2839968 -5.1508737 -2.0641143 302.51999
-3.5358782 -5.5459442 -2.052357 302.51999
-3.8612943 -6.0563517 -2.0595622 302.51999
-4.2208772 -6.6203494 -2.0553887 302.51999
-4.6682363 -7.3220215 -2.0575109 302.51999
-5.1911545 -8.1422062 -2.0525043 302.51999
-5.8736272 -9.2126503 -2.058521 302.51999
-6.8377295 -10.654948 -2.0800061 302.69
-8.1455717 -12.692904 -2.1196063 302.69
-10.165498 -15.84047 -2.2010558 302.69
-11.027269 -17.183332 -1.904842 302.69
-11.173174 -17.41069 -1.4466097 302.69
-2.5104187 -3.9118807 -2.0694761 302.69
-16.514313 -25.733564 -1.4259187 302.69
-2.667254 -4.1562705 -2.0627837 302.69
-21.303106 -33.19574 -0.91575867 302.69
-2.8545754 -4.4481654 -2.0638552 302.69
-3.0552814 -4.7609172 -2.0589612 302.69
-3.2992654 -5.1411076 -2.0641143 302.69
-3.5543802 -5.5386419 -2.0535486 302.69
-3.8813233 -6.0481043 -2.0606649 302.69
-4.2405019 -6.6077967 -2.0553887 302.69
-4.6888895 -7.3065004 -2.0570498 302.69
-5.2174029 -8.1300611 -2.0533359 302.69
-5.903059 -9.1984901 -2.0592616 302.69
-6.8674569 -10.635813 -2.0800061 302.85001
-8.1863565 -12.678428 -2.1209981 302.85001
-10.217236 -15.823703 -2.2026818 302.85001
-11.471642 -17.766436 -1.9730247 302.85001
-2.5203419 -3.9033201 -2.0686626 302.85001
-16.559017 -25.645388 -1.4235895 302.85001
-2.6778491 -4.1472554 -2.0620127 302.85001
-2.8690069 -4.4433069 -2.06531 302.85001
-3.0706034 -4.7555246 -2.0603294 302.85001
-3.3136091 -5.1318741 -2.0641143 302.85001
-3.5677617 -5.5254869 -2.052357 302.85001
-3.896112 -6.0340118 -2.0595622 302.85001
-4.2599874 -6.5975547 -2.0558953 302.85001
-4.7050519 -7.2868385 -2.0552053 302.85001
-5.2400861 -8.1154594 -2.0533359 302.85001
-5.9287229 -9.1819696 -2.0592616 302.85001
-6.9048409 -10.616289 -2.0806546 303.04001
-8.229435 -12.652871 -2.1212764 303.04001
-10.277234 -15.801392 -2.204308 303.04001
-11.451236 -17.606434 -1.9594625 303.04001
-11.525162 -17.720097 -1.4781396 303.04001
-2.5322757 -3.8934093 -2.0678492 303.04001
-16.626541 -25.56354 -1.4220989 303.04001
-2.6895747 -4.1352587 -2.0604711 303.04001
-16.816732 -25.855959 -0.71609944 303.04001
-2.88271 -4.4322066 -2.0645826 303.04001
-3.0863564 -4.745316 -2.0603294 303.04001
-3.3316419 -5.1224461 -2.0647545 303.04001
-3.5839834 -5.5104246 -2.0511656 303.04001
-3.9161 -6.0210586 -2.0595622 303.04001
-4.282897 -6.5850139 -2.0564017 303.04001
-4.726007 -7.2663016 -2.0538218 303.04001
-5.2669692 -8.0980387 -2.0533359 303.04001
-5.9591389 -9.1622591 -2.0592616 303.04001
-6.9403214 -10.597847 -2.0813031 303.22
-8.2734842 -12.633583 -2.1223898 303.22
-10.333355 -15.778997 -2.2057018 303.22
-11.425759 -17.447096 -1.9457145 303.22
-11.373096 -17.366678 -1.4516323 303.22
-2.5464966 -3.8884916 -2.0694761 303.22
-16.749456 -25.576361 -1.4257324 303.22
-2.7035637 -4.1283326 -2.0612419 303.22
-2.8955994 -4.4215703 -2.0638552 303.22
-3.0991898 -4.7324519 -2.0589612 303.22
-3.3487561 -5.1135392 -2.0653949 303.22
-3.612783 -5.5167069 -2.0577188 303.22
-3.9339433 -6.0071177 -2.059011 303.22
-4.2993231 -6.5650516 -2.0543756 303.22
-4.7541423 -7.2595587 -2.0561275 303.22
-5.2934556 -8.0830879 -2.0537517 303.22
-5.9932771 -9.1517134 -2.0611131 303.22
-6.9731464 -10.583368 -2.0822759 303.38
-8.3185387 -12.625314 -2.1248949 303.38
-10.397051 -15.779938 -2.2098832 303.38
-11.332006 -17.19895 -1.9215626 303.38
-2.5573454 -3.8813653 -2.0694761 303.38
-16.786737 -25.477772 -1.4228442 303.38
-2.7160969 -4.1223078 -2.0620127 303.38
-16.835657 -25.552017 -0.71043599 303.38
-2.9069104 -4.411911 -2.0631278 303.38
-3.1113591 -4.7222095 -2.0582771 303.38
-3.3630226 -5.1041675 -2.0653949 303.38
-3.6208215 -5.4954371 -2.0535486 303.38
-3.9517605 -5.997714 -2.0595622 303.38
-4.3187041 -6.554636 -2.0548823 303.38
-4.7743964 -7.2462544 -2.0561275 303.38
-5.3181596 -8.0715418 -2.0545833 303.38
-6.0198917 -9.1365833 -2.0614834 303.38
-7.0048547 -10.567144 -2.0829244 303.54001
-8.3570461 -12.606987 -2.12573 303.54001
-10.446564 -15.759121 -2.2110448 303.54001
-11.438304 -17.255205 -1.9314091 303.54001
-11.541565 -17.41098 -1.4607005 303.54001
-2.5681744 -3.8742087 -2.0694761 303.54001
-16.850094 -25.41914 -1.422192 303.54001
-2.7255588 -4.1116304 -2.0604711 303.54001
-2.9223075 -4.4084349 -2.06531 303.54001
-3.1276491 -4.7182021 -2.0603294 303.54001
-3.3741224 -5.0900187 -2.0634742 303.54001
-3.6424825 -5.4948521 -2.0571229 303.54001
-3.9674318 -5.9850531 -2.059011 303.54001
-4.3369913 -6.5425501 -2.0548823 303.54001
-4.7946129 -7.2328935 -2.0561275 303.54001
-5.3406792 -8.0566597 -2.0545833 303.54001
-6.0442963 -9.1180983 -2.0611131 303.54001
-7.0409536 -10.545499 -2.0832486 303.73001
-8.3999062 -12.580853 -2.1260083 303.73001
-10.505383 -15.734304 -2.2124386 303.73001
-11.444596 -17.140999 -1.922863 303.73001
-11.731073 -17.570065 -1.4773026 303.73001
-2.5779638 -3.8611126 -2.0670357 303.73001
-16.511629 -24.730083 -1.3866955 303.73001
-2.7402031 -4.1041045 -2.0612419 303.73001
-2.9358757 -4.3971705 -2.0645826 303.73001
-3.145365 -4.7109303 -2.0616975 303.73001
-3.3930871 -5.081953 -2.0647545 303.73001
-3.6532631 -5.4716282 -2.0529528 303.73001
-3.985122 -5.9686656 -2.0579085 303.73001
-4.3597374 -6.5297413 -2.0553887 303.73001
-4.8239751 -7.2250471 -2.0584331 303.73001
-5.3673663 -8.0389051 -2.0545833 303.73001
-6.0755911 -9.0996389 -2.0614834 303.73001
-7.0744133 -10.527838 -2.0838971 303.89999
-8.4416161 -12.562449 -2.1271217 303.89999
-10.557562 -15.711309 -2.2135999 303.89999
-11.459863 -17.054075 -1.9169179 303.89999
-11.541681 -17.175833 -1.4470283 303.89999
-2.5904276 -3.8549631 -2.0678492 303.89999
-16.629503 -24.747313 -1.3904221 303.89999
-2.7533975 -4.0974879 -2.0620127 303.89999
-22.223501 -33.072056 -0.92508942 303.89999
-2.9509876 -4.3915329 -2.0660377 303.89999
-3.1540878 -4.6937776 -2.0582771 303.89999
-3.4081507 -5.0718632 -2.0647545 303.89999
-3.6758709 -5.470273 -2.0565271 303.89999
-4.0017414 -5.9552197 -2.0573573 303.89999
-4.3736968 -6.5087476 -2.0528562 303.89999
-4.8443055 -7.2090869 -2.057972 303.89999
-5.3911948 -8.0229445 -2.0545833 303.89999
-6.1025634 -9.0815725 -2.0614834 303.89999
-7.1089358 -10.511705 -2.0848699 304.07001
-8.4899473 -12.553753 -2.1299052 304.07001
-10.616372 -15.698015 -2.2161553 304.07001
-11.504835 -17.011749 -1.915989 304.07001
-11.61271 -17.171261 -1.4495395 304.07001
-2.6008306 -3.8457468 -2.0670357 304.07001
-16.834921 -24.893141 -1.4014158 304.07001
-2.7634752 -4.0862427 -2.0604711 304.07001
-22.319288 -33.002663 -0.92499655 304.07001
-2.9650483 -4.3843012 -2.0667651 304.07001
-3.171159 -4.6890693 -2.0603294 304.07001
-3.4231842 -5.061729 -2.0647545 304.07001
-3.6813898 -5.4435272 -2.0505698 304.07001
-4.0204706 -5.9449124 -2.0579085 304.07001
-4.3951573 -6.4989471 -2.0538692 304.07001
-4.8667641 -7.1962938 -2.0584331 304.07001
-5.4193592 -8.0133944 -2.0562465 304.07001
-6.1338863 -9.0699387 -2.0629647 304.07001
-7.1441455 -10.492583 -2.0855184 304.25
-8.5304585 -12.528656 -2.1301835 304.25
-10.673463 -15.67608 -2.2177815 304.25
-11.469684 -16.845486 -1.9013121 304.25
-11.548697 -16.961533 -1.4348906 304.25
-2.6128995 -3.8375571 -2.0670357 304.25
-16.837709 -24.729488 -1.3951737 304.25
-2.7794147 -4.0821171 -2.0627837 304.25
-16.839088 -24.731514 -0.69465268 304.25
-2.9777586 -4.3734245 -2.0660377 304.25
-16.848127 -24.744791 0 304.25
-3.1827013 -4.6744232 -2.0582771 304.25
-3.4401355 -5.052516 -2.0653949 304.25
-3.7016964 -5.4366693 -2.052357 304.25
-4.036963 -5.9290743 -2.0568058 304.25
-4.4177303 -6.488306 -2.0548823 304.25
-4.8926334 -7.1857948 -2.0598164 304.25
-5.4456081 -7.9979467 -2.0566626 304.25
-6.1612439 -9.0489988 -2.0625944 304.25
-7.170784 -10.464828 -2.0842214 304.42001
-8.5731916 -12.511459 -2.1315751 304.42001
-10.722174 -15.647619 -2.218246 304.42001
-11.531996 -16.829451 -1.9033557 304.42001
-11.650848 -17.002899 -1.4413083 304.42001
-2.6294382 -3.8373234 -2.0711031 304.42001
-17.233984 -25.150761 -1.4218193 304.42001
-2.7904711 -4.0723305 -2.0620127 304.42001
-2.9928279 -4.3676438 -2.0674925 304.42001
-3.194432 -4.6618586 -2.0569091 304.42001
-3.4518983 -5.0375977 -2.0634742 304.42001
-3.7296822 -5.4429865 -2.0589101 304.42001
-4.0545373 -5.9170704 -2.0568058 304.42001
-4.4358683 -6.4735737 -2.0543756 304.42001
-4.9161329 -7.1744576 -2.0607386 304.42001
-5.4704204 -7.9833679 -2.0570784 304.42001
-6.1936207 -9.038785 -2.064446 304.42001
-7.2074037 -10.451629 -2.0858426 304.59
-8.6170225 -12.49575 -2.1332452 304.59
-10.780958 -15.633726 -2.2208014 304.59
-11.544573 -16.741062 -1.8972249 304.59
-11.88813 -17.239262 -1.4643279 304.59
-2.6356258 -3.8219843 -2.0670357 304.59
-16.716496 -24.24099 -1.3731862 304.59
-2.7993987 -4.0594749 -2.0597003 304.59
-24.340961 -35.297409 -0.99546456 304.59
-3.0047162 -4.3572111 -2.0667651 304.59
-3.2103837 -4.6554542 -2.0582771 304.59
-3.46683 -5.0273333 -2.0634742 304.59
-3.7317252 -5.4114642 -2.0511656 304.59
-4.0731668 -5.9065971 -2.0573573 304.59
-4.4605484 -6.4683475 -2.0569084 304.59
-4.9340839 -7.1550331 -2.0593553 304.59
-5.4940834 -7.9671021 -2.0570784 304.59
-6.219296 -9.0187502 -2.0640755 304.59
-7.2478113 -10.447677 -2.0890849 304.75
-8.6563988 -12.478148 -2.1343586 304.75
-10.864203 -15.660685 -2.2289319 304.75
-11.385831 -16.412607 -1.863598 304.75
-11.840699 -17.068296 -1.4526088 304.75
-2.6452472 -3.813108 -2.0662222 304.75
-16.813732 -24.236895 -1.3756086 304.75
-2.8117759 -4.0531583 -2.0604711 304.75
-3.0158103 -4.3472724 -2.0660377 304.75
-3.224443 -4.6480155 -2.0589612 304.75
-3.4797754 -5.0160756 -2.0628338 304.75
-3.7577047 -5.4167089 -2.0571229 304.75
-4.0874538 -5.8920403 -2.0562546 304.75
-4.4719768 -6.4463282 -2.0538692 304.75
-4.9540453 -7.1412268 -2.0593553 304.75
-5.5163102 -7.9517283 -2.0570784 304.75
-6.2444568 -9.0013475 -2.0640755 304.75
-7.273375 -10.410643 -2.0864911 304.94
-8.6954622 -12.446126 -2.1338019 304.94
-10.912663 -15.619686 -2.228235 304.94
-11.401419 -16.319258 -1.8572813 304.94
-11.908661 -17.045294 -1.4540039 304.94
-2.6620631 -3.8103063 -2.0694761 304.94
-16.926048 -24.22686 -1.3782172 304.94
-2.8262582 -4.0453243 -2.0612419 304.94
-3.0302098 -4.3372478 -2.0660377 304.94
-3.2398386 -4.6372972 -2.0589612 304.94
-3.500731 -5.0107217 -2.0653949 304.94
-3.7767401 -5.4057832 -2.0577188 304.94
-4.1069698 -5.8784533 -2.0562546 304.94
-4.4900045 -6.4267049 -2.0523498 304.94
-4.9832721 -7.1327357 -2.061661 304.94
-5.5437694 -7.9349957 -2.0574942 304.94
-6.2799001 -8.9886465 -2.065927 304.94
-7.3171711 -10.411281 -2.0907061 305.10001
-8.7381554 -12.433138 -2.1357503 305.10001
-10.943675 -15.571274 -2.2256796 305.10001
-11.433206 -16.267805 -1.855052 305.10001
-11.474386 -16.326399 -1.3954085 305.10001
-2.6737435 -3.8043523 -2.0702896 305.10001
-16.982149 -24.163155 -1.3772856 305.10001
-2.8375437 -4.0374165 -2.0612419 305.10001
-24.152912 -34.366119 -0.97522473 305.10001
-3.0423098 -4.3287687 -2.0660377 305.10001
-3.2538564 -4.6297693 -2.0596454 305.10001
-3.5125308 -4.9978256 -2.0641143 305.10001
-3.7874298 -5.3889675 -2.0553358 305.10001
-4.1211586 -5.8638158 -2.0551522 305.10001
-4.5134964 -6.4220562 -2.0548823 305.10001
-5.0020518 -7.1171999 -2.0611999 305.10001
-5.5681562 -7.9226847 -2.0583258 305.10001
-6.3027167 -8.9678583 -2.0651865 305.10001
-7.3441434 -10.380187 -2.0890849 305.28
-8.7840357 -12.415326 -2.1374204 305.28
-10.96615 -15.499519 -2.2203367 305.28
-11.477355 -16.222054 -1.8539373 305.28
-2.6846268 -3.7944422 -2.0694761 305.28
-17.204521 -24.316809 -1.3891178 305.28
-2.8502138 -4.028482 -2.0612419 305.28
-24.056351 -34.001163 -0.96700811 305.28
-3.0526659 -4.3146272 -2.0638552 305.28
-3.2672997 -4.61799 -2.0589612 305.28
-3.5271204 -4.9852195 -2.0634742 305.28
-3.7955194 -5.364574 -2.0505698 305.28
-4.1395602 -5.8508401 -2.0551522 305.28
-4.5336499 -6.407845 -2.0548823 305.28
-5.0255103 -7.1030388 -2.061661 305.28
-5.5941482 -7.9067497 -2.0587416 305.28
-6.3297234 -8.9464092 -2.0648162 305.28
-7.3858767 -10.369924 -2.0916789 305.45999
-8.8321886 -12.400574 -2.1396472 305.45999
-11.009027 -15.456902 -2.2191753 305.45999
-11.464723 -16.096706 -1.8437191 305.45999
-11.797812 -16.564371 -1.4220555 305.45999
-2.6965342 -3.7859895 -2.0694761 305.45999
-17.12784 -24.04784 -1.3768197 305.45999
-2.8617847 -4.0180049 -2.0604711 305.45999
-24.19669 -33.972649 -0.96835434 305.45999
-3.0705287 -4.3110857 -2.0667651 305.45999
-3.2817914 -4.6077027 -2.0589612 305.45999
-3.5416651 -4.9725709 -2.0628338 305.45999
-3.8156767 -5.3572888 -2.052357 305.45999
-4.1590362 -5.8393722 -2.0557034 305.45999
-4.5503907 -6.3888426 -2.0533628 305.45999
-5.0478005 -7.0872159 -2.061661 305.45999
-5.6189604 -7.8891363 -2.0587416 305.45999
-6.3612189 -8.931282 -2.065927 305.45999
-7.409059 -10.341236 -2.0900576 305.62
-8.8748569 -12.387132 -2.1415956 305.62
-11.050991 -15.424483 -2.2189429 305.62
-11.474834 -16.016066 -1.8381456 305.62
-12.893287 -17.995878 -1.5480356 305.62
-2.704968 -3.7754741 -2.0678492 305.62
-18.862293 -26.327152 -1.5103278 305.62
-2.8719192 -4.0084972 -2.0597003 305.62
-24.392775 -34.046352 -0.97239304 305.62
-3.0825555 -4.3024945 -2.0667651 305.62
-3.291362 -4.5939369 -2.0569091 305.62
-3.5566409 -4.9642015 -2.0634742 305.62
-3.8384056 -5.3574762 -2.0565271 305.62
-4.1708474 -5.8214841 -2.0534983 305.62
-4.5738482 -6.3839746 -2.0558953 305.62
-5.0664387 -7.0715103 -2.0611999 305.62
-5.6432481 -7.876595 -2.0595732 305.62
-6.3884244 -8.9166794 -2.0666678 305.62
-7.4507461 -10.330714 -2.0926516 305.79999
-8.9114113 -12.355976 -2.1410389 305.79999
-11.117987 -15.415468 -2.2226598 305.79999
-11.527424 -15.983167 -1.8385172 305.79999
-13.571805 -18.817772 -1.6223961 305.79999
-2.7189531 -3.7699213 -2.0694761 305.79999
-20.618408 -28.588129 -1.6437428 305.79999
-2.8877366 -4.0039458 -2.0620127 305.79999
-24.354584 -33.768463 -0.96663672 305.79999
-3.0938776 -4.2897668 -2.06531 305.79999
-3.305778 -4.5835743 -2.0569091 305.79999
-3.5711105 -4.9514666 -2.0628338 305.79999
-3.8474002 -5.3345518 -2.052357 305.79999
-4.1924896 -5.8130302 -2.0551522 305.79999
-4.5938816 -6.3695741 -2.0558953 305.79999
-5.0909061 -7.0587153 -2.0621221 305.79999
-5.6713982 -7.8635874 -2.0608206 305.79999
-6.4152555 -8.8949709 -2.0662973 305.79999
-7.4744101 -10.298979 -2.0907061 305.97
-8.9550123 -12.339099 -2.142709 305.97
-11.139174 -15.348651 -2.2177815 305.97
-11.551403 -15.916661 -1.8348016 305.97
-13.605313 -18.74674 -1.6197454 305.97
-2.7269073 -3.7574015 -2.0670357 305.97
-16.984484 -23.402897 -1.348497 305.97
-2.89852 -3.9938662 -2.0612419 305.97
-24.660191 -33.97924 -0.97476053 305.97
-3.1065919 -4.2805681 -2.06531 305.97
-3.3215709 -4.5767875 -2.0582771 305.97
-3.5868988 -4.9423828 -2.0634742 305.97
-3.8710608 -5.3339291 -2.0565271 305.97
-4.2085896 -5.7990093 -2.054601 305.97
-4.6116238 -6.3543496 -2.0553887 305.97
-5.1095409 -7.0404291 -2.0611999 305.97
-5.6912575 -7.8419757 -2.0595732 305.97
-6.4439278 -8.8790789 -2.0670381 305.97
-7.5072627 -10.279943 -2.0913546 306.14001
-8.9985924 -12.322071 -2.1443791 306.14001
-11.154205 -15.273823 -2.2117417 306.14001
-11.521066 -15.776178 -1.8225398 306.14001
-13.740888 -18.815853 -1.6292322 306.14001
-2.7369661 -3.7478185 -2.0662222 306.14001
-18.39822 -25.193293 -1.4548004 306.14001
-2.9092689 -3.9837582 -2.0604711 306.14001
-24.426008 -33.447342 -0.96157682 306.14001
-3.11818 -4.2698274 -2.0645826 306.14001
-3.3329191 -4.5638766 -2.0569091 306.14001
-3.60043 -4.9301882 -2.0628338 306.14001
-3.883492 -5.3177943 -2.05474 306.14001
-4.2257767 -5.7864966 -2.054601 306.14001
-4.6350217 -6.3468885 -2.0574148 306.14001
-5.1304078 -7.025238 -2.0611999 306.14001
-5.7191153 -7.8313742 -2.0612366 306.14001
-6.467926 -8.8567457 -2.0662973 306.14001
-7.5523791 -10.2738 -2.0949214 306.32001
-9.0384321 -12.295337 -2.1446574 306.32001
-11.156248 -15.176285 -2.2026818 306.32001
-11.304011 -15.377295 -1.7805526 306.32001
-15.25579 -20.753054 -1.8011122 306.32001
-2.7498088 -3.7406735 -2.0670357 306.32001
-16.957914 -23.068521 -1.3351742 306.32001
-2.9206767 -3.9731119 -2.0597003 306.32001
-24.55228 -33.399441 -0.96241236 306.32001
-3.1304753 -4.2585092 -2.0638552 306.32001
-3.3483536 -4.5548978 -2.0575931 306.32001
-3.6147785 -4.9173265 -2.0621936 306.32001
-3.90131 -5.307106 -2.0553358 306.32001
-4.2450733 -5.7747412 -2.0551522 306.32001
-4.6572299 -6.3354139 -2.0584278 306.32001
-5.1501479 -7.0059495 -2.0602775 306.32001
-5.7425313 -7.8117924 -2.0608206 306.32001
-6.5038671 -8.8474674 -2.0688896 306.32001
-7.5739994 -10.243149 -2.0929759 306.48001
-9.0797968 -12.279603 -2.1463275 306.48001
-11.152524 -15.082779 -2.1936221 306.48001
-11.005934 -14.884529 -1.7270468 306.48001
-12.874882 -17.412113 -1.5142735 306.48001
-2.7613304 -3.7344491 -2.0678492 306.48001
-16.958126 -22.934332 -1.3301432 306.48001
-2.9383435 -3.9738438 -2.0643253 306.48001
-3.1423552 -4.2497506 -2.0638552 306.48001
-3.3610601 -4.5455298 -2.0575931 306.48001
-3.6307492 -4.9102597 -2.0634742 306.48001
-3.916115 -5.2961907 -2.0553358 306.48001
-4.2623262 -5.76441 -2.0557034 306.48001
-4.6680017 -6.3130493 -2.0553887 306.48001
-5.1766343 -7.0009294 -2.0630443 306.48001
-5.7631602 -7.7941527 -2.0604048 306.48001
-6.5262117 -8.8261099 -2.0681489 306.48001
-7.6067138 -10.223798 -2.0936244 306.64999
-9.1232843 -12.262143 -2.1479976 306.64999
-11.145052 -14.979498 -2.1834009 306.64999
-11.103539 -14.923702 -1.7354071 306.64999
-15.180942 -20.403933 -1.7783716 306.64999
-2.773489 -3.7277057 -2.0686626 306.64999
-16.997478 -22.845446 -1.3279072 306.64999
-2.9534261 -3.9695499 -2.0666378 306.64999
-25.010397 -33.615204 -0.97276437 306.64999
-3.1527264 -4.2374191 -2.0624001 306.64999
-3.3745322 -4.5355372 -2.0575931 306.64999
-3.6430402 -4.8964252 -2.0621936 306.64999
-3.9352307 -5.2891436 -2.0571229 306.64999
-4.2736726 -5.7440262 -2.052947 306.64999
-4.690177 -6.3038282 -2.0569084 306.64999
-5.1950603 -6.9824162 -2.0621221 306.64999
-5.7909317 -7.7832971 -2.0620682 306.64999
-6.5547166 -8.8098612 -2.0688896 306.64999
-7.6435275 -10.206168 -2.0949214 306.82999
-9.1617622 -12.23342 -2.1479976 306.82999
-11.156334 -14.896711 -2.1764319 306.82999
-11.212441 -14.97163 -1.7450678 306.82999
-15.248555 -20.360929 -1.7787901 306.82999
-2.7862816 -3.7204366 -2.0694761 306.82999
-18.791292 -25.091436 -1.461881 306.82999
-2.9636698 -3.9572976 -2.0650961 306.82999
-21.142643 -28.231125 -0.8188768 306.82999
-3.1727235 -4.2364407 -2.0667651 306.82999
-3.3887644 -4.5249133 -2.0575931 306.82999
-3.6595407 -4.8864727 -2.0628338 306.82999
-3.9472499 -5.2706418 -2.05474 306.82999
-4.2928491 -5.7321105 -2.0534983 306.82999
-4.7076383 -6.2859654 -2.0558953 306.82999
-5.2216368 -6.9722919 -2.0639665 306.82999
-5.8153548 -7.7650657 -2.0620682 306.82999
-6.5847178 -8.7923717 -2.0696301 306.82999
-7.6820903 -10.194478 -2.0971911 307
-9.2111301 -12.223582 -2.1510594 307
-11.156251 -14.804845 -2.1678367 307
-11.419799 -15.154586 -1.7703345 307
-2.7951088 -3.7092347 -2.0678492 307
-17.024899 -22.592804 -1.3192426 307
-2.973177 -3.945539 -2.0635545 307
-21.192621 -28.123558 -0.817577 307
-3.1807947 -4.2210569 -2.0638552 307
-3.4010441 -4.5133381 -2.0569091 307
-3.6717424 -4.8725667 -2.0615535 307
-3.9628706 -5.2589068 -2.05474 307
-4.3121519 -5.7224188 -2.054601 307
-4.7344189 -6.2827864 -2.0594409 307
-5.236445 -6.948997 -2.061661 307
-5.8383689 -7.747777 -2.0620682 307
-6.611959 -8.7743654 -2.0700004 307
-7.7164645 -10.173438 -2.0978394 307.17999
-9.2518797 -12.197741 -2.1516161 307.17999
-11.161891 -14.715912 -2.1599383 307.17999
-11.249534 -14.831461 -1.7367076 307.17999
-13.140902 -17.325052 -1.5205516 307.17999
-2.8034356 -3.6960683 -2.0654087 307.17999
-17.098207 -22.542391 -1.3194289 307.17999
-2.987788 -3.9391198 -2.0650961 307.17999
-3.1962914 -4.2140121 -2.06531 307.17999
-3.4220209 -4.5116153 -2.0610135 307.17999
-3.689322 -4.8640265 -2.0628338 307.17999
-3.9701424 -5.234262 -2.049974 307.17999
-4.3301082 -5.7088437 -2.054601 307.17999
-4.7447796 -6.2555494 -2.0553887 307.17999
-5.2582502 -6.9325123 -2.061661 307.17999
-5.8650446 -7.7325144 -2.0628998 307.17999
-6.6394916 -8.7535505 -2.0700004 307.17999
-7.7478127 -10.152067 -2.0981636 307.35001
-9.2928362 -12.176534 -2.1527295 307.35001
-11.163324 -14.62746 -2.1518078 307.35001
-11.196841 -14.671377 -1.7218449 307.35001
-13.183775 -17.274885 -1.519575 307.35001
-2.8132811 -3.6862817 -2.0645952 307.35001
-2.9994624 -3.9302375 -2.0650961 307.35001
-3.2087805 -4.2045102 -2.06531 307.35001
-3.4262705 -4.48949 -2.055541 307.35001
-3.7037375 -4.8530588 -2.0628338 307.35001
-3.98913 -5.2270126 -2.0517612 307.35001
-4.3470273 -5.695971 -2.054601 307.35001
-4.764493 -6.2429819 -2.0558953 307.35001
-5.2835188 -6.9230685 -2.0635054 307.35001
-5.886775 -7.7135234 -2.062484 307.35001
-6.6630502 -8.7306871 -2.0692599 307.35001
-7.774931 -10.128826 -2.0978394 307.51001
-9.3328333 -12.158391 -2.1541212 307.51001
-11.164213 -14.54423 -2.1441419 307.51001
-11.143189 -14.516841 -1.7073537 307.51001
-13.162719 -17.147791 -1.5116228 307.51001
-2.8257892 -3.6813097 -2.0662222 307.51001
-18.658335 -24.30723 -1.4289932 307.51001
-3.0093024 -3.9203823 -2.0643253 307.51001
-3.2182405 -4.1925774 -2.0638552 307.51001
-3.4422271 -4.4843769 -2.0575931 307.51001
-3.714968 -4.8396912 -2.0615535 307.51001
-4.013011 -5.2279682 -2.0565271 307.51001
-4.3605752 -5.6807594 -2.0534983 307.51001
-4.7819085 -6.2296524 -2.0558953 307.51001
-5.3040161 -6.9098306 -2.0639665 307.51001
-5.9106746 -7.7001581 -2.0633156 307.51001
-6.6921916 -8.7182827 -2.0707409 307.51001
-7.8181314 -10.11548 -2.1004333 307.70001
-9.3803673 -12.136778 -2.1557913 307.70001
-11.168651 -14.450544 -2.1357791 307.70001
-11.181526 -14.467204 -1.7058675 307.70001
-13.390321 -17.32505 -1.5311546 307.70001
-2.8402159 -3.6748102 -2.0678492 307.70001
-16.922131 -21.89468 -1.290454 307.70001
-3.0211577 -3.9089212 -2.0635545 307.70001
-3.2332652 -4.1833563 -2.0645826 307.70001
-3.4570789 -4.4729376 -2.0575931 307.70001
-3.7298377 -4.8258462 -2.0609131 307.70001
-4.026823 -5.2101002 -2.05474 307.70001
-4.3829165 -5.6708312 -2.0551522 307.70001
-4.8060899 -6.2183537 -2.0574148 307.70001
-5.3269005 -6.8922038 -2.0639665 307.70001
-5.9349804 -7.678967 -2.0628998 307.70001
-6.7210655 -8.696043 -2.0707409 307.70001
-7.8590136 -10.10626 -2.1033516 307.87
-9.4211998 -12.115146 -2.1569047 307.87
-11.178552 -14.375004 -2.1295068 307.87
-11.246406 -14.46226 -1.7092116 307.87
-13.29837 -17.100973 -1.5148315 307.87
-2.8499854 -3.6649246 -2.0670357 307.87
-16.977209 -21.831758 -1.2897087 307.87
-3.0350082 -3.9028537 -2.0650961 307.87
-29.721809 -38.220615 -1.1240988 307.87
-3.2468069 -4.1752152 -2.06531 307.87
-3.4726427 -4.4656277 -2.0589612 307.87
-3.7464662 -4.81775 -2.0621936 307.87
-4.0434361 -5.1996365 -2.0553358 307.87
-4.3997231 -5.6578021 -2.0551522 307.87
-4.8221436 -6.2010117 -2.0564017 307.87
-5.3485212 -6.8779049 -2.0644276 307.87
-5.9625416 -7.6675014 -2.064563 307.87
-6.7480445 -8.6776142 -2.0711114 307.87
-7.8938293 -10.089115 -2.1046486 308.04001
-9.4717503 -12.105857 -2.1602449 308.04001
-11.180759 -14.290145 -2.121841 308.04001
-11.383753 -14.54959 -1.7235169 308.04001
-2.8563433 -3.6506965 -2.0637817 308.04001
-16.986511 -21.710484 -1.2855163 308.04001
-3.0465748 -3.8938315 -2.0650961 308.04001
-29.867115 -38.173203 -1.1253058 308.04001
-3.2603288 -4.1670308 -2.0660377 308.04001
-3.484719 -4.4538245 -2.0582771 308.04001
-3.7619119 -4.808105 -2.0628338 308.04001
-4.0459046 -5.1710763 -2.0487826 308.04001
-4.4141212 -5.6416945 -2.0540495 308.04001
-4.8440976 -6.1912479 -2.0579212 308.04001
-5.3653073 -6.8574071 -2.0630443 308.04001
-5.9840598 -7.6482353 -2.0641472 308.04001
-6.7737617 -8.6575546 -2.0711114 308.04001
-7.9188466 -10.059446 -2.1033516 308.20999
-9.5076275 -12.077701 -2.1602449 308.20999
-11.182562 -14.2054 -2.1141751 308.20999
-11.414555 -14.500103 -1.7216591 308.20999
-15.235922 -19.354452 -1.7224269 308.20999
-2.8750734 -3.6522548 -2.0694761 308.20999
-16.943342 -21.523417 -1.2774107 308.20999
-3.056973 -3.8833249 -2.0643253 308.20999
-29.873884 -37.949306 -1.1213135 308.20999
-3.2692211 -4.1529474 -2.0638552 308.20999
-3.4967561 -4.4419889 -2.0575931 308.20999
-3.7761612 -4.7969217 -2.0628338 308.20999
-4.0754008 -5.1770511 -2.0559316 308.20999
-4.4296517 -5.6270623 -2.0534983 308.20999
-4.8612494 -6.1753278 -2.0574148 308.20999
-5.3880377 -6.8445158 -2.0639665 308.20999
-6.0091462 -7.6335211 -2.0649788 308.20999
-6.8006349 -8.6389627 -2.0714817 308.20999
-7.9565382 -10.042253 -2.1049728 308.39001
-9.5467529 -12.049324 -2.1605232 308.39001
-11.183958 -14.115704 -2.1060445 308.39001
-11.385853 -14.370522 -1.710512 308.39001
-11.43222 -14.429045 -1.2872859 308.39001
-2.884264 -3.6403403 -2.0678492 308.39001
-17.051819 -21.521755 -1.2804853 308.39001
-3.0691578 -3.873702 -2.0643253 308.39001
-16.900606 -21.330906 -0.63184422 308.39001
-3.2845657 -4.1455765 -2.06531 308.39001
-16.867901 -21.289625 0 308.39001
-3.5118608 -4.4324546 -2.0582771 308.39001
-3.7923892 -4.78652 -2.0634742 308.39001
-4.0916448 -5.1642222 -2.0559316 308.39001
-4.4508896 -5.6176391 -2.0551522 308.39001
-4.8806257 -6.1600256 -2.0574148 308.39001
-5.4119306 -6.830606 -2.0648887 308.39001
-6.0330982 -7.6146054 -2.0649788 308.39001
-6.8314033 -8.6221762 -2.0725925 308.39001
-7.9875293 -10.020144 -2.1052971 308.56
-9.5738201 -12.010105 -2.1585748 308.56
-11.189882 -14.037412 -2.0993078 308.56
-11.252179 -14.115561 -1.6841308 308.56
-11.664014 -14.632197 -1.3084919 308.56
-2.8950522 -3.6317666 -2.0678492 308.56
-16.999786 -21.325781 -1.2718207 308.56
-3.0840888 -3.8689079 -2.0666378 308.56
-29.954338 -37.576927 -1.1156964 308.56
-3.294529 -4.1328993 -2.0638552 308.56
-3.5238252 -4.4205456 -2.0575931 308.56
-3.8018501 -4.7693205 -2.0609131 308.56
-4.0914783 -5.1326513 -2.0481868 308.56
-4.4759264 -5.6149316 -2.059011 308.56
-4.8964691 -6.1424913 -2.0564017 308.56
-5.4321737 -6.8145185 -2.0648887 308.56
-6.0568838 -7.5982008 -2.0653946 308.56
-6.8569555 -8.6018696 -2.0725925 308.56
-8.0125008 -9.9976587 -2.1049728 308.70999
-9.607707 -11.988091 -2.1591315 308.70999
-11.194294 -13.967767 -2.0932679 308.70999
-11.320229 -14.124902 -1.6887754 308.70999
-11.612446 -14.489518 -1.298447 308.70999
-2.9022651 -3.6213236 -2.0662222 308.70999
-16.951859 -21.151812 -1.2640879 308.70999
-3.094207 -3.8608205 -2.0666378 308.70999
-30.200163 -37.682484 -1.1211742 308.70999
-3.3053374 -4.1242604 -2.0638552 308.70999
-3.5342107 -4.4098387 -2.0569091 308.70999
-3.8143229 -4.7593508 -2.0609131 308.70999
-4.1072898 -5.1249022 -2.0493782 308.70999
-4.4858017 -5.5971937 -2.0568058 308.70999
-4.9149537 -6.1326709 -2.0574148 308.70999
-5.4499955 -6.8002734 -2.0648887 308.70999
-6.076755 -7.5823178 -2.0653946 308.70999
-6.8794518 -8.5838881 -2.0725925 308.70999
-8.0493279 -9.9756413 -2.1059456 308.89999
-9.6610889 -11.973119 -2.1621933 308.89999
-11.205624 -13.887281 -2.0867634 308.89999
-11.45204 -14.192669 -1.7014086 308.89999
-11.807016 -14.632596 -1.31477 308.89999
-2.9165525 -3.6145232 -2.0678492 308.89999
-16.911505 -20.958658 -1.2558892 308.89999
-3.105834 -3.8491023 -2.0658669 308.89999
-30.160473 -37.378284 -1.115093 308.89999
-3.3201656 -4.1147265 -2.0645826 308.89999
-3.5511751 -4.4010196 -2.0582771 308.89999
-3.8312745 -4.7481503 -2.0615535 308.89999
-4.1326542 -5.1216545 -2.0535486 308.89999
-4.5019236 -5.5792952 -2.0557034 308.89999
-4.9352632 -6.1163387 -2.0574148 308.89999
-5.4737382 -6.7836781 -2.0653498 308.89999
-6.1030941 -7.5636477 -2.0658104 308.89999
-6.9115815 -8.5656166 -2.0737035 308.89999
-8.0888414 -9.9639721 -2.1085393 309.07001
-9.7065573 -11.956702 -2.1644201 309.07001
-11.233006 -13.837008 -2.084208 309.07001
-11.584466 -14.269942 -1.7147851 309.07001
-11.890619 -14.647066 -1.3192345 309.07001
-2.9272642 -3.6058536 -2.0678492 309.07001
-17.007614 -20.950268 -1.2584047 309.07001
-3.1137514 -3.8355718 -2.0635545 309.07001
-3.333534 -4.1063037 -2.06531 309.07001
-3.565402 -4.391923 -2.0589612 309.07001
-3.8429573 -4.73382 -2.0602729 309.07001
-4.1514421 -5.1138167 -2.0553358 309.07001
-4.5184579 -5.5659127 -2.0557034 309.07001
-4.9521694 -6.1001663 -2.0569084 309.07001
-5.4926147 -6.7658963 -2.0648887 309.07001
-6.1255093 -7.545506 -2.0658104 309.07001
-6.9382048 -8.5465984 -2.0740738 309.07001
-8.1238499 -9.9430962 -2.1095121 309.25
-9.7528448 -11.936885 -2.1663685 309.25
-11.290246 -13.818571 -2.0867634 309.25
-11.18574 -13.690663 -1.6493891 309.25
-11.920165 -14.589553 -1.3174207 309.25
-2.9339538 -3.5909801 -2.0645952 309.25
-18.683729 -22.867743 -1.3770993 309.25
-3.1269534 -3.8271999 -2.0643253 309.25
-30.569145 -37.414764 -1.1217313 309.25
-3.3452392 -4.094368 -2.0645826 309.25
-3.5768039 -4.3777895 -2.0575931 309.25
-3.8602076 -4.724658 -2.0615535 309.25
-4.1699033 -5.1037064 -2.0565271 309.25
-4.5383539 -5.5546679 -2.0568058 309.25
-4.9725332 -6.0860767 -2.0574148 309.25
-5.5175376 -6.7531285 -2.066272 309.25
-6.151659 -7.5292549 -2.0666423 309.25
-6.9650202 -8.5247593 -2.0740738 309.25
-8.1508102 -9.9158993 -2.1088636 309.42001
-9.7982798 -11.920135 -2.1685953 309.42001
-11.276957 -13.719026 -2.0767746 309.42001
-11.292067 -13.737408 -1.65905 309.42001
-11.779699 -14.330639 -1.2971914 309.42001
-2.948076 -3.5864935 -2.0670357 309.42001
-11.271704 -13.712635 -0.82778752 309.42001
-3.1371233 -3.8164794 -2.0635545 309.42001
-30.757471 -37.418121 -1.124563 309.42001
-3.3550065 -4.0815463 -2.0631278 309.42001
-3.5897772 -4.3671575 -2.0575931 309.42001
-3.8766153 -4.7161112 -2.0628338 309.42001
-4.1704798 -5.0736132 -2.0493782 309.42001
-4.5609193 -5.548604 -2.0595622 309.42001
-4.9917979 -6.0727911 -2.0579212 309.42001
-5.5400214 -6.7397346 -2.0671942 309.42001
-6.1739717 -7.5109692 -2.0666423 309.42001
-6.990283 -8.504056 -2.0740738 309.42001
-8.1839685 -9.8962345 -2.1098363 309.59
-9.8399153 -11.898643 -2.169987 309.59
-11.307485 -13.673259 -2.0749161 309.59
-11.264247 -13.620975 -1.6490176 309.59
-11.879383 -14.364812 -1.3034694 309.59
-2.9598689 -3.5791385 -2.0678492 309.59
-16.985699 -20.53948 -1.242939 309.59
-3.1519616 -3.8114212 -2.0658669 309.59
-31.203482 -37.731937 -1.1367719 309.59
-3.3659146 -4.070138 -2.0624001 309.59
-3.5967305 -4.3492455 -2.054173 309.59
-3.8845537 -4.6972876 -2.0596328 309.59
-4.1952486 -5.0729871 -2.0541441 309.59
-4.5749116 -5.532084 -2.0584598 309.59
-5.0097942 -6.0579534 -2.0579212 309.59
-5.5624747 -6.7262669 -2.0681167 309.59
-6.1987238 -7.4956331 -2.0674739 309.59
-7.0179892 -8.4863071 -2.0748143 309.59
-8.21628 -9.8719921 -2.1101606 309.76999
-9.8810482 -11.872237 -2.1708221 309.76999
-11.358009 -13.646829 -2.0763099 309.76999
-11.70953 -14.069187 -1.7077253 309.76999
-2.9734361 -3.5726309 -2.0694761 309.76999
-11.797456 -14.174831 -0.8600232 309.76999
-3.1603782 -3.7972448 -2.0635545 309.76999
-3.3798766 -4.0609756 -2.0631278 309.76999
-3.6139832 -4.3422585 -2.0562251 309.76999
-3.8956552 -4.6806917 -2.0577121 309.76999
-4.2026157 -5.04951 -2.049974 309.76999
-4.5910387 -5.5162063 -2.0579085 309.76999
-5.0275631 -6.0406976 -2.0574148 309.76999
-5.5810885 -6.7057672 -2.0671942 309.76999
-6.2234926 -7.4776258 -2.0678897 309.76999
-7.0446153 -8.4642172 -2.0748143 309.76999
-8.2526827 -9.8596029 -2.1124303 309.92999
-9.9179773 -11.849154 -2.1716571 309.92999
-11.388424 -13.605919 -2.0749161 309.92999
-11.528931 -13.773785 -1.6757705 309.92999
-11.813309 -14.113535 -1.287007 309.92999
-2.9834011 -3.5643134 -2.0694761 309.92999
-16.953405 -20.254486 -1.231759 309.92999
-3.1721542 -3.7898197 -2.0643253 309.92999
-21.800379 -26.045237 -0.78856355 309.92999
-3.3912036 -4.0515213 -2.0631278 309.92999
-3.6236823 -4.329267 -2.054857 309.92999
-3.9147916 -4.6770597 -2.0609131 309.92999
-4.2265038 -5.0494666 -2.05474 309.92999
-4.6076589 -5.5048385 -2.0584598 309.92999
-5.0481381 -6.0310855 -2.0589342 309.92999
-5.6010423 -6.691648 -2.0676556 309.92999
-6.2418385 -7.4572172 -2.0670581 309.92999
-7.0694857 -8.4460192 -2.0751846 309.92999
-8.2827892 -9.8291636 -2.1117818 310.12
-9.9648733 -11.825287 -2.1733272 310.12
