# .PCD v0.7 - Point Cloud Data file format
VERSION 0.7
FIELDS x y z intensity
SIZE 4 4 4 4
TYPE F F F F
COUNT 1 1 1 1
WIDTH 1221
HEIGHT 1
VIEWPOINT 0 0 0 1 0 0 0
POINTS 1221
DATA ascii
47.105907 -28.866537 1.2826749 211.5
5.0825047 -3.114563 -2.0141761 211.5
37.719028 -23.114252 2.0629935 211.5
5.4728956 -3.3537948 -2.0029099 211.5
46.733345 -28.638229 3.8326998 211.5
5.6438365 -3.4585476 -1.8980389 211.5
45.257713 -27.733961 4.9520693 211.5
5.9999189 -3.6767552 -1.842151 211.5
6.5875683 -4.0368671 -1.8306406 211.5
7.2608728 -4.4494686 -1.8100792 211.5
8.0337648 -4.9230976 -1.7752383 211.5
8.9062471 -5.4963164 -1.7194502 211.67999
10.173227 -6.2782087 -1.6800977 211.67999
12.081783 -7.456037 -1.6602581 211.67999
14.278952 -8.8119764 -1.5654149 211.67999
17.788301 -10.977703 -1.4616772 211.67999
3.8964398 -2.4046118 -2.038564 211.67999
21.307871 -13.149736 -1.1676601 211.67999
4.1303973 -2.5489941 -2.0273247 211.67999
27.661779 -17.070929 -0.75467575 211.67999
4.4280343 -2.7326748 -2.031846 211.67999
4.7068768 -2.904757 -2.0131307 211.67999
60.120174 -37.101994 1.640214 211.67999
5.0743074 -3.1315098 -2.0148163 211.67999
45.281563 -27.944633 2.481406 211.67999
5.4607077 -3.3699691 -2.0023141 211.67999
36.849983 -22.741249 3.0279889 211.67999
5.6313076 -3.4752514 -1.8974875 211.67999
5.9916315 -3.6976185 -1.8431641 211.67999
6.5748539 -4.0575428 -1.8306406 211.67999
7.2435293 -4.4702024 -1.8092475 211.67999
8.018259 -4.9483123 -1.7752383 211.67999
8.883194 -5.5185518 -1.7181532 211.85001
10.159601 -6.311501 -1.6809328 211.85001
12.035985 -7.4771757 -1.6570059 211.85001
14.251052 -8.8532534 -1.5652291 211.85001
17.767515 -11.037803 -1.4626538 211.85001
3.893944 -2.4190545 -2.0410044 211.85001
21.224638 -13.18549 -1.1652378 211.85001
4.1196809 -2.5592904 -2.0257831 211.85001
4.4135766 -2.7418685 -2.0289361 211.85001
35.156311 -21.840334 0 211.85001
4.7030268 -2.921685 -2.0151827 211.85001
5.0601654 -3.1435523 -2.0128956 211.85001
37.609375 -23.364262 2.0647638 211.85001
5.4393325 -3.3791041 -1.9981438 211.85001
46.081314 -28.627327 3.7934966 211.85001
5.614439 -3.4878864 -1.8952825 211.85001
5.9789906 -3.7143586 -1.8426576 211.85001
37.365044 -23.212475 5.1440821 211.85001
6.5627861 -4.0770326 -1.8306406 211.85001
7.2285724 -4.4906425 -1.8088317 211.85001
7.9985337 -4.9689693 -1.7741274 211.85001
8.8541012 -5.5391049 -1.7158835 212.03
10.133007 -6.3391852 -1.6798193 212.03
12.002331 -7.5086298 -1.6556121 212.03
14.21135 -8.8905869 -1.5639286 212.03
17.719219 -11.085102 -1.4615376 212.03
3.8847761 -2.4303067 -2.0401909 212.03
21.181417 -13.251044 -1.1651447 212.03
4.1116204 -2.5722201 -2.0257831 212.03
37.415596 -23.407108 -1.0246637 212.03
4.401782 -2.7537446 -2.0274813 212.03
35.207909 -22.025986 0 212.03
4.7017913 -2.9414294 -2.0186028 212.03
37.841061 -23.673279 1.0363156 212.03
5.0470519 -3.157424 -2.011615 212.03
44.805149 -28.029995 2.4646358 212.03
5.4270716 -3.3951631 -1.997548 212.03
36.756046 -22.994497 3.0317559 212.03
5.5985646 -3.5024486 -1.8936286 212.03
37.795643 -23.644865 4.1593294 212.03
5.9623713 -3.7300453 -1.841138 212.03
37.362663 -23.373995 5.1538386 212.03
6.5499454 -4.09763 -1.8306406 212.03
7.2094536 -4.5102172 -1.8075843 212.03
7.98455 -4.9951153 -1.7744976 212.03
8.8192577 -5.5537829 -1.7123169 212.2
10.114154 -6.3692226 -1.6798193 212.2
11.969913 -7.5378571 -1.6542182 212.2
14.178168 -8.9284697 -1.5631855 212.2
17.669369 -11.126995 -1.4601425 212.2
3.8775482 -2.4418225 -2.0401909 212.2
21.135244 -13.309574 -1.164772 212.2
4.1055322 -2.5853915 -2.0265539 212.2
37.410275 -23.558506 -1.0264277 212.2
4.3983216 -2.7697711 -2.0296638 212.2
4.6930432 -2.9553668 -2.0186028 212.2
37.763885 -23.781189 1.0361298 212.2
5.0392652 -3.1733944 -2.0122554 212.2
37.484547 -23.605278 2.0657887 212.2
5.4282827 -3.4183722 -2.0017183 212.2
5.5816407 -3.5149467 -1.8914236 212.2
37.750595 -23.77282 4.1621161 212.2
5.9512777 -3.7477198 -1.841138 212.2
37.940308 -23.892286 5.2432747 212.2
6.5377584 -4.1170464 -1.8306406 212.2
7.1976948 -4.5326304 -1.8080001 212.2
7.9713569 -5.0198312 -1.774868 212.2
8.79774 -5.576756 -1.7113441 212.37
10.086847 -6.3939023 -1.6784276 212.37
11.942463 -7.5701485 -1.6535213 212.37
14.141523 -8.9641008 -1.5620707 212.37
17.61437 -11.165486 -1.4583288 212.37
3.8687429 -2.4523385 -2.0393775 212.37
20.979233 -13.298422 -1.1583434 212.37
4.1071954 -2.6034899 -2.031179 212.37
37.414513 -23.716501 -1.0284703 212.37
4.3885107 -2.7818115 -2.0289361 212.37
4.671555 -2.9612288 -2.0131307 212.37
46.704391 -29.605217 1.2838354 212.37
5.0298271 -3.1883323 -2.0122554 212.37
36.729263 -23.282131 2.0279629 212.37
5.4068289 -3.4273081 -1.997548 212.37
36.504364 -23.13957 3.022269 212.37
5.564692 -3.527375 -1.8892184 212.37
37.494884 -23.767447 4.1416798 212.37
5.9368634 -3.7632892 -1.8401251 212.37
37.867573 -24.003689 5.2430425 212.37
6.5288014 -4.1385098 -1.8315628 212.37
7.1792579 -4.5508242 -1.8067526 212.37
7.9614077 -5.0466175 -1.7759789 212.37
8.7761631 -5.5996504 -1.7103715 212.53999
10.069502 -6.4248676 -1.6787059 212.53999
11.919949 -7.6055493 -1.6535213 212.53999
14.101435 -8.9974508 -1.5605845 212.53999
17.566027 -11.208041 -1.4570732 212.53999
3.8629899 -2.4647892 -2.0401909 212.53999
20.862209 -13.311178 -1.1540579 212.53999
4.0901179 -2.6097085 -2.0265539 212.53999
37.438374 -23.887636 -1.0310699 212.53999
4.383379 -2.7968245 -2.0303912 212.53999
4.6690855 -2.9791203 -2.0158668 212.53999
5.0187478 -3.2022228 -2.011615 212.53999
36.702129 -23.417873 2.030292 212.53999
5.4046836 -3.4484701 -2.0005269 212.53999
36.86948 -23.524652 3.0582633 212.53999
5.5509601 -3.5418022 -1.8881159 212.53999
45.064156 -28.753283 4.9871821 212.53999
5.9289336 -3.782969 -1.841138 212.53999
6.5082908 -4.1526289 -1.8292571 212.53999
36.967144 -23.586966 6.1628633 212.53999
7.1591268 -4.5678964 -1.8050894 212.53999
7.9463992 -5.0702171 -1.7759789 212.53999
8.7618494 -5.6293273 -1.7110199 212.72
10.045936 -6.454329 -1.6781492 212.72
11.884297 -7.6354432 -1.6518953 212.72
14.068072 -9.0384779 -1.5600271 212.72
16.335604 -10.495326 -1.35774 212.72
3.8536904 -2.4759252 -2.0393775 212.72
20.832054 -13.384212 -1.1547099 212.72
4.0865569 -2.6255379 -2.0288663 212.72
4.3698683 -2.8075602 -2.0282087 212.72
4.6502166 -2.9876785 -2.0117624 212.72
5.0070686 -3.2169497 -2.0109749 212.72
45.916576 -29.500557 2.5451322 212.72
5.3938231 -3.4654322 -2.0005269 212.72
5.5365705 -3.5571451 -1.8870133 212.72
5.9121366 -3.7984393 -1.8396186 212.72
6.4952126 -4.1730547 -1.8292571 212.72
7.1398034 -4.5871925 -1.8038418 212.72
7.9304314 -5.0951567 -1.7759789 212.72
8.7411232 -5.6505589 -1.7100472 212.88
10.026209 -6.4812822 -1.6778709 212.88
11.874607 -7.6761494 -1.6535213 212.88
14.046123 -9.0798903 -1.5603987 212.88
3.8452268 -2.4856853 -2.038564 212.88
20.844931 -13.474872 -1.157505 212.88
4.0854087 -2.6409469 -2.0319498 212.88
4.3620114 -2.8197522 -2.0282087 212.88
35.29887 -22.818388 0 212.88
4.6497469 -3.0057542 -2.0151827 212.88
4.9996572 -3.2319481 -2.011615 212.88
36.419907 -23.543064 2.022373 212.88
5.3841248 -3.4804811 -2.0005269 212.88
37.34248 -24.139446 3.1093252 212.88
5.5201573 -3.5684173 -1.8848082 212.88
44.94458 -29.053703 4.9929414 212.88
5.9015064 -3.8149343 -1.8396186 212.88
37.385494 -24.167253 5.2058744 212.88
6.4818997 -4.1901202 -1.828796 212.88
7.1253228 -4.606051 -1.803426 212.88
7.9112206 -5.1140819 -1.774868 212.88
8.7272987 -5.682745 -1.7110199 213.07001
9.9996824 -6.5112524 -1.6770358 213.07001
11.834105 -7.7057295 -1.6514306 213.07001
14.000916 -9.1166401 -1.5587267 213.07001
16.27286 -10.596006 -1.3578795 213.07001
3.8339007 -2.496429 -2.036937 213.07001
20.756603 -13.515577 -1.1550827 213.07001
4.0673494 -2.648438 -2.0273247 213.07001
35.223572 -22.935686 -0.97587466 213.07001
4.3526368 -2.8342018 -2.0282087 213.07001
35.328594 -23.004072 0 213.07001
4.6318789 -3.0160294 -2.0117624 213.07001
4.9905 -3.2495437 -2.0122554 213.07001
36.003448 -23.443499 2.0035532 213.07001
5.3661537 -3.4941492 -1.9981438 213.07001
44.459866 -28.949862 3.7099283 213.07001
5.5050716 -3.5846052 -1.8837057 213.07001
45.263512 -29.47315 5.0392017 213.07001
5.892066 -3.8365948 -1.8406315 213.07001
6.4679689 -4.2115917 -1.828796 213.07001
7.1100097 -4.6296539 -1.803426 213.07001
7.894218 -5.1402879 -1.774868 213.07001
8.7103987 -5.7086143 -1.7110199 213.24001
9.977006 -6.538722 -1.6764792 213.24001
11.814512 -7.7429857 -1.6518953 213.24001
13.968808 -9.1548662 -1.5581694 213.24001
16.253031 -10.651897 -1.3588561 213.24001
3.8264768 -2.5077932 -2.036937 213.24001
20.661268 -13.540966 -1.1520082 213.24001
4.0671911 -2.6655524 -2.031179 213.24001
4.3410921 -2.8450613 -2.0267537 213.24001
46.99295 -30.798203 0 213.24001
4.6307693 -3.03491 -2.0151827 213.24001
58.181442 -38.130909 1.6150535 213.24001
4.9792519 -3.263298 -2.011615 213.24001
36.81599 -24.128435 2.0527453 213.24001
5.354166 -3.5090091 -1.997548 213.24001
44.24028 -28.99416 3.6987672 213.24001
5.4895878 -3.5977616 -1.8820518 213.24001
37.937466 -24.863424 4.2317848 213.24001
5.8741837 -3.8498178 -1.8386055 213.24001
36.864071 -24.159945 5.1543036 213.24001
6.4586997 -4.2328978 -1.8297184 213.24001
7.099514 -4.652874 -1.8042576 213.24001
7.8756442 -5.1615334 -1.7741274 213.24001
8.685833 -5.7316027 -1.709723 213.42
9.9547615 -6.5689425 -1.6762009 213.42
11.790129 -7.7800636 -1.6518953 213.42
13.953276 -9.2074795 -1.5596555 213.42
16.209494 -10.696312 -1.358019 213.42
3.8246794 -2.5238273 -2.0401909 213.42
20.560265 -13.567296 -1.1487473 213.42
4.0572567 -2.6773002 -2.0304081 213.42
4.3352423 -2.8607373 -2.0282087 213.42
46.986107 -31.005165 0 213.42
4.6102314 -3.042197 -2.0103943 213.42
4.9642305 -3.2757938 -2.0096943 213.42
44.869068 -29.608175 2.5069337 213.42
5.3399286 -3.5237093 -1.9963565 213.42
45.074852 -29.743967 3.7763364 213.42
5.4718394 -3.6107545 -1.8798468 213.42
5.8669047 -3.8714499 -1.8401251 213.42
37.321869 -24.627934 5.2291045 213.42
6.4404969 -4.2499518 -1.8283349 213.42
37.046856 -24.446459 6.2380166 213.42
7.0799632 -4.6719222 -1.8030102 213.42
7.852828 -5.1819201 -1.7726462 213.42
8.6638565 -5.7540731 -1.7087502 213.59
9.9352274 -6.5984502 -1.6762009 213.59
11.770303 -7.8172092 -1.6523598 213.59
13.912624 -9.2400255 -1.5581694 213.59
16.225883 -10.77637 -1.362065 213.59
3.8171742 -2.5351644 -2.0401909 213.59
20.478313 -13.600607 -1.1464181 213.59
4.0416083 -2.6842215 -2.0265539 213.59
4.3220797 -2.8704956 -2.0260262 213.59
47.002197 -31.216362 0 213.59
4.6043162 -3.0579422 -2.0117624 213.59
4.9592247 -3.2936535 -2.011615 213.59
45.496635 -30.21645 2.5469954 213.59
5.3389926 -3.5458751 -1.999931 213.59
5.4595008 -3.6259103 -1.8792955 213.59
36.489326 -24.234272 4.0866876 213.59
5.8505569 -3.8856289 -1.8386055 213.59
6.4246163 -4.2668891 -1.8274127 213.59
7.0611815 -4.6896615 -1.8017627 213.59
7.8308697 -5.2008476 -1.7711649 213.59
8.6467457 -5.7797542 -1.7087502 213.75999
9.9139595 -6.6267986 -1.6759225 213.75999
11.748708 -7.8532019 -1.6525922 213.75999
13.890114 -9.284584 -1.5587267 213.75999
16.172276 -10.810052 -1.3602512 213.75999
3.8050785 -2.543433 -2.0377505 213.75999
20.388041 -13.628001 -1.1436231 213.75999
4.0320921 -2.6951759 -2.0257831 213.75999
4.3150926 -2.8843422 -2.0267537 213.75999
47.007473 -31.421257 0 213.75999
4.5999103 -3.074723 -2.0138147 213.75999
4.9462795 -3.3062472 -2.0103347 213.75999
45.981468 -30.735445 2.5792313 213.75999
5.3205118 -3.5563958 -1.9969523 213.75999
44.690216 -29.872332 3.7588973 213.75999
5.4471202 -3.6410246 -1.8787442 213.75999
5.8373938 -3.9018958 -1.838099 213.75999
6.4119282 -4.2859325 -1.8274127 213.75999
7.043983 -4.7084174 -1.8009311 213.75999
7.8186717 -5.2262435 -1.7719055 213.75999
8.6266718 -5.7990685 -1.7077775 213.91
9.8982201 -6.6538358 -1.6762009 213.91
11.729756 -7.8850412 -1.6528244 213.91
13.867412 -9.3220282 -1.5589124 213.91
16.148886 -10.855693 -1.3606697 213.91
3.804472 -2.5574632 -2.0410044 213.91
20.266075 -13.623372 -1.1387784 213.91
4.0280857 -2.7077818 -2.0273247 213.91
4.3044343 -2.8935504 -2.0252988 213.91
47.037918 -31.620087 0 213.91
4.594964 -3.0888519 -2.0151827 213.91
4.9376073 -3.3191853 -2.0103347 213.91
5.3127675 -3.5713778 -1.997548 213.91
36.026604 -24.218002 3.0355227 213.91
5.4343781 -3.6531274 -1.8776417 213.91
5.8271585 -3.9171646 -1.838099 213.91
36.674656 -24.653637 5.1677771 213.91
6.3990707 -4.3016181 -1.8269516 213.91
7.0332556 -4.7279339 -1.8013469 213.91
7.8033319 -5.2455983 -1.7715353 213.91
8.6084108 -5.8261414 -1.7077775 214.09
9.8707066 -6.6804585 -1.6750875 214.09
11.698347 -7.9173989 -1.6518953 214.09
13.826513 -9.3577347 -1.5576119 214.09
16.131226 -10.917555 -1.362065 214.09
3.7858269 -2.5622339 -2.0353103 214.09
20.214905 -13.681375 -1.1383126 214.09
4.0180306 -2.7193885 -2.0265539 214.09
4.2968655 -2.9081032 -2.0260262 214.09
47.041042 -31.837206 0 214.09
4.5758991 -3.096952 -2.0110784 214.09
50.373226 -34.092419 1.4121912 214.09
4.924017 -3.3325567 -2.0090542 214.09
50.355263 -34.080261 2.8355331 214.09
5.3046837 -3.5901909 -1.9987395 214.09
35.922256 -24.312052 3.0331509 214.09
5.4180984 -3.6669493 -1.8759879 214.09
5.8068123 -3.9300296 -1.8355665 214.09
36.555893 -24.740898 5.1619692 214.09
6.3855252 -4.3217001 -1.8269516 214.09
7.0183678 -4.7500062 -1.8013469 214.09
7.7868137 -5.2700872 -1.7715353 214.09
8.5884342 -5.8520451 -1.7074533 214.27
9.8513079 -6.7125506 -1.6753658 214.27
11.671774 -7.9529929 -1.6516629 214.27
13.790464 -9.3966398 -1.5568688 214.27
16.11993 -10.983908 -1.3640181 214.27
3.7837985 -2.5782301 -2.038564 214.27
16.098825 -10.969526 -0.90846997 214.27
4.0094676 -2.7319982 -2.0265539 214.27
4.2877083 -2.9215877 -2.0260262 214.27
47.049873 -32.059162 0 214.27
4.5723596 -3.1155453 -2.0138147 214.27
4.9182205 -3.3512104 -2.0109749 214.27
5.2823343 -3.5993128 -1.9945693 214.27
5.4049625 -3.6828701 -1.8754365 214.27
5.8024316 -3.9537001 -1.838099 214.27
6.3783498 -4.3461232 -1.828796 214.27
7.0050273 -4.7731328 -1.8017627 214.27
7.7702188 -5.2945242 -1.7715353 214.27
8.5634966 -5.8745322 -1.7061563 214.45
9.8252716 -6.7401052 -1.6745307 214.45
11.631989 -7.9795079 -1.6495723 214.45
13.754308 -9.4354115 -1.5561256 214.45
16.105087 -11.048038 -1.3656923 214.45
3.7696533 -2.5859704 -2.0353103 214.45
20.034637 -13.743699 -1.1330022 214.45
3.9978213 -2.7424929 -2.0250123 214.45
4.2769723 -2.9339898 -2.0252988 214.45
4.5640988 -3.1309576 -2.0144987 214.45
4.9045434 -3.3645012 -2.0096943 214.45
5.2710009 -3.61589 -1.9945693 214.45
44.218655 -30.333858 3.7496896 214.45
5.3917804 -3.6987445 -1.8748853 214.45
5.7867908 -3.9697204 -1.837086 214.45
6.3518257 -4.3573327 -1.8251071 214.45
6.9819317 -4.7895832 -1.7996836 214.45
7.7454433 -5.3133497 -1.7696837 214.45
8.544405 -5.8987932 -1.705832 214.62
9.8019695 -6.7669773 -1.673974 214.62
11.606627 -8.0128574 -1.6493399 214.62
13.713141 -9.4671297 -1.5546395 214.62
16.11985 -11.128646 -1.3697381 214.62
3.7679784 -2.6012957 -2.038564 214.62
19.939516 -13.765626 -1.1299276 214.62
3.9896665 -2.7543426 -2.0250123 214.62
4.2697816 -2.9477253 -2.0260262 214.62
4.5516958 -3.1423502 -2.0131307 214.62
4.8898611 -3.375809 -2.0077736 214.62
5.2602491 -3.6315134 -1.9945693 214.62
44.415783 -30.663284 3.7741044 214.62
5.3728719 -3.7092648 -1.872129 214.62
5.7718029 -3.9846742 -1.836073 214.62
6.3436742 -4.3794765 -1.8264905 214.62
6.96769 -4.8102779 -1.7996836 214.62
7.7264094 -5.3340745 -1.7689431 214.62
8.5252447 -5.9229932 -1.7055079 214.78999
9.773716 -6.79038 -1.6725823 214.78999
11.58117 -8.0461254 -1.6491076 214.78999
13.670273 -9.4975491 -1.5529673 214.78999
16.455421 -11.432557 -1.4011285 214.78999
3.7542415 -2.6082942 -2.0353103 214.78999
19.865772 -13.801929 -1.1280643 214.78999
3.9814768 -2.7661679 -2.0250123 214.78999
4.2640767 -2.9625068 -2.0274813 214.78999
4.5423522 -3.1558416 -2.0131307 214.78999
4.8813796 -3.3913836 -2.008414 214.78999
57.482433 -39.936455 3.2641008 214.78999
5.2478828 -3.6460154 -1.9939735 214.78999
5.358685 -3.7229962 -1.8710264 214.78999
5.7631326 -4.0039897 -1.837086 214.78999
6.3338485 -4.4005003 -1.8274127 214.78999
6.9517803 -4.829814 -1.7992678 214.78999
7.7089353 -5.355854 -1.7685728 214.78999
8.4973478 -5.9388628 -1.7032381 214.95
9.7530928 -6.8165126 -1.672304 214.95
11.561913 -8.0807114 -1.6495723 214.95
13.64533 -9.536828 -1.5531532 214.95
16.588598 -11.593901 -1.4152193 214.95
3.751436 -2.6219079 -2.0377505 214.95
19.800951 -13.83904 -1.1265736 214.95
3.9737365 -2.7772756 -2.0250123 214.95
4.2481518 -2.9690666 -2.0238438 214.95
4.5350623 -3.1695905 -2.0138147 214.95
4.8718901 -3.4050019 -2.008414 214.95
52.741402 -36.861378 3.0007181 214.95
5.2423759 -3.6639373 -1.9957608 214.95
5.3419642 -3.7335405 -1.8688213 214.95
5.7487569 -4.0178514 -1.836073 214.95
6.31675 -4.4148259 -1.8260293 214.95
6.9414725 -4.8514495 -1.8000994 214.95
7.6923375 -5.376235 -1.7682025 214.95
8.4776077 -5.9670086 -1.7032381 215.14
9.7255754 -6.8453975 -1.671469 215.14
11.528555 -8.1144342 -1.648643 215.14
13.612001 -9.5808783 -1.5529673 215.14
3.7427208 -2.6343336 -2.0377505 215.14
19.709206 -13.872429 -1.1239649 215.14
3.9720507 -2.7957487 -2.0288663 215.14
4.2474236 -2.9895716 -2.0282087 215.14
4.5122318 -3.1759582 -2.0083423 215.14
4.8605719 -3.421139 -2.008414 215.14
5.2223907 -3.675807 -1.992782 215.14
5.3232656 -3.7468083 -1.8666161 215.14
5.7369838 -4.0380063 -1.8365796 215.14
6.3020749 -4.4357486 -1.8260293 215.14
6.9269462 -4.8755674 -1.8005153 215.14
7.6728601 -5.4005828 -1.7678322 215.14
8.4614763 -5.9932766 -1.7035624 215.31
9.7019901 -6.8719344 -1.6709123 215.31
11.499565 -8.1451597 -1.6479461 215.31
13.586764 -9.6235256 -1.5533389 215.31
15.361103 -10.880293 -1.3163047 215.31
3.7289243 -2.6412027 -2.0344968 215.31
19.659807 -13.925072 -1.123499 215.31
3.953196 -2.8000548 -2.0234704 215.31
4.229413 -2.9956996 -2.0238438 215.31
4.5119905 -3.1958499 -2.0124466 215.31
4.8534918 -3.4377358 -2.0096943 215.31
5.2052293 -3.6868718 -1.990399 215.31
5.3105564 -3.7614751 -1.8660649 215.31
54.735435 -38.769192 6.2577581 215.31
5.7233987 -4.0538921 -1.836073 215.31
6.2888861 -4.4544277 -1.8260293 215.31
6.9124498 -4.8960986 -1.8005153 215.31
7.6471791 -5.4165087 -1.7656103 215.31
8.4458199 -6.022121 -1.7042109 215.49001
9.6739025 -6.8977809 -1.6697989 215.49001
11.477155 -8.1835527 -1.6484107 215.49001
13.556464 -9.6661625 -1.5533389 215.49001
15.255369 -10.877532 -1.3101661 215.49001
3.722096 -2.6539652 -2.0353103 215.49001
16.595245 -11.832904 -0.95048827 215.49001
3.9473853 -2.8146031 -2.0250123 215.49001
4.2290821 -3.0154614 -2.0282087 215.49001
4.498868 -3.2078266 -2.0110784 215.49001
4.8395824 -3.4507666 -2.008414 215.49001
5.2045026 -3.7109652 -1.9945693 215.49001
5.2940168 -3.7747917 -1.8644111 215.49001
52.865509 -37.694683 6.0574832 215.49001
5.7106347 -4.0718527 -1.836073 215.49001
6.2716923 -4.4719033 -1.8251071 215.49001
6.8906627 -4.9132476 -1.798852 215.49001
7.6365261 -5.4450703 -1.7670916 215.49001
8.4295177 -6.0483041 -1.7045351 215.66
9.6533937 -6.9264536 -1.6697989 215.66
11.451209 -8.2164116 -1.6481785 215.66
13.508309 -9.6924124 -1.5511096 215.66
3.714205 -2.6649971 -2.0353103 215.66
16.636354 -11.936831 -0.95486706 215.66
3.9450145 -2.8306065 -2.0280955 215.66
4.2125483 -3.0225658 -2.0245714 215.66
4.4786415 -3.2134914 -2.0062902 215.66
4.8277831 -3.4640059 -2.0077736 215.66
53.936268 -38.700069 3.0957482 215.66
5.1810594 -3.7174869 -1.9898033 215.66
5.2843556 -3.7916036 -1.8649623 215.66
5.6985283 -4.0887785 -1.836073 215.66
6.2599773 -4.4916263 -1.8255682 215.66
6.8792334 -4.9359522 -1.7996836 215.66
7.6219335 -5.4688501 -1.7674619 215.66
8.398735 -6.0640459 -1.7019411 215.83
9.6295891 -6.9527464 -1.6692421 215.83
11.425169 -8.2491894 -1.6479461 215.83
13.469805 -9.7254553 -1.5499948 215.83
15.387895 -11.110353 -1.3271867 215.83
3.7107255 -2.6792142 -2.0377505 215.83
19.396561 -14.004685 -1.1156731 215.83
3.9395912 -2.8444595 -2.0296373 215.83
4.2035618 -3.0350513 -2.0245714 215.83
4.4843245 -3.2377672 -2.0131307 215.83
4.8174839 -3.4783151 -2.0077736 215.83
5.1746502 -3.7361958 -1.9915905 215.83
52.962311 -38.239796 4.5679331 215.83
5.2761998 -3.8095167 -1.8660649 215.83
52.516579 -37.917969 6.0431776 215.83
5.6785283 -4.1000056 -1.8335404 215.83
6.2418895 -4.506763 -1.8241849 215.83
6.8597999 -4.9529057 -1.7984362 215.83
7.6056738 -5.4914408 -1.7674619 215.83
8.3940105 -6.1008444 -1.7048594 216.00999
9.6076984 -6.982964 -1.6692421 216.00999
11.399198 -8.2850418 -1.6479461 216.00999
13.43113 -9.7618694 -1.5490659 216.00999
16.024292 -11.646604 -1.3852241 216.00999
3.6963782 -2.6865618 -2.0344968 216.00999
19.300755 -14.027966 -1.1126918 216.00999
3.9231713 -2.851397 -2.0257831 216.00999
4.1955128 -3.0493376 -2.0252988 216.00999
4.47261 -3.2507343 -2.0124466 216.00999
4.8034673 -3.4912045 -2.0064933 216.00999
5.1613426 -3.7513115 -1.9909948 216.00999
53.347061 -38.773136 4.6116004 216.00999
5.2564301 -3.8204219 -1.8633085 216.00999
5.6734452 -4.1235123 -1.836073 216.00999
6.2324228 -4.5297823 -1.8255682 216.00999
6.8442059 -4.974432 -1.7984362 216.00999
7.5867944 -5.5141521 -1.7670916 216.00999
8.3790579 -6.1280527 -1.7055079 216.17999
9.5917339 -7.0149474 -1.6700772 216.17999
11.372962 -8.3176546 -1.6477138 216.17999
13.402107 -9.8016777 -1.5490659 216.17999
16.13138 -11.797741 -1.3975012 216.17999
3.6928151 -2.7007532 -2.036937 216.17999
19.221958 -14.058045 -1.1105489 216.17999
3.9161835 -2.8641143 -2.0265539 216.17999
4.1804318 -3.0573733 -2.0223889 216.17999
4.4599113 -3.2617717 -2.0110784 216.17999
4.7961464 -3.5076783 -2.0077736 216.17999
53.12162 -38.850681 3.0691025 216.17999
5.1517305 -3.767736 -1.9915905 216.17999
31.467224 -23.013662 2.726083 216.17999
5.2419682 -3.8337314 -1.862206 216.17999
5.6549387 -4.1357589 -1.834047 216.17999
6.2158136 -4.5459566 -1.824646 216.17999
6.8294163 -4.9947171 -1.7984362 216.17999
7.5624681 -5.5308371 -1.7652401 216.17999
8.3640175 -6.1552267 -1.7061563 216.35001
9.5629015 -7.0375061 -1.6686854 216.35001
11.341833 -8.346653 -1.6467845 216.35001
13.356928 -9.8295965 -1.5472081 216.35001
3.6833141 -2.7106152 -2.0361238 216.35001
19.14959 -14.092517 -1.1087787 216.35001
3.9136138 -2.8800967 -2.0296373 216.35001
4.1833458 -3.0785973 -2.0282087 216.35001
4.4517274 -3.276104 -2.0117624 216.35001
4.785718 -3.5218933 -2.0077736 216.35001
5.1359158 -3.7796099 -1.9898033 216.35001
31.466293 -23.156593 2.7319427 216.35001
5.2321186 -3.8504071 -1.8627572 216.35001
40.264851 -29.631605 4.664104 216.35001
5.6488762 -4.1571064 -1.836073 216.35001
6.2054329 -4.5666866 -1.8255682 216.35001
6.8129911 -5.0137987 -1.7980202 216.35001
7.5444417 -5.5520864 -1.7648698 216.35001
8.3425455 -6.1776671 -1.7055079 216.52
9.5387955 -7.0634918 -1.6681287 216.52
11.318614 -8.3814497 -1.6470169 216.52
13.338906 -9.8774796 -1.5485085 216.52
15.111885 -11.190372 -1.3149096 216.52
3.6723187 -2.719357 -2.0344968 216.52
19.04347 -14.101716 -1.105052 216.52
3.905051 -2.8916957 -2.0296373 216.52
4.1697016 -3.0876698 -2.0260262 216.52
4.4374566 -3.2859428 -2.0097103 216.52
4.7767701 -3.537205 -2.008414 216.52
5.1338849 -3.8016491 -1.9933778 216.52
38.114017 -28.223484 3.3163624 216.52
5.2206712 -3.8659143 -1.8627572 216.52
40.213562 -29.7782 4.6683769 216.52
5.6302972 -4.1692429 -1.834047 216.52
6.1934199 -4.5862365 -1.8260293 216.52
6.7996569 -5.0351558 -1.7984362 216.52
7.527935 -5.5744467 -1.7648698 216.52
8.3257627 -6.2035718 -1.705832 216.69
9.5193844 -7.0929461 -1.6684071 216.69
11.282546 -8.4066877 -1.6453907 216.69
13.311137 -9.9182024 -1.5486944 216.69
3.6671641 -2.7324245 -2.0361238 216.69
18.955088 -14.123541 -1.1023502 216.69
3.8920145 -2.8999617 -2.0273247 216.69
4.1545463 -3.0955756 -2.0231164 216.69
4.4231663 -3.2957258 -2.0076582 216.69
4.7632151 -3.549098 -2.0071335 216.69
5.1210518 -3.8157241 -1.992782 216.69
5.2045527 -3.8779411 -1.8611034 216.69
39.901478 -29.730812 4.6423674 216.69
5.6210051 -4.188242 -1.83506 216.69
6.1829062 -4.6069179 -1.8269516 216.69
6.7878251 -5.0576463 -1.7992678 216.69
7.5160904 -5.6002808 -1.7659807 216.69
8.3030748 -6.2273293 -1.7051836 216.87
9.4875479 -7.1156874 -1.6667371 216.87
11.259258 -8.4444752 -1.6458554 216.87
13.286285 -9.9647512 -1.5494375 216.87
15.927485 -11.945659 -1.3921998 216.87
3.6585619 -2.7439318 -2.0361238 216.87
18.878658 -14.159046 -1.1004869 216.87
3.8769794 -2.9077454 -2.0242414 216.87
4.1448007 -3.1086123 -2.0231164 216.87
4.4218116 -3.3163712 -2.0117624 216.87
4.7550735 -3.5663183 -2.008414 216.87
5.1014023 -3.8260658 -1.9898033 216.87
37.514744 -28.136162 3.2791123 216.87
5.1908064 -3.8931191 -1.8605522 216.87
39.994267 -29.995813 4.664104 216.87
5.6047239 -4.2035584 -1.834047 216.87
6.1621752 -4.6216488 -1.8251071 216.87
6.7703376 -5.0777721 -1.798852 216.87
7.4937425 -5.6203279 -1.7648698 216.87
8.2803192 -6.2510052 -1.7045351 217.05
9.4635658 -7.1442647 -1.6664587 217.05
11.227918 -8.4762144 -1.6451585 217.05
13.250147 -10.002843 -1.5488801 217.05
15.526827 -11.721561 -1.3603908 217.05
3.6499236 -2.7554119 -2.0361238 217.05
18.810165 -14.20023 -1.0990894 217.05
3.8692982 -2.9210227 -2.0250123 217.05
4.1335278 -3.1204956 -2.0223889 217.05
4.4113712 -3.3302462 -2.0117624 217.05
4.7453585 -3.5823808 -2.0090542 217.05
30.714607 -23.187168 1.7946731 217.05
5.0954518 -3.8466747 -1.9921863 217.05
37.400688 -28.234646 3.27688 217.05
5.1800842 -3.9105656 -1.8611034 217.05
38.649044 -29.177057 4.5178924 217.05
5.5868578 -4.2176485 -1.8325275 217.05
6.1538382 -4.6456752 -1.8269516 217.05
6.7590356 -5.1025524 -1.8000994 217.05
7.4744802 -5.6426582 -1.7644994 217.05
8.2633076 -6.2767396 -1.7048594 217.22
9.4517889 -7.1795001 -1.6681287 217.22
11.202719 -8.509491 -1.6451585 217.22
13.217237 -10.039703 -1.5485085 217.22
15.484036 -11.761544 -1.3596932 217.22
3.6388221 -2.7640188 -2.0344968 217.22
18.728176 -14.225767 -1.0967602 217.22
3.8591447 -2.9313741 -2.0242414 217.22
4.1257343 -3.1338732 -2.0231164 217.22
4.3924913 -3.3364997 -2.0076582 217.22
4.728673 -3.5918603 -2.0064933 217.22
5.0794554 -3.8583117 -1.990399 217.22
5.1684589 -3.9259181 -1.8611034 217.22
30.633545 -23.268986 3.5889728 217.22
5.5820227 -4.2400579 -1.83506 217.22
6.1384778 -4.6627364 -1.8264905 217.22
6.7345195 -5.1154847 -1.7976044 217.22
7.4639654 -5.6695657 -1.7659807 217.22
8.2493515 -6.3048248 -1.705832 217.39
9.4210043 -7.2002964 -1.6664587 217.39
11.175843 -8.5414867 -1.6449262 217.39
13.206377 -10.093386 -1.550738 217.39
14.436147 -11.033276 -1.2705444 217.39
3.6335084 -2.7770224 -2.0361238 217.39
18.647791 -14.252156 -1.0945241 217.39
3.8606939 -2.9506559 -2.0296373 217.39
4.117898 -3.1472321 -2.0238438 217.39
4.3930249 -3.3575063 -2.0124466 217.39
4.7164893 -3.6047242 -2.0058529 217.39
38.305115 -29.275879 2.2483025 217.39
5.0695019 -3.8745251 -1.9909948 217.39
29.563429 -22.594772 2.6019166 217.39
5.1537328 -3.9389009 -1.8600008 217.39
30.565952 -23.360983 3.5891585 217.39
5.564806 -4.2530766 -1.8335404 217.39
30.776577 -23.521959 4.5298772 217.39
6.1153388 -4.6738386 -1.8237238 217.39
6.7255292 -5.1401954 -1.7992678 217.39
7.4486723 -5.6928802 -1.766351 217.39
8.2254543 -6.3230257 -1.7045351 217.55
9.405571 -7.2301979 -1.6672938 217.55
11.150373 -8.5714512 -1.6446939 217.55
13.179719 -10.131439 -1.5509237 217.55
3.6228423 -2.7849309 -2.0344968 217.55
18.580992 -14.283476 -1.0929403 217.55
3.8436604 -2.9546771 -2.0250123 217.55
4.1120472 -3.1609898 -2.0252988 217.55
4.3836317 -3.3697608 -2.0124466 217.55
4.7109113 -3.6213455 -2.0077736 217.55
37.871582 -29.112429 2.2276194 217.55
5.0616899 -3.8909938 -1.9921863 217.55
38.941868 -29.935175 3.4346693 217.55
5.1411886 -3.9521058 -1.8594496 217.55
5.5559754 -4.2709584 -1.8345535 217.55
30.928108 -23.774883 4.5619349 217.55
6.117692 -4.7027583 -1.8283349 217.55
6.7095976 -5.1577644 -1.798852 217.55
7.4311876 -5.712461 -1.7659807 217.55
8.2013206 -6.3478513 -1.7038866 217.74001
9.3737125 -7.2552872 -1.665902 217.74001
11.117174 -8.6047325 -1.643997 217.74001
13.13975 -10.170214 -1.5501806 217.74001
14.376369 -11.12736 -1.271242 217.74001
3.6106975 -2.7946928 -2.0328698 217.74001
18.505085 -14.323003 -1.0912634 217.74001
3.8411381 -2.9730546 -2.0288663 217.74001
4.0971227 -3.1711876 -2.0231164 217.74001
38.744278 -29.988213 0 217.74001
4.3724332 -3.384279 -2.0124466 217.74001
38.757561 -29.998489 1.1378859 217.74001
4.6973782 -3.6357877 -2.0071335 217.74001
30.757023 -23.806047 1.8137723 217.74001
5.0442295 -3.9042518 -1.990399 217.74001
31.367052 -24.278212 2.7736568 217.74001
5.1310954 -3.9714863 -1.8605522 217.74001
39.016113 -30.198612 4.6029811 217.74001
5.5417819 -4.2893591 -1.8345535 217.74001
30.85224 -23.879745 4.5623994 217.74001
6.0959077 -4.7182546 -1.8264905 217.74001
6.689363 -5.1775908 -1.7980202 217.74001
7.4137578 -5.7382751 -1.766351 217.74001
8.1871214 -6.3757949 -1.7048594 217.91
9.3552694 -7.285501 -1.6664587 217.91
11.096296 -8.6413422 -1.6446939 217.91
13.118943 -10.216496 -1.5512953 217.91
14.321252 -11.152805 -1.2692888 217.91
3.6038311 -2.8065164 -2.0336833 217.91
18.454626 -14.371708 -1.0907975 217.91
3.8221078 -2.9765012 -2.0234704 217.91
4.0862255 -3.1821854 -2.0223889 217.91
38.655132 -30.103037 0 217.91
4.3608899 -3.3960826 -2.0117624 217.91
38.677845 -30.120726 1.1381645 217.91
4.6850753 -3.6485448 -2.0064933 217.91
30.646849 -23.866512 1.8114431 217.91
5.0326233 -3.9192011 -1.990399 217.91
30.924963 -24.083097 2.7408714 217.91
5.1147389 -3.9831495 -1.8588983 217.91
5.5275044 -4.3045945 -1.834047 217.91
6.0803461 -4.7351251 -1.8260293 217.91
6.6739712 -5.1974158 -1.7980202 217.91
7.3951488 -5.7590394 -1.7659807 217.91
8.1635075 -6.3964071 -1.7038866 218.08
9.3304939 -7.3107839 -1.665902 218.08
11.069044 -8.6730022 -1.6444616 218.08
13.07133 -10.241866 -1.5492517 218.08
14.255118 -11.169407 -1.266359 218.08
3.5969265 -2.8183236 -2.0344968 218.08
18.36158 -14.386971 -1.0878162 218.08
3.8219755 -2.9946578 -2.0280955 218.08
4.0796986 -3.1965935 -2.0238438 218.08
4.3507943 -3.4090066 -2.0117624 218.08
4.6727376 -3.6612611 -2.0058529 218.08
30.525578 -23.917908 1.8084618 218.08
5.0209727 -3.9341161 -1.990399 218.08
38.664867 -30.295341 3.4348087 218.08
5.1044116 -3.9994934 -1.8594496 218.08
29.917185 -23.441212 3.545871 218.08
5.514708 -4.3209758 -1.834047 218.08
30.355045 -23.78429 4.5096669 218.08
6.067802 -4.7543449 -1.8264905 218.08
6.6585212 -5.217195 -1.7980202 218.08
7.3780289 -5.7809558 -1.7659807 218.08
8.1387234 -6.4183555 -1.7029139 218.25999
9.3121452 -7.3437395 -1.6667371 218.25999
11.033944 -8.7015829 -1.6433001 218.25999
13.042217 -10.285347 -1.5496233 218.25999
3.5851853 -2.827347 -2.0328698 218.25999
18.283348 -14.418605 -1.0858597 218.25999
3.8024051 -2.9986508 -2.0226996 218.25999
4.0623221 -3.2036264 -2.0202065 218.25999
4.3385873 -3.4214945 -2.0110784 218.25999
4.6612124 -3.6759229 -2.0058529 218.25999
30.522448 -24.070597 1.8127475 218.25999
5.0070896 -3.9486883 -1.9898033 218.25999
5.0918217 -4.0155096 -1.8594496 218.25999
29.641687 -23.376013 3.5219047 218.25999
5.5071831 -4.3430719 -1.836073 218.25999
31.088144 -24.516716 4.6299992 218.25999
6.0513077 -4.7721791 -1.8260293 218.25999
31.297083 -24.681488 5.6017175 218.25999
6.6405616 -5.2368765 -1.7976044 218.25999
7.3598309 -5.8041058 -1.7659807 218.25999
8.1176758 -6.4386053 -1.7022654 218.42
9.2884979 -7.3672538 -1.6661804 218.42
11.003376 -8.7274237 -1.6423708 218.42
13.008764 -10.318015 -1.5490659 218.42
15.726713 -12.47378 -1.4036398 218.42
3.5758445 -2.8362122 -2.0320563 218.42
18.186665 -14.424911 -1.0825057 218.42
3.7983541 -3.0126977 -2.0250123 218.42
4.0548196 -3.2161157 -2.0209339 218.42
4.3275433 -3.4324288 -2.0103943 218.42
4.6524134 -3.6901026 -2.0064933 218.42
30.120146 -23.890057 1.7928097 218.42
5.0005307 -3.9662144 -1.9915905 218.42
31.619118 -25.078979 2.822068 218.42
5.0820947 -4.0309076 -1.8600008 218.42
29.693308 -23.551506 3.5358386 218.42
5.4965491 -4.3596358 -1.8365796 218.42
29.886539 -23.704769 4.4608836 218.42
6.0379577 -4.7890587 -1.8260293 218.42
6.6228461 -5.2529683 -1.7967728 218.42
7.3358946 -5.8185291 -1.7641292 218.42
8.0866117 -6.4554572 -1.6999958 218.60001
9.2544727 -7.3877487 -1.6642319 218.60001
10.969694 -8.7569914 -1.6414417 218.60001
12.976285 -10.358832 -1.5490659 218.60001
15.674973 -12.513167 -1.4025236 218.60001
3.5683446 -2.848572 -2.0328698 218.60001
18.12096 -14.465772 -1.0812945 218.60001
3.7845438 -3.0211618 -2.0226996 218.60001
30.608597 -24.434523 -0.90930611 218.60001
4.0490637 -3.2323251 -2.0231164 218.60001
4.3152699 -3.4448347 -2.0097103 218.60001
4.6407981 -3.7047002 -2.0064933 218.60001
29.955948 -23.913519 1.7874993 218.60001
4.9850616 -3.9795222 -1.990399 218.60001
29.009539 -23.15801 2.5956383 218.60001
5.0679035 -4.0456543 -1.8594496 218.60001
29.085367 -23.218544 3.4721148 218.60001
5.4813137 -4.3756752 -1.836073 218.60001
29.498323 -23.548203 4.413959 218.60001
6.0228825 -4.8080039 -1.8260293 218.60001
6.6108975 -5.27741 -1.7980202 218.60001
7.3191152 -5.842773 -1.7644994 218.60001
8.0689611 -6.4806581 -1.70032 218.77
9.2386885 -7.4201355 -1.6653453 218.77
10.940566 -8.7870131 -1.640977 218.77
12.947045 -10.398535 -1.5492517 218.77
15.602 -12.530886 -1.3993149 218.77
3.5613015 -2.860291 -2.0336833 218.77
18.040575 -14.48945 -1.0790585 218.77
3.7755632 -3.0323772 -2.0226996 218.77
30.503227 -24.49894 -0.90833122 218.77
4.0409079 -3.2454913 -2.0238438 218.77
4.3050299 -3.4576232 -2.0097103 218.77
48.836029 -39.223095 1.4542491 218.77
4.6283083 -3.717267 -2.0058529 218.77
29.732214 -23.879694 1.7783689 218.77
4.9776978 -3.9978824 -1.9921863 218.77
29.125809 -23.392653 2.6122403 218.77
5.0513806 -4.0570617 -1.8577958 218.77
5.471324 -4.3943424 -1.837086 218.77
6.002521 -4.8209786 -1.8241849 218.77
6.5952101 -5.2970018 -1.7980202 218.77
7.2986822 -5.8620019 -1.7637589 218.77
8.0512323 -6.5058107 -1.7006443 218.94
9.2120104 -7.4437799 -1.6645103 218.94
10.905175 -8.811945 -1.6395832 218.94
12.903744 -10.426891 -1.5477654 218.94
15.556993 -12.570853 -1.3986173 218.94
3.5485358 -2.8673999 -2.0312428 218.94
17.966427 -14.5178 -1.0771952 218.94
3.7665493 -3.0435662 -2.0226996 218.94
30.351088 -24.525246 -0.90596372 218.94
4.0240154 -3.2516122 -2.0202065 218.94
30.391935 -24.558252 0 218.94
4.2962136 -3.4715624 -2.0103943 218.94
30.357309 -24.530272 0.90614939 218.94
4.6113634 -3.7262197 -2.0032921 218.94
29.563335 -23.8887 1.7724994 218.94
4.9658136 -4.0126338 -1.9921863 218.94
28.865398 -23.324732 2.5950804 218.94
5.0408163 -4.0732398 -1.8583471 218.94
30.793343 -24.88261 3.6935692 218.94
5.4627762 -4.4142051 -1.8386055 218.94
29.908115 -24.167301 4.4966583 218.94
5.9897041 -4.8399901 -1.824646 218.94
29.510784 -23.846237 5.3322783 218.94
6.5794644 -5.3165469 -1.7980202 218.94
7.2858434 -5.8873377 -1.7648698 218.94
8.0200357 -6.522356 -1.6983745 219.12
9.1855068 -7.4701843 -1.6639535 219.12
10.877439 -8.8461609 -1.6395832 219.12
12.872468 -10.468635 -1.5479512 219.12
15.494205 -12.600782 -1.3965245 219.12
3.53951 -2.8785338 -2.0312428 219.12
17.92383 -14.576693 -1.0773815 219.12
3.7626963 -3.0600419 -2.0257831 219.12
30.287851 -24.63183 -0.90638155 219.12
4.0152259 -3.2654133 -2.0209339 219.12
30.396872 -24.72049 0 219.12
4.2765379 -3.4779274 -2.0062902 219.12
30.263031 -24.611645 0.90563875 219.12
4.6040444 -3.7442746 -2.0052128 219.12
30.258474 -24.607939 1.8188033 219.12
4.9517021 -4.02701 -1.9915905 219.12
5.025012 -4.0866299 -1.8572445 219.12
5.4338708 -4.4191375 -1.8335404 219.12
28.939718 -23.53545 4.3621554 219.12
5.9699402 -4.8550997 -1.8232627 219.12
29.62472 -24.092531 5.3665147 219.12
6.5566587 -5.3322535 -1.796357 219.12
7.258163 -5.9027572 -1.762648 219.12
8.001791 -6.5447268 -1.6983745 219.28
9.1738091 -7.5033293 -1.6656237 219.28
10.85423 -8.877759 -1.6398156 219.28
12.829311 -10.493194 -1.5462792 219.28
15.434247 -12.623791 -1.3942924 219.28
3.5314579 -2.8884068 -2.0312428 219.28
17.842846 -14.593802 -1.0749592 219.28
3.7541363 -3.0705373 -2.0257831 219.28
30.643021 -25.063164 -0.91910106 219.28
4.0089755 -3.2789721 -2.0223889 219.28
4.262445 -3.4862866 -2.0042381 219.28
57.272839 -46.843899 1.7178309 219.28
4.5935702 -3.757117 -2.0052128 219.28
38.277531 -31.307489 2.306066 219.28
4.9389596 -4.0396132 -1.9909948 219.28
30.054623 -24.581909 2.7150614 219.28
5.0165567 -4.1030807 -1.8583471 219.28
5.4304953 -4.4416442 -1.8365796 219.28
29.229078 -23.906691 4.4158173 219.28
5.9533458 -4.869288 -1.8223404 219.28
29.638577 -24.241623 5.3812671 219.28
6.5417428 -5.3505421 -1.796357 219.28
7.2386084 -5.9205141 -1.7619073 219.28
7.9960523 -6.5797257 -1.7012926 219.45
9.148447 -7.5279989 -1.665067 219.45
10.821706 -8.9048767 -1.6388863 219.45
12.802734 -10.535008 -1.5468365 219.45
15.389021 -12.663191 -1.3935949 219.45
3.5256939 -2.9011941 -2.0328698 219.45
17.788668 -14.637794 -1.074307 219.45
3.7378843 -3.0757995 -2.0219288 219.45
30.358545 -24.98119 -0.91278768 219.45
3.9949133 -3.2873013 -2.0202065 219.45
4.2636919 -3.5084715 -2.0097103 219.45
56.931343 -46.847195 1.7117497 219.45
4.5794764 -3.768322 -2.0039322 219.45
4.9313745 -4.057889 -1.992782 219.45
29.588701 -24.347708 2.6794856 219.45
5.0043602 -4.1179471 -1.8583471 219.45
5.4068346 -4.4491315 -1.833034 219.45
28.837431 -23.729507 4.3672662 219.45
5.9448833 -4.8918767 -1.8241849 219.45
6.5228176 -5.3674421 -1.7955253 219.45
7.2194924 -5.9407167 -1.7615371 219.45
7.9635506 -6.5973921 -1.699023 219.64
9.1188574 -7.5545044 -1.6642319 219.64
10.792117 -8.9407139 -1.6388863 219.64
12.772328 -10.581217 -1.5473938 219.64
15.325435 -12.696334 -1.3916416 219.64
3.5132399 -2.9105384 -2.0312428 219.64
17.707722 -14.669936 -1.0723505 219.64
3.7333486 -3.0928872 -2.0250123 219.64
3.9854248 -3.3017194 -2.0209339 219.64
4.2505865 -3.5213923 -2.0090263 219.64
56.640182 -46.923477 1.7076646 219.64
4.565496 -3.7822785 -2.0032921 219.64
4.9164209 -4.0730019 -1.9921863 219.64
29.260441 -24.24077 2.6570241 219.64
4.9877162 -4.1320662 -1.8572445 219.64
29.51483 -24.451517 3.5757821 219.64
5.3935409 -4.4682713 -1.8335404 219.64
28.790707 -23.85162 4.3721447 219.64
5.925631 -4.9090805 -1.8232627 219.64
29.301136 -24.274483 5.3475871 219.64
6.5019693 -5.3865471 -1.7946937 219.64
7.2073202 -5.9708939 -1.7633885 219.64
9.1009665 -7.585331 -1.665067 219.81
10.753334 -8.9625206 -1.637028 219.81
12.734758 -10.613967 -1.5466508 219.81
15.304555 -12.7558 -1.3931763 219.81
3.5003781 -2.9174402 -2.0288024 219.81
17.657978 -14.717296 -1.0719779 219.81
3.717067 -3.0980427 -2.021158 219.81
3.975611 -3.3135297 -2.0209339 219.81
4.2372322 -3.5315819 -2.0076582 219.81
56.327148 -46.946671 1.7024189 219.81
4.55862 -3.7994473 -2.0052128 219.81
29.610033 -24.678907 1.7975613 219.81
4.901381 -4.0851264 -1.9909948 219.81
29.700277 -24.754122 2.7036214 219.81
4.9754343 -4.1468468 -1.8572445 219.81
29.481922 -24.57213 3.5806124 219.81
5.3787732 -4.4830155 -1.833034 219.81
5.9140296 -4.9291325 -1.8241849 219.81
6.4874616 -5.4070678 -1.7951095 219.81
7.1925921 -5.9947686 -1.7641292 219.81
9.0769033 -7.6110282 -1.6647886 219.98
10.719084 -8.9880047 -1.6358664 219.98
12.698632 -10.647866 -1.5460933 219.98
15.251352 -12.788335 -1.3917812 219.98
3.5015068 -2.9360309 -2.0344968 219.98
17.577494 -14.738815 -1.0697418 219.98
3.7177575 -3.1173582 -2.0265539 219.98
3.9671896 -3.326508 -2.0216615 219.98
4.2296157 -3.5465536 -2.0090263 219.98
56.04512 -46.99411 1.6981018 219.98
4.5444231 -3.8105214 -2.0039322 219.98
29.815298 -25.000277 1.8145176 219.98
4.886313 -4.0971975 -1.9898033 219.98
29.852962 -25.031858 2.7242694 219.98
4.9675279 -4.165297 -1.8588983 219.98
5.366931 -4.5001979 -1.8335404 219.98
5.9038525 -4.9504094 -1.8255682 219.98
6.4743881 -5.4288063 -1.7959412 219.98
7.1732674 -6.0148206 -1.7637589 219.98
7.8981314 -6.6602736 -1.6974018 220.14
9.0525856 -7.6337924 -1.6642319 220.14
10.703054 -9.0255871 -1.6372602 220.14
12.673416 -10.687138 -1.5466508 220.14
15.197278 -12.81544 -1.390107 220.14
3.489104 -2.9422638 -2.0320563 220.14
17.511829 -14.767237 -1.0682511 220.14
3.700573 -3.1205897 -2.0219288 220.14
25.054153 -21.127468 -0.76089627 220.14
3.9536121 -3.3339705 -2.019479 220.14
4.215385 -3.5547163 -2.0069742 220.14
4.535213 -3.8244183 -2.0045726 220.14
4.8748522 -4.110827 -1.9898033 220.14
4.9573464 -4.1803918 -1.8594496 220.14
5.3513846 -4.5126734 -1.8325275 220.14
28.668028 -24.174948 4.385386 220.14
5.8840542 -4.9618583 -1.8237238 220.14
6.4621935 -5.4493876 -1.7967728 220.14
7.1594481 -6.0373626 -1.7644994 220.14
7.8783355 -6.6836786 -1.6974018 220.31
9.0298958 -7.6606183 -1.6642319 220.31
10.680773 -9.0611591 -1.6379571 220.31
12.64165 -10.724693 -1.5466508 220.31
15.13028 -12.835952 -1.3874563 220.31
3.4775722 -2.9502394 -2.0304294 220.31
17.413094 -14.772602 -1.0648972 220.31
3.6870759 -3.1279743 -2.0196164 220.31
24.802294 -21.041319 -0.75514001 220.31
3.9479644 -3.3493023 -2.0216615 220.31
4.2048192 -3.5672081 -2.0069742 220.31
58.269459 -49.433582 1.7740939 220.31
4.5180664 -3.8329546 -2.0020115 220.31
4.8611779 -4.1240377 -1.9892075 220.31
29.64896 -25.153046 2.7188284 220.31
4.9405231 -4.1913509 -1.8577958 220.31
29.232964 -24.800129 3.5765252 220.31
5.335021 -4.5260282 -1.8315145 220.31
28.652222 -24.307449 4.393981 220.31
5.87079 -4.9805541 -1.8241849 220.31
28.553139 -24.223391 5.2624135 220.31
6.4445047 -5.4672718 -1.796357 220.31
7.1415033 -6.0585785 -1.7644994 220.31
7.8426218 -6.6982317 -1.6944836 220.5
9.0044432 -7.6905208 -1.6642319 220.5
10.646134 -9.092658 -1.6372602 220.5
12.613588 -10.773022 -1.5475796 220.5
15.098252 -12.895125 -1.3884329 220.5
3.4733272 -2.9665015 -2.0336833 220.5
17.341223 -14.810802 -1.0634997 220.5
3.6851027 -3.1473751 -2.0242414 220.5
24.641159 -21.045538 -0.75235468 220.5
3.9340029 -3.3599558 -2.0202065 220.5
4.1929669 -3.5811322 -2.0069742 220.5
58.263332 -49.761589 1.7789217 220.5
4.5096531 -3.8516078 -2.0039322 220.5
4.848927 -4.1413751 -1.9898033 220.5
29.654896 -25.327675 2.7270596 220.5
4.9265971 -4.2077112 -1.8577958 220.5
5.3243966 -4.5474644 -1.833034 220.5
28.592604 -24.420391 4.397233 220.5
5.8542418 -4.9999948 -1.8241849 220.5
6.4203892 -5.48353 -1.7946937 220.5
7.1258564 -6.0860567 -1.7656103 220.5
7.8346887 -6.731761 -1.6970775 220.67
8.9800825 -7.7159128 -1.6639535 220.67
10.617602 -9.1229105 -1.637028 220.67
12.570995 -10.801315 -1.5462792 220.67
15.072031 -12.950268 -1.3895489 220.67
3.457581 -2.9708405 -2.0296159 220.67
17.292656 -14.858284 -1.0632201 220.67
3.6743484 -3.1570923 -2.0234704 220.67
24.492165 -21.044283 -0.74970865 220.67
3.9310815 -3.3776841 -2.0238438 220.67
54.895435 -47.167538 0 220.67
4.1808977 -3.5923324 -2.0062902 220.67
4.4967685 -3.8637364 -2.0032921 220.67
4.8380661 -4.1569881 -1.990399 220.67
4.9140911 -4.2223105 -1.8577958 220.67
5.3123479 -4.5645032 -1.8335404 220.67
28.503448 -24.490879 4.3946776 220.67
5.8467612 -5.023684 -1.8264905 220.67
6.4055748 -5.5038304 -1.7951095 220.67
7.1047859 -6.1046109 -1.7648698 220.67
7.8191595 -6.7588491 -1.6980503 220.84
8.9541531 -7.739933 -1.663397 220.84
10.588984 -9.1530743 -1.6367956 220.84
12.543411 -10.842473 -1.5468365 220.84
15.024484 -12.987103 -1.3887119 220.84
3.4501333 -2.982281 -2.0304294 220.84
17.231869 -14.895156 -1.0621953 220.84
3.6677573 -3.1703942 -2.0250123 220.84
24.358521 -21.055405 -0.74752682 220.84
3.9111764 -3.3808048 -2.0187516 220.84
4.1716423 -3.6059504 -2.0069742 220.84
4.4752502 -3.8683879 -1.9988105 220.84
4.8228221 -4.1688275 -1.9892075 220.84
29.79388 -25.753708 2.7538462 220.84
4.9029961 -4.2381296 -1.8583471 220.84
5.289999 -4.5726533 -1.8305014 220.84
28.858965 -24.94557 4.4608836 220.84
5.8274131 -5.0371914 -1.8251071 220.84
6.3862562 -5.5202537 -1.7942779 220.84
7.085155 -6.1243792 -1.7644994 220.84
7.8038435 -6.7885618 -1.6993473 221.02
8.9297934 -7.7680249 -1.663397 221.02
10.557179 -9.1836882 -1.6363311 221.02
12.519804 -10.890975 -1.5481369 221.02
14.971567 -13.023763 -1.3875958 221.02
3.4407473 -2.9931052 -2.0304294 221.02
17.174437 -14.940039 -1.0615431 221.02
3.657779 -3.181901 -2.0250123 221.02
24.254539 -21.099018 -0.74636632 221.02
3.9019418 -3.3942981 -2.019479 221.02
54.287891 -47.225025 0 221.02
4.1574574 -3.6165712 -2.0056062 221.02
4.4773712 -3.8948641 -2.0052128 221.02
4.8125825 -4.1864643 -1.990399 221.02
29.712826 -25.847181 2.7538462 221.02
4.888207 -4.2522497 -1.8577958 221.02
5.2843661 -4.596869 -1.8335404 221.02
5.805686 -5.050365 -1.8232627 221.02
6.3674064 -5.5390053 -1.7938621 221.02
7.0658798 -6.1466074 -1.7644994 221.02
7.7824783 -6.8130445 -1.6993473 221.2
8.8978939 -7.7895174 -1.6620052 221.2
10.528276 -9.2168093 -1.6363311 221.2
12.478036 -10.923695 -1.5472081 221.2
14.94559 -13.083875 -1.3889909 221.2
3.4272029 -3.0002894 -2.0279889 221.2
17.112385 -14.980761 -1.0606115 221.2
3.6463761 -3.1921611 -2.0242414 221.2
24.141499 -21.134285 -0.74492723 221.2
3.8870537 -3.4028583 -2.0172966 221.2
53.997807 -47.271507 0 221.2
4.1474891 -3.6308525 -2.0062902 221.2
4.4636874 -3.9076629 -2.0045726 221.2
4.7965336 -4.1990476 -1.9892075 221.2
29.631479 -25.940399 2.7538462 221.2
4.8791633 -4.2713847 -1.8594496 221.2
5.2669868 -4.6108985 -1.8325275 221.2
5.7897911 -5.0685792 -1.8232627 221.2
6.3514457 -5.5602703 -1.7942779 221.2
7.046535 -6.1687751 -1.7644994 221.2
7.7637105 -6.83741 -1.6996715 221.37
8.8747435 -7.8158836 -1.6620052 221.37
10.49492 -9.2427549 -1.6354018 221.37
12.44557 -10.96067 -1.5472081 221.37
14.900715 -13.122888 -1.3884329 221.37
3.4223993 -3.0140676 -2.0304294 221.37
17.064863 -15.028828 -1.0604252 221.37
3.6327338 -3.1993067 -2.0219288 221.37
24.045675 -21.176748 -0.74390596 221.37
3.8839307 -3.4205329 -2.0209339 221.37
4.1381083 -3.6443844 -2.0069742 221.37
58.417858 -51.447933 1.8072853 221.37
4.4506516 -3.9196374 -2.0039322 221.37
4.7869191 -4.2157845 -1.990399 221.37
4.8621402 -4.2820306 -1.8577958 221.37
5.254735 -4.6277847 -1.833034 221.37
5.777648 -5.0883079 -1.8241849 221.37
6.3349199 -5.5790911 -1.7942779 221.37
7.0311508 -6.1922536 -1.7652401 221.37
7.7419119 -6.8591065 -1.6993473 221.53999
8.8470669 -7.8382411 -1.6611701 221.53999
10.461502 -9.2685843 -1.6344726 221.53999
12.421937 -11.005471 -1.5483228 221.53999
14.840806 -13.148519 -1.3864796 221.53999
3.4189117 -3.0290554 -2.0336833 221.53999
17.021692 -15.080719 -1.0605183 221.53999
3.6315134 -3.2174141 -2.0265539 221.53999
22.745062 -20.151457 -0.70551533 221.53999
3.8653979 -3.424629 -2.0165691 221.53999
4.128684 -3.6578925 -2.0076582 221.53999
4.4361658 -3.9303124 -2.0026519 221.53999
4.7743897 -4.229969 -1.990399 221.53999
4.8479748 -4.2951632 -1.8572445 221.53999
5.2424293 -4.6446381 -1.8335404 221.53999
5.7581553 -5.1015563 -1.8228015 221.53999
6.3227315 -5.6017542 -1.7955253 221.53999
7.0098047 -6.2104812 -1.7644994 221.53999
7.71416 -6.8754816 -1.697726 221.71001
8.8267279 -7.8670917 -1.6617268 221.71001
10.435439 -9.3009043 -1.6347049 221.71001
12.386255 -11.03963 -1.5479512 221.71001
14.783855 -13.176564 -1.3848056 221.71001
3.4044533 -3.0343232 -2.0304294 221.71001
16.966431 -15.121852 -1.0598661 221.71001
3.6081743 -3.2158959 -2.0188453 221.71001
23.877792 -21.281815 -0.74260616 221.71001
3.8566105 -3.4373224 -2.0172966 221.71001
25.265293 -22.518467 0 221.71001
4.1150064 -3.6676257 -2.0062902 221.71001
58.535446 -52.171509 1.820469 221.71001
4.42307 -3.9421968 -2.0020115 221.71001
4.7589679 -4.2415757 -1.9892075 221.71001
4.8337741 -4.3082495 -1.8566933 221.71001
5.227181 -4.658885 -1.833034 221.71001
5.7429934 -5.118619 -1.8228015 221.71001
6.3075433 -5.6217914 -1.7959412 221.71001
6.9840112 -6.2247138 -1.762648 221.71001
7.7040119 -6.9075618 -1.6999958 221.88
8.8018723 -7.8919244 -1.6614485 221.88
10.404839 -9.329174 -1.6342403 221.88
12.357894 -11.080319 -1.5485085 221.88
14.68082 -13.163099 -1.3788065 221.88
3.3940749 -3.0431914 -2.0296159 221.88
16.906614 -15.158789 -1.0589345 221.88
3.6096089 -3.2364433 -2.0250123 221.88
3.846395 -3.44875 -2.0172966 221.88
4.1027069 -3.6785643 -2.0056062 221.88
4.4127645 -3.9565678 -2.0026519 221.88
4.7378325 -4.2480297 -1.985633 221.88
44.284592 -39.706394 4.1591601 221.88
4.823833 -4.3251395 -1.8577958 221.88
5.2075725 -4.6692076 -1.831008 221.88
5.7263317 -5.1343369 -1.8223404 221.88
6.2879224 -5.6378694 -1.7951095 221.88
6.9625845 -6.242784 -1.7619073 221.88
7.6837382 -6.9330525 -1.70032 222.06
8.7740955 -7.9168839 -1.6608918 222.06
10.376954 -9.3631468 -1.6344726 222.06
