# .PCD v0.7 - Point Cloud Data file format
VERSION 0.7
FIELDS x y z intensity
SIZE 4 4 4 4
TYPE F F F F
COUNT 1 1 1 1
WIDTH 1186
HEIGHT 1
VIEWPOINT 0 0 0 1 0 0 0
POINTS 1186
DATA ascii
-10.667362 7.1816902 -2.1127546 33.950001
-11.511833 7.7502217 -1.9503719 33.950001
-12.159274 8.1861048 -1.714152 33.950001
-12.159467 8.1862345 -1.367555 33.950001
-12.167627 8.1917276 -1.0256991 33.950001
-3.820873 2.5723629 -2.0507662 33.950001
-12.164211 8.1894283 -0.68384469 33.950001
-4.0767131 2.7446043 -2.0527627 33.950001
-12.177467 8.1983528 -0.34082732 33.950001
-4.3750472 2.9454551 -2.0594902 33.950001
-12.17743 8.198328 0 33.950001
-4.6957006 3.1613314 -2.0603294 33.950001
-12.177467 8.1983528 0.34082732 33.950001
-5.0877481 3.4252734 -2.0724373 33.950001
-12.184098 8.202817 0.68496269 33.950001
-5.5019054 3.7041004 -2.0696337 33.950001
-12.179213 8.1995277 1.0266758 33.950001
-6.0171113 4.0509572 -2.0799594 33.950001
-12.190853 8.2073641 1.3710849 33.950001
-6.6172757 4.4550118 -2.0883114 33.950001
-12.200469 8.2138386 1.7199595 33.950001
-7.3711352 4.9625397 -2.1054671 33.950001
-12.260998 8.2545891 2.0772977 33.950001
-8.2227087 5.5358529 -2.106977 33.950001
-9.270257 6.2411041 -2.1055496 33.950001
-10.645256 7.2073798 -2.1121061 34.099998
-11.493144 7.7814436 -1.9506502 34.099998
-13.924175 9.4273748 -1.9664314 34.099998
-17.530092 11.868765 -1.9750683 34.099998
-3.8307679 2.5936248 -2.0597143 34.099998
-4.0740981 2.7583718 -2.0550752 34.099998
-4.3642359 2.9548097 -2.0580354 34.099998
-4.6905208 3.1757212 -2.0616975 34.099998
-5.0709186 3.43327 -2.0692363 34.099998
-5.489027 3.7163508 -2.0684423 34.099998
-6.0080771 4.0677743 -2.0805109 34.099998
-6.5991817 4.4679818 -2.0862854 34.099998
-7.3548946 4.9796381 -2.1045449 34.099998
-12.263946 8.3033152 2.0814729 34.099998
-8.2081881 5.5573606 -2.106977 34.099998
-9.2571411 6.2675557 -2.1062903 34.099998
-10.618035 7.2404175 -2.1114576 34.290001
-11.473822 7.8239765 -1.9517635 34.290001
-13.899401 9.4779739 -1.9673605 34.290001
-17.492283 11.927954 -1.9752541 34.290001
-22.134287 15.093327 -1.8733798 34.290001
-3.8221462 2.6063139 -2.0597143 34.290001
-4.0679779 2.7739463 -2.0566168 34.290001
-4.3482566 2.9650676 -2.0551255 34.290001
-80.937531 55.191139 0 34.290001
-4.6815166 3.1923168 -2.0623815 34.290001
-80.854599 55.134594 2.2721047 34.290001
-5.0673327 3.4554043 -2.0724373 34.290001
-5.4829826 3.7388351 -2.0708253 34.290001
-5.9929667 4.0865922 -2.0799594 34.290001
-6.5939198 4.4963813 -2.0893245 34.290001
-7.3383412 5.0040007 -2.1045449 34.290001
-12.21998 8.3327808 2.0786893 34.290001
-8.1929464 5.5867538 -2.1078088 34.290001
-9.2395544 6.3004336 -2.1070309 34.290001
-10.604642 7.2774734 -2.1130788 34.459999
-11.458722 7.8635888 -1.9531553 34.459999
-13.889235 9.5315371 -1.9699159 34.459999
-17.466667 11.986563 -1.9763688 34.459999
-22.133823 15.189414 -1.8771467 34.459999
-3.8113832 2.6155753 -2.0580873 34.459999
-4.0566864 2.7839155 -2.0550752 34.459999
-4.3425121 2.9800642 -2.0565803 34.459999
-80.481537 55.23074 0 34.459999
-4.6704745 3.2051296 -2.0616975 34.459999
-80.428528 55.194363 2.2647235 34.459999
-5.0570579 3.4704242 -2.0724373 34.459999
-5.4687166 3.7529263 -2.0696337 34.459999
-80.352936 55.142487 6.8146496 34.459999
-5.9808149 4.1043558 -2.0799594 34.459999
-6.5693831 4.5082626 -2.085779 34.459999
-7.3202529 5.0235496 -2.1036227 34.459999
-8.1714945 5.6077175 -2.1065612 34.459999
-9.2191992 6.3267078 -2.1066606 34.459999
-10.579755 7.306663 -2.1124303 34.630001
-11.467934 7.9200625 -1.9587222 34.630001
-13.857624 9.570447 -1.9694512 34.630001
-17.452328 12.053045 -1.978784 34.630001
-22.228199 15.351391 -1.8890053 34.630001
-3.8066127 2.6289489 -2.0597143 34.630001
-4.0514455 2.7980371 -2.0566168 34.630001
-4.3413157 2.998229 -2.0602179 34.630001
-80.034248 55.273804 0 34.630001
-4.6578512 3.2168372 -2.0603294 34.630001
-79.989655 55.243004 2.2569711 34.630001
-5.0451798 3.4843366 -2.0717971 34.630001
-5.4559865 3.7680509 -2.0690379 34.630001
-5.9654469 4.1198978 -2.0788569 34.630001
-6.562346 4.5321321 -2.087805 34.630001
-7.3117208 5.0496707 -2.1054671 34.630001
-8.1596498 5.635273 -2.1078088 34.630001
-9.2052383 6.3573847 -2.1077714 34.630001
-10.556748 7.3398643 -2.1124303 34.810001
-11.46576 7.9718795 -1.9626191 34.810001
-13.827489 9.6139345 -1.9694512 34.810001
-17.437265 12.123729 -1.981385 34.810001
-22.225729 15.453037 -1.8929117 34.810001
-3.7968347 2.6398518 -2.0589008 34.810001
-4.0396047 2.8086443 -2.0550752 34.810001
-4.3242269 3.0065353 -2.0565803 34.810001
-79.587624 55.335442 0 34.810001
-4.6446362 3.2293086 -2.0589612 34.810001
-79.51693 55.286289 2.2485225 34.810001
-5.0373201 3.5023324 -2.0730777 34.810001
-79.502861 55.276508 4.5156112 34.810001
-5.4394193 3.781903 -2.0672507 34.810001
-79.483849 55.263287 6.7694473 34.810001
-5.9508963 4.1375213 -2.0783057 34.810001
-6.5448985 4.5505171 -2.086792 34.810001
-7.2910271 5.069283 -2.1040838 34.810001
-8.1386929 5.6586461 -2.106977 34.810001
-9.1836071 6.3851504 -2.1074011 34.810001
-10.534594 7.3681841 -2.1121061 34.970001
-11.459683 8.0152178 -1.9654025 34.970001
-13.800588 9.6525106 -1.9694512 34.970001
-17.403341 12.172376 -1.981385 34.970001
-22.087664 15.44872 -1.8848199 34.970001
-3.7924426 2.6525385 -2.0605278 34.970001
-4.033258 2.8209717 -2.055846 34.970001
-4.3142877 3.0175314 -2.0558529 34.970001
-79.119751 55.338531 0 34.970001
-4.6371403 3.2433434 -2.0596454 34.970001
-79.090248 55.317894 2.2408166 34.970001
-5.0166512 3.5087838 -2.0685959 34.970001
-79.038773 55.281891 4.4980025 34.970001
-5.4350953 3.801455 -2.0696337 34.970001
-78.984245 55.243752 6.7400098 34.970001
-5.9424696 4.1563268 -2.0794082 34.970001
-6.533751 4.5698853 -2.0872984 34.970001
-7.2784371 5.0907393 -2.1045449 34.970001
-8.12286 5.6813517 -2.106977 34.970001
-9.1641302 6.4096446 -2.1070309 34.970001
-10.51914 7.4039521 -2.1134031 35.139999
-11.461765 8.0674238 -1.969856 35.139999
-13.775137 9.6957026 -1.9699159 35.139999
-17.339466 12.204473 -1.9782267 35.139999
-21.522909 15.149013 -1.8404548 35.139999
-3.7845557 2.6637793 -2.0605278 35.139999
-21.529171 15.15342 -1.2277528 35.139999
-4.0248704 2.8329263 -2.055846 35.139999
-4.3083625 3.0324636 -2.057308 35.139999
-21.55584 15.172191 0 35.139999
-4.6274967 3.2570877 -2.0596454 35.139999
-21.571287 15.183064 0.61244005 35.139999
-5.0077677 3.5247438 -2.0692363 35.139999
-21.586351 15.193666 1.2310137 35.139999
-5.4222307 3.8164656 -2.0690379 35.139999
-21.597958 15.201837 1.8468724 35.139999
-5.9285393 4.1728334 -2.0788569 35.139999
-6.5217452 4.5903645 -2.087805 35.139999
-21.564262 15.178119 3.083801 35.139999
-7.2585263 5.108952 -2.1031616 35.139999
-8.1059666 5.7054276 -2.106977 35.139999
-9.143465 6.4356756 -2.1066606 35.139999
-10.493905 7.4328489 -2.1127546 35.310001
-11.465254 8.1208563 -1.9745879 35.310001
-13.741446 9.7330866 -1.969219 35.310001
-17.311302 12.261622 -1.9791555 35.310001
-21.463213 15.202427 -1.8391992 35.310001
-3.7796173 2.6771088 -2.0621548 35.310001
-21.454769 15.196446 -1.2260758 35.310001
-4.0164471 2.8448558 -2.055846 35.310001
-21.4723 15.208863 -0.61090809 35.310001
-4.2963052 3.0430796 -2.0558529 35.310001
-21.491142 15.22221 0 35.310001
-4.6224132 3.2740624 -2.0616975 35.310001
-21.480459 15.214642 0.61114019 35.310001
-4.9926491 3.5363011 -2.0673156 35.310001
-21.489006 15.220696 1.2280324 35.310001
-5.4124413 3.8336406 -2.0696337 35.310001
-21.495775 15.225491 1.8419894 35.310001
-5.9145632 4.1892943 -2.0783057 35.310001
-21.557472 15.26919 2.4646089 35.310001
-6.5128331 4.6130495 -2.0893245 35.310001
-21.511026 15.236294 3.0826395 35.310001
-7.2465119 5.1327157 -2.1040838 35.310001
-21.526037 15.246925 3.707293 35.310001
-8.0890026 5.7294531 -2.106977 35.310001
-21.551479 15.264946 4.3389935 35.310001
-9.1259336 6.4639125 -2.1070309 35.310001
-21.570242 15.278235 4.9802213 35.310001
-10.473716 7.4680715 -2.1134031 35.490002
-11.48 8.1855812 -1.9815466 35.490002
-13.720505 9.7831278 -1.9706128 35.490002
-17.284046 12.324039 -1.980456 35.490002
-25.671452 18.304508 -2.2047231 35.490002
-3.768213 2.6868479 -2.0605278 35.490002
-4.0119982 2.8606739 -2.0581586 35.490002
-21.683266 15.460814 -0.61828911 35.490002
-4.2897577 3.0587249 -2.057308 35.490002
-21.470898 15.30939 0 35.490002
-4.6090441 3.2863858 -2.0603294 35.490002
-21.645823 15.434115 0.61722147 35.490002
-4.9861431 3.5552685 -2.0692363 35.490002
-5.4003711 3.8506253 -2.0696337 35.490002
-77.651146 55.367577 6.6688585 35.490002
-5.9013729 4.2078547 -2.0783057 35.490002
-6.4920073 4.6289945 -2.0872984 35.490002
-7.231936 5.1565857 -2.1045449 35.490002
-8.0757418 5.7582445 -2.1082246 35.490002
-9.1071815 6.4936914 -2.1074011 35.490002
-10.443789 7.4963355 -2.1121061 35.669998
-11.47997 8.2400846 -1.9860002 35.669998
-13.697771 9.8319759 -1.9717742 35.669998
-17.246862 12.379439 -1.9806418 35.669998
-25.574919 18.357145 -2.2013748 35.669998
-3.7434261 2.6869535 -2.0515797 35.669998
-3.9999926 2.8711116 -2.0566168 35.669998
-4.281641 3.0732729 -2.0580354 35.669998
-21.710283 15.58319 0 35.669998
-4.5956435 3.2986574 -2.0589612 35.669998
-21.701185 15.57666 0.62019241 35.669998
-4.9749494 3.5709155 -2.0692363 35.669998
-77.268456 55.461693 4.4354877 35.669998
-5.3820429 3.8631189 -2.0672507 35.669998
-77.212624 55.421619 6.6461177 35.669998
-5.8912482 4.2286158 -2.0794082 35.669998
-6.4868636 4.656136 -2.0903375 35.669998
-7.2125382 5.1770105 -2.1036227 35.669998
-8.0544338 5.7813053 -2.1073928 35.669998
-9.0835428 6.5199785 -2.1066606 35.669998
-10.421502 7.5272899 -2.1121061 35.84
-11.471526 8.2857065 -1.9887836 35.84
-13.683032 9.8830423 -1.9738649 35.84
-17.208441 12.429391 -1.980456 35.84
-25.483141 18.406078 -2.1981659 35.84
-3.7398806 2.7012579 -2.0540202 35.84
-3.985472 2.8786449 -2.0535336 35.84
-4.2770343 3.0892358 -2.0602179 35.84
-76.879303 55.528732 0 35.84
-4.5888829 3.3144794 -2.0603294 35.84
-21.674322 15.655028 0.62074947 35.84
-4.9643326 3.5856607 -2.0692363 35.84
-76.821754 55.487167 4.4192767 35.84
-5.3736529 3.8813064 -2.0684423 35.84
-76.745399 55.432018 6.620029 35.84
-5.8786759 4.2460766 -2.0794082 35.84
-6.465178 4.6696982 -2.087805 35.84
-7.1955686 5.197248 -2.1031616 35.84
-8.0372448 5.8051777 -2.1073928 35.84
-9.0673437 6.5492024 -2.1074011 35.84
-10.399399 7.5611534 -2.1124303 36.02
-11.474273 8.3426685 -1.9937938 36.02
-13.659949 9.9318209 -1.9750265 36.02
-17.162865 12.478707 -1.979713 36.02
-22.507652 16.364773 -1.9459265 36.02
-3.7402425 2.7194405 -2.0589008 36.02
-3.9823794 2.8954926 -2.0566168 36.02
-4.2597737 3.0971794 -2.0565803 36.02
-4.5738873 3.3255637 -2.0582771 36.02
-21.723682 15.794768 0.62358123 36.02
-4.9499784 3.5990102 -2.0679557 36.02
-76.361046 55.520283 4.4027858 36.02
-5.3614326 3.898169 -2.0684423 36.02
-76.353027 55.514454 6.6011949 36.02
-5.8637524 4.2633934 -2.0788569 36.02
-6.4473462 4.6877103 -2.086792 36.02
-7.1807795 5.2209725 -2.1036227 36.02
-8.0189676 5.8303986 -2.1073928 36.02
-9.0419559 6.5741887 -2.1062903 36.02
-10.379837 7.5913296 -2.1127546 36.18
-11.486101 8.4003992 -1.9999175 36.18
-13.620937 9.9617195 -1.9734004 36.18
-17.123129 12.52306 -1.9791555 36.18
-25.310663 18.511042 -2.1927249 36.18
-3.7341087 2.7309532 -2.0597143 36.18
-3.9772575 2.9087811 -2.0581586 36.18
-40.02467 29.272181 -1.1512554 36.18
-4.2511082 3.1090627 -2.0565803 36.18
-4.5721679 3.3438706 -2.0616975 36.18
-21.74082 15.900223 0.62534523 36.18
-4.9383793 3.6117008 -2.0673156 36.18
-75.984787 55.571735 4.3900223 36.18
-5.352067 3.9142528 -2.0690379 36.18
-75.927162 55.529591 6.5777564 36.18
-5.8487206 4.277482 -2.0777545 36.18
-6.435792 4.7068386 -2.0872984 36.18
-7.1677427 5.2421532 -2.1040838 36.18
-8.0073919 5.8562336 -2.1086404 36.18
-9.0251484 6.6005731 -2.1066606 36.18
-10.360187 7.6214552 -2.1130788 36.34
-11.489718 8.4523935 -2.0046494 36.34
-13.605867 10.009134 -1.9752588 36.34
-17.110548 12.587348 -1.9817566 36.34
-25.262087 18.584013 -2.1930041 36.34
-3.7235243 2.7392049 -2.0580873 36.34
-3.9646595 2.9165955 -2.055846 36.34
-4.2394085 3.1187141 -2.0551255 36.34
-40.282185 29.633524 0 36.34
-4.5597844 3.354398 -2.0603294 36.34
-4.9328527 3.6288455 -2.0692363 36.34
-75.557335 55.583633 4.3742771 36.34
-5.3395777 3.9280519 -2.0684423 36.34
-75.490555 55.534504 6.5533419 36.34
-5.8398499 4.2960763 -2.0788569 36.34
-6.4226232 4.7247925 -2.0872984 36.34
-7.1483731 5.2586894 -2.1027005 36.34
-7.9847035 5.8739347 -2.106977 36.34
-9.0098467 6.6280799 -2.1074011 36.34
-10.334856 7.6557689 -2.1130788 36.529999
-11.496638 8.5163841 -2.0107729 36.529999
-13.567812 10.050651 -1.9745618 36.529999
-17.071913 12.64639 -1.9821281 36.529999
-25.217955 18.680748 -2.1945386 36.529999
-3.7056115 2.745012 -2.0532067 36.529999
-30.00231 22.224861 -1.7411953 36.529999
-3.9564488 2.9308252 -2.0566168 36.529999
-4.2350311 3.1371911 -2.0580354 36.529999
-40.177265 29.76218 0 36.529999
-4.5501456 3.3706191 -2.0610135 36.529999
-4.9223146 3.6463113 -2.0698764 36.529999
-75.077217 55.615074 4.3571343 36.529999
-5.3234544 3.943464 -2.0672507 36.529999
-75.054276 55.598083 6.5314384 36.529999
-5.8240266 4.3142738 -2.0783057 36.529999
-6.4069195 4.7460647 -2.0872984 36.529999
-7.1355867 5.2858405 -2.1040838 36.529999
-7.9651814 5.9003806 -2.106977 36.529999
-8.9830799 6.6544113 -2.1062903 36.529999
-10.316843 7.6899376 -2.1140516 36.700001
-11.495138 8.5682125 -2.0149481 36.700001
-13.536339 10.089676 -1.9743296 36.700001
-17.045492 12.705318 -1.9834286 36.700001
-25.135223 18.735218 -2.192167 36.700001
-3.7150295 2.7690976 -2.0629683 36.700001
-3.9447761 2.9403455 -2.0550752 36.700001
-4.230185 3.1530828 -2.0602179 36.700001
-39.97493 29.796394 0 36.700001
-4.5371113 3.3818586 -2.0596454 36.700001
-4.909955 3.6597676 -2.0692363 36.700001
-74.634758 55.631035 4.3410163 36.700001
-5.313261 3.9603827 -2.0678465 36.700001
-74.652237 55.644062 6.5107903 36.700001
-5.8112001 4.3315353 -2.0783057 36.700001
-6.3990149 4.7696786 -2.0893245 36.700001
-7.1183114 5.3058257 -2.1036227 36.700001
-7.9460707 5.9228187 -2.1065612 36.700001
-8.9680243 6.6845589 -2.1074011 36.700001
-10.290823 7.7181463 -2.1134031 36.869999
-11.490263 8.6177292 -2.0185666 36.869999
-13.507932 10.130986 -1.9745618 36.869999
-16.999754 12.749864 -1.9824997 36.869999
-25.058775 18.794151 -2.1903534 36.869999
-3.7009504 2.7757232 -2.0597143 36.869999
-38.089752 28.567421 -2.2203524 36.869999
-3.937511 2.9531443 -2.055846 36.869999
-4.2148495 3.161149 -2.057308 36.869999
-39.902348 29.92687 0 36.869999
-4.5300641 3.3975608 -2.0610135 36.869999
-4.8960428 3.6720459 -2.0679557 36.869999
-74.279175 55.709587 4.3299294 36.869999
-5.296905 3.9726934 -2.0660591 36.869999
-74.241013 55.680965 6.489305 36.869999
-5.7967849 4.3476048 -2.0777545 36.869999
-6.3801913 4.785161 -2.087805 36.869999
-7.1009808 5.3257551 -2.1031616 36.869999
-7.9315925 5.9487166 -2.1073928 36.869999
-8.9481506 6.7111382 -2.1074011 36.869999
-10.269675 7.7528157 -2.1140516 37.049999
-11.501069 8.6824236 -2.0252469 37.049999
-13.472867 10.170979 -1.9740973 37.049999
-16.967562 12.809206 -1.9834286 37.049999
-24.993238 18.867975 -2.1897953 37.049999
-3.6834626 2.7807312 -2.0548334 37.049999
-3.9326327 2.9688354 -2.0581586 37.049999
-4.2063847 3.1754973 -2.0580354 37.049999
-4.522368 3.4140403 -2.0623815 37.049999
-4.8844829 3.6874092 -2.0679557 37.049999
-73.794464 55.709148 4.3118553 37.049999
-5.2843981 3.9893146 -2.0660591 37.049999
-73.779099 55.697548 6.4641929 37.049999
-5.7830977 4.3657942 -2.0777545 37.049999
-6.3620381 4.8028498 -2.086792 37.049999
-7.0842142 5.3480372 -2.1031616 37.049999
-7.9097424 5.9712477 -2.1065612 37.049999
-8.9254551 6.7380323 -2.1070309 37.049999
-10.241913 7.7796712 -2.1130788 37.220001
-11.506801 8.740469 -2.0308139 37.220001
-13.44263 10.210909 -1.9740973 37.220001
-16.938997 12.86672 -1.9845433 37.220001
-24.897429 18.911879 -2.1863074 37.220001
-3.6781058 2.7938583 -2.0564604 37.220001
-37.693401 28.631592 -2.2074022 37.220001
-3.9223371 2.9793744 -2.0573876 37.220001
-4.1999116 3.1902175 -2.0594902 37.220001
-73.520935 55.845886 0 37.220001
-4.5107217 3.4263065 -2.0616975 37.220001
-4.8750296 3.7030315 -2.0685959 37.220001
-73.47612 55.811844 4.3029113 37.220001
-5.275579 4.0072856 -2.0672507 37.220001
-73.426041 55.773808 6.4477305 37.220001
-5.7731805 4.3852596 -2.0788569 37.220001
-6.3477602 4.8217053 -2.086792 37.220001
-7.068315 5.3690329 -2.1031616 37.220001
-7.8904328 5.9935069 -2.1061454 37.220001
-8.9054232 6.7644849 -2.1070309 37.220001
-10.225261 7.817802 -2.1147001 37.400002
-11.504458 8.7958231 -2.0352674 37.400002
-13.416797 10.257916 -1.9750265 37.400002
-16.89691 12.918662 -1.9843575 37.400002
-24.858496 19.005754 -2.1881211 37.400002
-3.6707618 2.8065095 -2.0572739 37.400002
-37.525497 28.690409 -2.202837 37.400002
-3.9129577 2.9916821 -2.0573876 37.400002
-4.1869082 3.201133 -2.0580354 37.400002
-73.08297 55.876148 0 37.400002
-4.4939632 3.4358945 -2.0589612 37.400002
-4.8633718 3.7183287 -2.0685959 37.400002
-72.982994 55.799713 4.2842779 37.400002
-5.261447 4.0226803 -2.0666549 37.400002
-72.992111 55.806686 6.4249897 37.400002
-5.751739 4.3975368 -2.0761006 37.400002
-6.3341179 4.8427987 -2.0872984 37.400002
-7.0483208 5.3888483 -2.1022394 37.400002
-7.8700104 6.0170774 -2.1057296 37.400002
-8.8903732 6.797204 -2.1085122 37.400002
-10.198891 7.8456998 -2.1140516 37.57
-11.498717 8.8456173 -2.0388858 37.57
-13.386302 10.297679 -1.9750265 37.57
-16.863239 12.972383 -1.9849149 37.57
-23.170036 17.824011 -2.0441437 37.57
-3.6667631 2.8207304 -2.0597143 37.57
-37.313526 28.704172 -2.1953838 37.57
-3.8996758 2.9999032 -2.0550752 37.57
-4.1818218 3.2169497 -2.0602179 37.57
-4.4867282 3.4515049 -2.0603294 37.57
-4.8508162 3.7315869 -2.0679557 37.57
-72.582756 55.835728 4.2704892 37.57
-5.2510018 4.0394373 -2.0672507 37.57
-72.622215 55.866085 6.4069924 37.57
-5.7356186 4.4122386 -2.0749979 37.57
-6.3227882 4.8639307 -2.0883114 37.57
-7.0292158 5.4073639 -2.1013172 37.57
-7.8521228 6.0404015 -2.1057296 37.57
-8.8670511 6.8211555 -2.1077714 37.57
-10.177128 7.8771338 -2.1143758 37.740002
-11.511577 8.9100018 -2.0458446 37.740002
-13.366686 10.345863 -1.9766526 37.740002
-16.845146 13.038204 -1.9873301 37.740002
-23.132826 17.90489 -2.0455389 37.740002
-3.6598227 2.832716 -2.0605278 37.740002
-37.106544 28.720598 -2.1882098 37.740002
-3.8980548 3.0171084 -2.0589294 37.740002
-4.1707854 3.2282028 -2.0594902 37.740002
-4.4749818 3.4636519 -2.0596454 37.740002
-4.8397231 3.7459631 -2.0679557 37.740002
-72.216125 55.895542 4.258657 37.740002
-5.2389932 4.0549998 -2.0672507 37.740002
-72.219475 55.898136 6.3860655 37.740002
-5.7346644 4.4386511 -2.0794082 37.740002
-6.3037386 4.8791165 -2.086792 37.740002
-7.0146799 5.4293876 -2.1017783 37.740002
-7.8388071 6.067265 -2.106977 37.740002
-8.8483276 6.8486376 -2.1081417 37.740002
-10.155091 7.9055233 -2.1143758 37.900002
-11.519469 8.9676619 -2.0516899 37.900002
-13.34558 10.389251 -1.9778141 37.900002
-16.816528 13.091311 -1.988259 37.900002
-23.078012 17.965742 -2.0451202 37.900002
-3.6533396 2.8440473 -2.0613413 37.900002
-36.933186 28.751701 -2.182713 37.900002
-3.8837893 3.0234475 -2.055846 37.900002
-4.1573439 3.2364039 -2.057308 37.900002
-4.465292 3.4761348 -2.0596454 37.900002
-4.8292437 3.7594635 -2.0679557 37.900002
-71.804367 55.898174 4.2435637 37.900002
-5.2276492 4.0696139 -2.0672507 37.900002
-71.817505 55.908401 6.3643017 37.900002
-5.7207298 4.4534669 -2.0788569 37.900002
-6.291616 4.8978891 -2.0872984 37.900002
-7.0040979 5.4525414 -2.1031616 37.900002
-7.8187466 6.0867281 -2.1061454 37.900002
-8.8291683 6.8733196 -2.1081417 37.900002
-10.136419 7.942256 -2.1156728 38.080002
-11.525537 9.0306807 -2.0578134 38.080002
-13.317566 10.434801 -1.978511 38.080002
-16.787859 13.153902 -1.9897453 38.080002
-24.628044 19.296976 -2.1878421 38.080002
-3.638634 2.8510032 -2.0580873 38.080002
-36.727879 28.777637 -2.1759119 38.080002
-3.8728189 3.0344956 -2.0550752 38.080002
-42.850365 33.574829 -1.2638742 38.080002
-4.1515555 3.2528958 -2.0594902 38.080002
-4.4528699 3.4889867 -2.0589612 38.080002
-4.817409 3.7746165 -2.0679557 38.080002
-71.447556 55.981777 4.2328496 38.080002
-5.2163415 4.0871944 -2.0678465 38.080002
-71.431068 55.968857 6.3456068 38.080002
-5.7067108 4.471417 -2.0788569 38.080002
-6.2746744 4.9164376 -2.086792 38.080002
-6.9808064 5.4697175 -2.1013172 38.080002
-7.7995858 6.1112614 -2.1061454 38.080002
-8.8152666 6.9070845 -2.1099932 38.080002
-10.10367 7.9679508 -2.1140516 38.259998
-11.529767 9.0925989 -2.0636587 38.259998
-13.290958 10.481508 -1.9794402 38.259998
-16.749578 13.209044 -1.9901168 38.259998
-24.507769 19.327305 -2.1825407 38.259998
-3.6325288 2.8646829 -2.0597143 38.259998
-36.529049 28.807518 -2.1694834 38.259998
-3.8661649 3.048933 -2.0566168 38.259998
-42.801193 33.753857 -1.2655454 38.259998
-4.1383901 3.2636149 -2.0580354 38.259998
-4.4404111 3.5017948 -2.0582771 38.259998
-4.8070149 3.7909055 -2.0685959 38.259998
-71.010925 56.000599 4.2173839 38.259998
-5.2049742 4.104744 -2.0684423 38.259998
-71.005798 55.996552 6.3234243 38.259998
-5.6926351 4.4893231 -2.0788569 38.259998
-6.2607174 4.9373236 -2.0872984 38.259998
-6.9666443 5.4940314 -2.1022394 38.259998
-7.7788119 6.1345229 -2.1057296 38.259998
-8.7919807 6.9335275 -2.109623 38.259998
-10.089111 8.0022669 -2.1156728 38.419998
-11.536917 9.1506062 -2.069504 38.419998
-13.261637 10.518582 -1.9794402 38.419998
-16.717306 13.259479 -1.9906741 38.419998
-24.417749 19.367151 -2.1793318 38.419998
-3.6259463 2.8759511 -2.0605278 38.419998
-36.321674 28.808853 -2.1619368 38.419998
-3.8590815 3.0608642 -2.0573876 38.419998
-4.1321793 3.2774742 -2.0594902 38.419998
-4.4291425 3.5130131 -2.0575931 38.419998
-4.7934408 3.8019595 -2.0673156 38.419998
-70.649216 56.036045 4.2051792 38.419998
-5.1890039 4.1157041 -2.0666549 38.419998
-70.636559 56.026005 6.3044505 38.419998
-5.6665201 4.4944501 -2.0738955 38.419998
-70.584015 55.984325 8.4050484 38.419998
-6.2469053 4.9547877 -2.0872984 38.419998
-6.9467006 5.5098362 -2.1008561 38.419998
-7.7601185 6.1550055 -2.1053138 38.419998
-8.7725849 6.9580522 -2.109623 38.419998
-10.060837 8.0314608 -2.1150243 38.599998
-11.552999 9.2226381 -2.0775762 38.599998
-13.237841 10.567629 -1.980834 38.599998
-16.686462 13.320628 -1.9919747 38.599998
-24.325602 19.418873 -2.1765416 38.599998
-3.6168933 2.8873281 -2.0605278 38.599998
-36.143555 28.853022 -2.1567194 38.599998
-3.8508887 3.0741241 -2.0581586 38.599998
-42.706402 34.092072 -1.268702 38.599998
-4.1247745 3.2927642 -2.0609453 38.599998
-4.4210219 3.5292554 -2.0589612 38.599998
-4.7829537 3.8181818 -2.0679557 38.599998
-70.227699 56.062035 4.1905518 38.599998
-5.1775408 4.1331763 -2.0672507 38.599998
-70.224754 56.059685 6.2833843 38.599998
-5.665895 4.5230246 -2.0788569 38.599998
-70.202354 56.041805 8.3805246 38.599998
-6.2313089 4.9743886 -2.0872984 38.599998
-6.9323988 5.534061 -2.1017783 38.599998
-7.7392144 6.178134 -2.104898 38.599998
-8.7476101 6.9831252 -2.1088824 38.599998
-10.041578 8.0649834 -2.1159971 38.77
-11.5611 9.2854013 -2.0839779 38.77
-13.20333 10.604372 -1.9803694 38.77
-16.645313 13.368833 -1.9917889 38.77
-24.266321 19.489714 -2.1764021 38.77
-3.6083107 2.898047 -2.0605278 38.77
-27.982986 22.474785 -1.6737425 38.77
-3.8417506 3.0855365 -2.0581586 38.77
-42.7173 34.308781 -1.2720444 38.77
-4.1048188 3.2968218 -2.0558529 38.77
-4.4119964 3.5435343 -2.0596454 38.77
-4.7730813 3.8335428 -2.0685959 38.77
-69.860115 56.108772 4.1785336 38.77
-5.1622772 4.1461291 -2.0660591 38.77
-69.838783 56.091644 6.2637129 38.77
-5.6539488 4.5410194 -2.0794082 38.77
-69.83548 56.088989 8.3565588 38.77
-6.2150135 4.9916434 -2.086792 38.77
-6.9113965 5.5509496 -2.100395 38.77
-7.7223749 6.2022943 -2.1053138 38.77
-8.7253199 7.0078182 -2.1085122 38.77
-10.020553 8.0942335 -2.1163213 38.93
-11.573643 9.3487625 -2.0909367 38.93
-13.182938 10.648691 -1.9817632 38.93
-16.601719 13.410257 -1.9910457 38.93
-24.191626 19.541103 -2.1745882 38.93
-3.6030464 2.910408 -2.0621548 38.93
-27.920116 22.552841 -1.6737425 38.93
-3.8288124 3.0927737 -2.055846 38.93
-27.45142 22.174246 -0.81929463 38.93
-4.105741 3.3164666 -2.0609453 38.93
-27.463484 22.18399 0 38.93
-4.4020839 3.555841 -2.0596454 38.93
-27.522968 22.23204 0.82143003 38.93
-4.7623572 3.8468568 -2.0685959 38.93
-40.381207 32.61845 2.4207544 38.93
-5.1432533 4.1545305 -2.0630805 38.93
-69.427338 56.080849 6.2408328 38.93
-5.6337681 4.5507503 -2.0766518 38.93
-69.460159 56.107357 8.3303633 38.93
-6.1995449 5.0077639 -2.0862854 38.93
-40.407997 32.640091 6.0744491 38.93
-6.9004102 5.5738969 -2.1017783 38.93
-7.7019811 6.2213764 -2.1044822 38.93
-8.711832 7.0370965 -2.1099932 38.93
-9.9964933 8.123929 -2.1163213 39.099998
-11.578131 9.4092913 -2.096782 39.099998
-13.158992 10.694023 -1.9829247 39.099998
-16.563402 13.460712 -1.9912316 39.099998
-24.107218 19.591404 -2.1722167 39.099998
-3.5915594 2.918781 -2.0605278 39.099998
-27.86393 22.644402 -1.6743947 39.099998
-3.8210514 3.1052842 -2.0566168 39.099998
-27.189995 22.09671 -0.81344551 39.099998
-4.0944371 3.3274589 -2.0602179 39.099998
-27.273375 22.164471 0 39.099998
-4.3915138 3.5688865 -2.0596454 39.099998
-27.382402 22.253075 0.81920177 39.099998
-4.7509227 3.86097 -2.0685959 39.099998
-69.120285 56.172531 4.1535645 39.099998
-5.1383119 4.1757927 -2.0660591 39.099998
-69.082588 56.141895 6.2247887 39.099998
-5.6262088 4.5722961 -2.0788569 39.099998
-69.100204 56.156212 8.3071404 39.099998
-6.1876621 5.0285769 -2.0872984 39.099998
-40.389595 32.823734 6.0862966 39.099998
-6.8778005 5.589437 -2.0999339 39.099998
-7.6865244 6.2466688 -2.1053138 39.099998
-8.6863384 7.0591955 -2.1088824 39.099998
-9.9649162 8.153285 -2.1153486 39.290001
-11.58212 9.4764795 -2.103184 39.290001
-13.131145 10.743891 -1.9840863 39.290001
-16.534086 13.528174 -1.9930893 39.290001
-24.026676 19.658606 -2.1708214 39.290001
-3.5818605 2.930675 -2.0605278 39.290001
-35.33115 28.907917 -2.1288626 39.290001
-3.8107328 3.1179383 -2.0566168 39.290001
-27.071693 22.150036 -0.81209928 39.290001
-4.0804968 3.3386588 -2.0587628 39.290001
-27.12233 22.191465 0 39.290001
-4.3767457 3.5810494 -2.0582771 39.290001
-27.313101 22.347555 0.81934106 39.290001
-4.7380929 3.8767035 -2.0685959 39.290001
-27.358835 22.384975 1.6484944 39.290001
-5.1303468 4.1976452 -2.0684423 39.290001
-68.667503 56.183685 6.2041407 39.290001
-5.6095276 4.5897107 -2.0783057 39.290001
-68.636185 56.158066 8.2736988 39.290001
-6.1679583 5.0466175 -2.0862854 39.290001
-6.8622398 5.6146784 -2.1008561 39.290001
-7.6612253 6.2684073 -2.1040664 39.290001
-8.6659241 7.0904508 -2.109623 39.290001
-9.949728 8.1873503 -2.1169696 39.450001
-11.584668 9.5326967 -2.1084726 39.450001
-13.099557 10.779255 -1.9838539 39.450001
-16.503933 13.580621 -1.9940183 39.450001
-23.928549 19.690128 -2.1669152 39.450001
-3.5694301 2.9371831 -2.0580873 39.450001
-27.200573 22.382584 -1.642718 39.450001
-3.8077111 3.1332581 -2.0597003 39.450001
-27.029804 22.242064 -0.81270278 39.450001
-4.0769119 3.3547757 -2.0616727 39.450001
-27.037088 22.248056 0 39.450001
-4.3725333 3.5980344 -2.0610135 39.450001
-27.18111 22.36657 0.8172521 39.450001
-4.7331009 3.8947353 -2.071157 39.450001
-27.277706 22.446054 1.6473763 39.450001
-5.108285 4.2034636 -2.0642719 39.450001
-68.297737 56.200279 6.1848879 39.450001
-5.5966892 4.6053576 -2.0783057 39.450001
-68.311493 56.211597 8.2534485 39.450001
-6.1523471 5.062593 -2.085779 39.450001
-6.8450313 5.6325827 -2.100395 39.450001
-7.6436906 6.2897773 -2.1040664 39.450001
-8.6476068 7.1158719 -2.1099932 39.450001
-9.9194841 8.217782 -2.1163213 39.639999
-11.571295 9.5862226 -2.1118126 39.639999
-13.045382 10.807428 -1.9810663 39.639999
-16.487944 13.659412 -1.9975482 39.639999
-23.850832 19.759186 -2.1657989 39.639999
-3.5652983 2.9536662 -2.0613413 39.639999
-27.098507 22.449718 -1.6410409 39.639999
-3.7916155 3.1411583 -2.0566168 39.639999
-26.938961 22.317543 -0.81219214 39.639999
-4.0571566 3.3611455 -2.057308 39.639999
-26.986265 22.356731 0 39.639999
-4.3518944 3.6053205 -2.0569091 39.639999
-27.075996 22.43107 0.81632364 39.639999
-4.7128644 3.9043655 -2.0679557 39.639999
-67.958572 56.300182 4.1154594 39.639999
-5.0972581 4.222816 -2.0654635 39.639999
-67.905121 56.255898 6.1661935 39.639999
-5.579906 4.6226649 -2.0777545 39.639999
-67.900818 56.252338 8.2263241 39.639999
-6.1325455 5.0804982 -2.0847659 39.639999
-6.8278136 5.6564922 -2.1008561 39.639999
-7.6242976 6.3163381 -2.1044822 39.639999
-8.6269894 7.147017 -2.110734 39.639999
-9.896574 8.2484407 -2.1166453 39.810001
-11.548886 9.6255846 -2.112926 39.810001
-13.014785 10.847359 -1.9812986 39.810001
-16.450401 13.710823 -1.9979197 39.810001
-23.773708 19.814537 -2.1641247 39.810001
-3.5579224 2.9654014 -2.0621548 39.810001
-34.738918 28.95365 -2.1089249 39.810001
-3.789367 3.1583021 -2.0604711 39.810001
-26.917168 22.4345 -0.81353837 39.810001
-4.0543218 3.3791325 -2.0609453 39.810001
-27.001238 22.504568 0 39.810001
-4.3455091 3.6218269 -2.0589612 39.810001
-27.119911 22.603477 0.81966597 39.810001
-4.6968927 3.9146924 -2.066035 39.810001
-67.554893 56.304592 4.1011119 39.810001
-5.0861731 4.2391438 -2.0660591 39.810001
-67.474297 56.237419 6.1421971 39.810001
-5.5691195 4.6416621 -2.0788569 39.810001
-67.51181 56.268688 8.1993856 39.810001
-6.1129856 5.0949554 -2.0832465 39.810001
-6.8035259 5.670496 -2.0985503 39.810001
-7.6025176 6.3364272 -2.1036506 39.810001
-8.6072559 7.1738405 -2.1111042 39.810001
-9.8781052 8.2828407 -2.1179423 39.98
-11.526346 9.6648989 -2.1140394 39.98
-12.990153 10.892308 -1.9824601 39.98
-16.432537 13.778764 -2.0007064 39.98
-23.705641 19.877296 -2.1632879 39.98
-3.5477083 2.974771 -2.0613413 39.98
-34.576317 28.992413 -2.1042666 39.98
-3.774323 3.1647885 -2.0573876 39.98
-26.976118 22.61961 -0.8173449 39.98
-4.0485606 3.394738 -2.0631278 39.98
-27.060015 22.689957 0 39.98
-4.3333035 3.6334968 -2.0582771 39.98
-27.244242 22.844431 0.82546872 39.98
-4.6881604 3.9310458 -2.0673156 39.98
-67.185463 56.335342 4.0888138 39.98
-5.0691838 4.250536 -2.0642719 39.98
-5.5553226 4.6581655 -2.0788569 39.98
-67.156876 56.311375 8.1765337 39.98
-6.0993242 5.1143136 -2.0837529 39.98
-6.7911448 5.6944089 -2.0999339 39.98
-7.5851827 6.3602133 -2.1040664 39.98
-8.5904512 7.203136 -2.112215 39.98
-9.8489609 8.3082952 -2.1169696 40.150002
-11.485509 9.688839 -2.1118126 40.150002
-12.950187 10.924398 -1.9812986 40.150002
-16.385494 13.822324 -1.9999634 40.150002
-23.63131 19.934681 -2.1618927 40.150002
-3.5388663 2.9852841 -2.0613413 40.150002
-34.380196 29.002127 -2.0975585 40.150002
-3.7649162 3.1759732 -2.0573876 40.150002
-4.0270782 3.3971255 -2.057308 40.150002
-66.866127 56.406307 0 40.150002
-4.3210673 3.6451261 -2.0575931 40.150002
-4.6750278 3.9437168 -2.0666752 40.150002
-66.839348 56.38372 4.0779133 40.150002
-5.0638466 4.2717128 -2.0672507 40.150002
-5.5311909 4.6659508 -2.0749979 40.150002
-66.787064 56.339611 8.151825 40.150002
-6.0870805 5.1348829 -2.0847659 40.150002
-6.7712445 5.7120237 -2.0990114 40.150002
-7.5647826 6.3814297 -2.1036506 40.150002
-8.5675383 7.227325 -2.1118448 40.150002
-9.8287802 8.3413124 -2.1179423 40.32
-11.468791 9.7331266 -2.1140394 40.32
-12.923775 10.967916 -1.9822278 40.32
-16.358074 13.882476 -2.0016353 40.32
-23.553804 19.989218 -2.1602185 40.32
-3.524421 2.9910421 -2.0580873 40.32
-34.187366 29.013517 -2.0910368 40.32
-3.7596977 3.1907122 -2.0597003 40.32
-4.0269241 3.4174974 -2.0624001 40.32
-66.541405 56.471161 0 40.32
-4.3102331 3.6579309 -2.0575931 40.32
-4.6604171 3.9551187 -2.0653949 40.32
-66.435661 56.381416 4.0634723 40.32
-5.0409603 4.2780714 -2.0630805 40.32
-5.5173221 4.6823416 -2.0749979 40.32
-66.417671 56.36615 8.1271152 40.32
-6.0673928 5.1491656 -2.0832465 40.32
-6.7572341 5.7346077 -2.0999339 40.32
-7.5487986 6.4063783 -2.1044822 40.32
-8.5520515 7.2578006 -2.1133261 40.32
-9.8024874 8.3691568 -2.1176181 40.490002
-11.451912 9.777401 -2.1162663 40.490002
-12.885132 11.001054 -1.9812986 40.490002
-16.325899 13.938708 -2.0027502 40.490002
-23.473148 20.040878 -2.1582654 40.490002
-3.5183101 3.0038588 -2.0597143 40.490002
-33.996292 29.025316 -2.0846083 40.490002
-3.7431965 3.1958621 -2.055846 40.490002
-4.0068483 3.4209626 -2.057308 40.490002
-66.131714 56.461864 0 40.490002
-4.2965021 3.6682627 -2.0562251 40.490002
-4.6601892 3.9787712 -2.0705166 40.490002
-66.085754 56.422623 4.0522923 40.490002
-5.0311489 4.2954888 -2.0642719 40.490002
-5.5048671 4.6999393 -2.0755494 40.490002
-66.047203 56.389706 8.1022205 40.490002
-6.0520883 5.1671453 -2.0832465 40.490002
-6.7401896 5.7546315 -2.0999339 40.490002
-7.5282693 6.4274774 -2.1040664 40.490002
-8.5274897 7.2805905 -2.1125853 40.490002
-9.782073 8.3990688 -2.1182666 40.650002
-11.435082 9.8183737 -2.1182146 40.650002
-12.867926 11.048639 -1.9833894 40.650002
-16.303532 13.998514 -2.0047936 40.650002
-23.37925 20.073856 -2.1547775 40.650002
-3.509908 3.0136721 -2.0597143 40.650002
-33.819614 29.038147 -2.0787389 40.650002
-3.7384577 3.2099092 -2.0581586 40.650002
-4.0001068 3.4345658 -2.0587628 40.650002
-4.2919455 3.6851437 -2.0589612 40.650002
-4.6418724 3.9855978 -2.0673156 40.650002
-65.733917 56.440361 4.0403671 40.650002
-5.0220308 4.3120089 -2.0654635 40.650002
-5.4888039 4.7127886 -2.0744467 40.650002
-65.687019 56.400093 8.0773249 40.650002
-6.0405712 5.1865463 -2.0842595 40.650002
-6.7211404 5.770896 -2.0990114 40.650002
-7.5058384 6.4446521 -2.1028187 40.650002
-8.5056343 7.3030953 -2.112215 40.650002
-9.7526731 8.430171 -2.1179423 40.84
-11.417444 9.8691912 -2.1209981 40.84
-12.834222 11.093848 -1.9838539 40.84
-16.257021 14.052502 -2.0047936 40.84
-23.314062 20.15258 -2.154917 40.84
-3.4998949 3.0252948 -2.0597143 40.84
-33.636982 29.075668 -2.0734284 40.84
-3.7250004 3.2198751 -2.0566168 40.84
-3.9901047 3.4490299 -2.0594902 40.84
-4.2782793 3.698127 -2.0582771 40.84
-4.62433 3.9972517 -2.0653949 40.84
-65.355949 56.493416 4.0286279 40.84
-5.0077043 4.328639 -2.0654635 40.84
-5.4745998 4.7322216 -2.0749979 40.84
-65.318848 56.461338 8.0550308 40.84
-6.020411 5.2040186 -2.0832465 40.84
-6.6975493 5.7893343 -2.0976281 40.84
-7.484426 6.4695067 -2.1028187 40.84
-8.4873171 7.3364019 -2.1136963 40.84
-9.7350636 8.4655457 -2.1195636 41.009998
-11.395584 9.9095221 -2.1223898 41.009998
-12.802749 11.133183 -1.9840863 41.009998
-16.213753 14.099368 -2.0046079 41.009998
-23.230078 20.200718 -2.1526847 41.009998
-3.4922819 3.0368648 -2.0605278 41.009998
-33.464634 29.100618 -2.0681179 41.009998
-3.7210009 3.2357571 -2.0597003 41.009998
-34.294651 29.822395 -1.0551627 41.009998
-3.9798536 3.4608538 -2.0594902 41.009998
-65.044586 56.562328 0 41.009998
-4.2672882 3.7108047 -2.0582771 41.009998
-4.6153092 4.0134416 -2.0666752 41.009998
-64.995079 56.519279 4.0167027 41.009998
-4.9905167 4.3397198 -2.0636761 41.009998
-5.4576335 4.7459211 -2.0738955 41.009998
-64.964699 56.492863 8.0319939 41.009998
-6.0049438 5.2218585 -2.0832465 41.009998
-6.68328 5.8117347 -2.0985503 41.009998
-7.4681501 6.4942527 -2.1036506 41.009998
-8.4640293 7.3602624 -2.1133261 41.009998
-9.7084179 8.4930935 -2.1192393 41.18
-11.367622 9.9445944 -2.122668 41.18
-12.771154 11.172428 -1.9843185 41.18
-16.161356 14.138235 -2.0033076 41.18
-23.135502 20.23934 -2.1494761 41.18
-3.4818809 3.0460103 -2.0597143 41.18
-33.287926 29.120855 -2.0625279 41.18
-3.7113838 3.2467833 -2.0597003 41.18
-3.9695675 3.472647 -2.0594902 41.18
-34.447048 30.134876 0 41.18
-4.2619171 3.7283993 -2.0610135 41.18
-4.6033807 4.0271177 -2.0666752 41.18
-64.648163 56.55534 4.0056157 41.18
-4.9848037 4.3607931 -2.0666549 41.18
-5.4478693 4.7658911 -2.0755494 41.18
-64.621445 56.531963 8.0102577 41.18
-5.987968 5.2383785 -2.0827398 41.18
-6.6689363 5.8341017 -2.0994725 41.18
-7.4459033 6.5138063 -2.1028187 41.18
-8.4436331 7.3866372 -2.1136963 41.18
-9.6831694 8.5248556 -2.1195636 41.360001
-11.339297 9.9828749 -2.1232247 41.360001
-12.737483 11.213807 -1.9845508 41.360001
-16.121344 14.192885 -2.0038648 41.360001
-23.085281 20.323788 -2.1507316 41.360001
-3.4736657 3.058141 -2.0605278 41.360001
-33.149788 29.184364 -2.0596397 41.360001
-3.7011654 3.2584269 -2.0597003 41.360001
-3.9572401 3.4838696 -2.0587628 41.360001
-64.325569 56.630856 0 41.360001
-4.2473617 3.7392864 -2.0596454 41.360001
-4.5892844 4.0403075 -2.066035 41.360001
-64.251244 56.565418 3.9920135 41.360001
-4.9639139 4.3701239 -2.0636761 41.360001
-5.4270978 4.7779007 -2.0733442 41.360001
-64.235764 56.551792 7.9844332 41.360001
-5.9700294 5.2558861 -2.0822334 41.360001
-6.6520357 5.8563099 -2.0999339 41.360001
-7.4254031 6.5371661 -2.1028187 41.360001
-8.4218607 7.4144258 -2.1140666 41.360001
-9.6578331 8.5535479 -2.1195636 41.529999
-11.302215 10.00991 -2.1218331 41.529999
-12.707129 11.254185 -1.9850154 41.529999
-16.07469 14.236695 -2.0033076 41.529999
-22.987539 20.359123 -2.1472437 41.529999
-3.4618413 3.0660114 -2.0589008 41.529999
-32.982288 29.211065 -2.0546086 41.529999
-3.6900997 3.2681706 -2.0589294 41.529999
-3.9482806 3.4968307 -2.0594902 41.529999
-63.988075 56.671623 0 41.529999
-4.2362485 3.7518721 -2.0596454 41.529999
-4.5758576 4.0526505 -2.0653949 41.529999
-63.930573 56.620697 3.9825103 41.529999
-4.9566426 4.3898959 -2.0660591 41.529999
-5.4128976 4.7939825 -2.0733442 41.529999
-63.888802 56.583702 7.9621391 41.529999
-5.9573054 5.2761421 -2.0832465 41.529999
-6.6317167 5.8734403 -2.0990114 41.529999
-7.4089031 6.5617628 -2.1036506 41.529999
-8.3865824 7.4276533 -2.110734 41.529999
-9.6412783 8.5870476 -2.1211848 41.689999
-11.277176 10.044066 -2.1223898 41.689999
-12.69197 11.304159 -1.9875708 41.689999
-16.039331 14.285501 -2.0038648 41.689999
-22.905268 20.400679 -2.144872 41.689999
-3.4614522 3.082958 -2.0637817 41.689999
-32.803616 29.216686 -2.0485528 41.689999
-3.682337 3.2796898 -2.0597003 41.689999
-3.9398913 3.5090818 -2.0602179 41.689999
-63.669762 56.70776 0 41.689999
-4.2299652 3.7674372 -2.0616975 41.689999
-4.5673528 4.0679331 -2.0666752 41.689999
-63.582741 56.630253 3.9706781 41.689999
-4.947216 4.40626 -2.0672507 41.689999
-5.3994894 4.8090792 -2.0733442 41.689999
-63.535736 56.588387 7.9378018 41.689999
-5.9468827 5.296618 -2.0847659 41.689999
-6.6167421 5.8932309 -2.0994725 41.689999
-7.3890896 6.5811257 -2.1032348 41.689999
-8.3599377 7.4458156 -2.1092527 41.689999
-9.6142874 8.6142988 -2.1208606 41.860001
-11.256175 10.085412 -2.1240599 41.860001
-12.649497 11.333814 -1.986177 41.860001
-15.996875 14.333029 -2.0038648 41.860001
-22.838694 20.463224 -2.1443141 41.860001
-3.4522896 3.0932148 -2.0637817 41.860001
-32.637924 29.243231 -2.0436149 41.860001
-3.6670918 3.285675 -2.0566168 41.860001
-3.9239123 3.5157833 -2.057308 41.860001
-63.283752 56.701565 0 41.860001
-4.2131691 3.7749546 -2.0589612 41.860001
-4.5510292 4.0776734 -2.0647545 41.860001
-63.215054 56.640011 3.9581938 41.860001
-4.9284329 4.415823 -2.0648677 41.860001
-5.3866286 4.8263617 -2.0738955 41.860001
-63.201447 56.627823 7.9169936 41.860001
-5.9253774 5.3090749 -2.0827398 41.860001
-6.5963287 5.9102402 -2.0985503 41.860001
-7.3709874 6.6043258 -2.1036506 41.860001
-8.3421993 7.4745216 -2.1103635 41.860001
-9.5827379 8.6434898 -2.1202121 42.049999
-11.219728 10.12003 -2.1235032 42.049999
-12.622169 11.385012 -1.9878031 42.049999
-15.924119 14.363323 -2.0007064 42.049999
-22.744043 20.514795 -2.1418028 42.049999
-3.4420133 3.1046457 -2.0637817 42.049999
-3.6643982 3.305234 -2.0612419 42.049999
-3.9177654 3.5337675 -2.0602179 42.049999
-62.929043 56.761082 0 42.049999
-4.1992326 3.7876465 -2.0582771 42.049999
-4.5374823 4.0927429 -2.0647545 42.049999
-62.871113 56.708828 3.9484112 42.049999
-4.9165978 4.4346995 -2.0660591 42.049999
-5.3834424 4.8557868 -2.0788569 42.049999
-62.849178 56.689045 7.8963718 42.049999
-5.9091759 5.3299909 -2.0832465 42.049999
-62.774525 56.621708 9.8860502 42.049999
-6.5752482 5.9307785 -2.0980892 42.049999
-7.3490462 6.6287327 -2.1036506 42.049999
-8.3246651 7.5087261 -2.112215 42.049999
-9.5614347 8.6758633 -2.1211848 42.220001
-11.188185 10.151945 -2.1232247 42.220001
-12.588333 11.422413 -1.9878031 42.220001
-15.872583 14.402479 -1.9995918 42.220001
-22.675686 20.575485 -2.1411052 42.220001
-3.4300802 3.1123893 -2.0621548 42.220001
-32.92255 29.873295 -2.0731487 42.220001
-3.6477418 3.3098912 -2.0573876 42.220001
-37.560478 34.081661 -1.1775301 42.220001
-3.908643 3.546628 -2.0609453 42.220001
-62.566322 56.771484 0 42.220001
-4.1893678 3.801352 -2.0589612 42.220001
-4.5281253 4.1087341 -2.066035 42.220001
-62.513195 56.723278 3.936486 42.220001
-4.9005904 4.446702 -2.0648677 42.220001
-5.3547735 4.8588195 -2.0733442 42.220001
-62.50816 56.718712 7.8746352 42.220001
-5.8890371 5.3435998 -2.081727 42.220001
-62.441486 56.658211 9.860033 42.220001
-6.5576224 5.9502611 -2.0980892 42.220001
-7.3278971 6.6491942 -2.1032348 42.220001
-8.3038044 7.5347137 -2.1125853 42.220001
-9.5341311 8.7058582 -2.1211848 42.400002
-11.157699 10.188378 -2.1235032 42.400002
-12.547985 11.457885 -1.9871062 42.400002
-15.83167 14.456302 -2.0001493 42.400002
-22.562315 20.602224 -2.1365013 42.400002
-3.4216347 3.1243818 -2.0629683 42.400002
-32.79018 29.941549 -2.0707264 42.400002
-3.6414139 3.3250678 -2.0597003 42.400002
-3.8919787 3.553865 -2.0580354 42.400002
-62.235538 56.828857 0 42.400002
-4.1787925 3.8157618 -2.0596454 42.400002
-4.5123963 4.1203842 -2.0647545 42.400002
-62.172401 56.771206 3.9262376 42.400002
-4.8894162 4.4646506 -2.0660591 42.400002
-5.3366437 4.8730254 -2.0722415 42.400002
-62.141438 56.742931 7.8508549 42.400002
-5.8693628 5.3594651 -2.080714 42.400002
-62.081284 56.688 9.8312273 42.400002
-6.5360227 5.9682088 -2.097167 42.400002
-7.306972 6.6721826 -2.1032348 42.400002
-8.2829952 7.5634141 -2.1133261 42.400002
-9.5068054 8.7327728 -2.1208606 42.57
-11.125961 10.220099 -2.1232247 42.57
-12.508082 11.48969 -1.986177 42.57
-15.80484 14.518029 -2.0021927 42.57
-22.499619 20.667728 -2.1363618 42.57
-3.4083128 3.1308122 -2.0605278 42.57
-32.671772 30.011679 -2.0688632 42.57
-3.630173 3.334609 -2.0589294 42.57
-3.8827891 3.5666573 -2.0587628 42.57
-4.1688366 3.8294151 -2.0603294 42.57
-4.5015469 4.1350365 -2.0653949 42.57
-61.815357 56.782429 3.9143121 42.57
-4.8775539 4.4804296 -2.0666549 42.57
-5.3249931 4.891439 -2.0733442 42.57
-61.783623 56.753277 7.8268886 42.57
-5.8548603 5.3781648 -2.0812204 42.57
-6.5225854 5.9915247 -2.0985503 42.57
-7.2842617 6.6911864 -2.1024029 42.57
-8.2576227 7.5852981 -2.1125853 42.57
-9.4809322 8.7579479 -2.1205363 42.73
-11.106107 10.259192 -2.1248949 42.73
-12.474489 11.523227 -1.9859446 42.73
-17.140699 15.833608 -2.1770153 42.73
-22.425695 20.715588 -2.1348271 42.73
-3.3995566 3.1403179 -2.0605278 42.73
-32.470436 29.994349 -2.0614097 42.73
-3.6222026 3.3459857 -2.0597003 42.73
-3.8769195 3.5812786 -2.0609453 42.73
-61.550201 56.85659 0 42.73
-4.1567459 3.8397665 -2.0596454 42.73
-4.4885902 4.1463051 -2.0647545 42.73
-61.515671 56.824692 3.9053681 42.73
-4.8509989 4.4810781 -2.0606976 42.73
-5.3099008 4.9049854 -2.072793 42.73
-61.471306 56.78371 7.8073812 42.73
-5.8412399 5.3958068 -2.081727 42.73
-6.5043988 6.0083952 -2.0980892 42.73
-7.2684221 6.7141566 -2.1032348 42.73
-8.2378521 7.6096616 -2.1129558 42.73
-9.4577961 8.7887268 -2.1211848 42.900002
-11.072717 10.289404 -2.1243382 42.900002
-12.457706 11.576415 -1.9887322 42.900002
-17.029459 15.824751 -2.1688409 42.900002
-22.336363 20.756229 -2.1321764 42.900002
-3.3902242 3.1503906 -2.0605278 42.900002
-32.044693 29.777767 -2.0399814 42.900002
-3.6149626 3.3592305 -2.0612419 42.900002
-3.8703706 3.5965705 -2.0631278 42.900002
-61.277214 56.942299 0 42.900002
-4.1439581 3.8508036 -2.0589612 42.900002
-4.4762678 4.159605 -2.0647545 42.900002
-61.128735 56.804325 3.8914864 42.900002
-4.8376818 4.4954515 -2.0606976 42.900002
-5.2939157 4.9194102 -2.0722415 42.900002
-61.112915 56.789627 7.7832294 42.900002
-5.826622 5.4144311 -2.0822334 42.900002
-6.4865432 6.027668 -2.0980892 42.900002
-7.2484689 6.735693 -2.1032348 42.900002
-8.2209969 7.6394219 -2.1144369 42.900002
-9.4344635 8.8224401 -2.1221576 43.080002
-11.030211 10.31467 -2.1223898 43.080002
-12.464804 11.656199 -1.9957013 43.080002
-16.972389 15.871371 -2.167912 43.080002
-22.262302 20.818123 -2.1313393 43.080002
-3.3803101 3.1610258 -2.0605278 43.080002
-31.879484 29.811428 -2.0354164 43.080002
-3.6043916 3.3705707 -2.0612419 43.080002
-3.8536098 3.603622 -2.0602179 43.080002
-60.874519 56.925522 0 43.080002
-4.133213 3.8650868 -2.0596454 43.080002
-4.4617944 4.1723528 -2.0641143 43.080002
-60.811352 56.866455 3.8826354 43.080002
-4.823535 4.5106273 -2.0606976 43.080002
-5.2784348 4.936017 -2.0722415 43.080002
-60.80621 56.861645 7.7668805 43.080002
-5.806757 5.4300661 -2.0812204 43.080002
-6.468996 6.0493455 -2.0985503 43.080002
-7.2258434 6.7570953 -2.1028187 43.080002
-8.1926498 7.6611838 -2.1133261 43.080002
-9.4069147 8.8460474 -2.1215091 43.240002
-11.011464 10.354929 -2.1243382 43.240002
-12.547975 11.799829 -2.0142853 43.240002
-16.932354 15.922798 -2.1684694 43.240002
-22.191 20.867908 -2.1300838 43.240002
-3.3741317 3.1729565 -2.0621548 43.240002
-31.876158 29.975611 -2.0405405 43.240002
-3.5922763 3.3780944 -2.0597003 43.240002
-3.8421743 3.6130929 -2.0594902 43.240002
-42.945976 40.385414 0 43.240002
-4.1224036 3.8766139 -2.0596454 43.240002
-4.4501252 4.1847963 -2.0641143 43.240002
-60.48349 56.877289 3.8718281 43.240002
-4.8220472 4.534543 -2.0654635 43.240002
-5.2646303 4.950738 -2.0722415 43.240002
-60.460049 56.855247 7.7429142 43.240002
-5.7901611 5.4449353 -2.080714 43.240002
-6.4449892 6.0607204 -2.0962448 43.240002
-7.2083712 6.7785873 -2.1032348 43.240002
-8.1683607 7.6813393 -2.1125853 43.240002
-9.3775282 8.8771935 -2.1215091 43.43
-10.975627 10.390025 -2.1240599 43.43
-12.89972 12.21146 -2.077239 43.43
-16.876566 15.976122 -2.1680977 43.43
-22.101393 20.92218 -2.1281304 43.43
-3.3596108 3.1803598 -2.0597143 43.43
-31.856377 30.156689 -2.0456645 43.43
-3.5783739 3.3874509 -2.0581586 43.43
-3.8355834 3.6309371 -2.0624001 43.43
-4.1136198 3.8941391 -2.0616975 43.43
-4.4375997 4.2008328 -2.0647545 43.43
-60.158165 56.948444 3.8630705 43.43
-4.7986646 4.5426331 -2.0618889 43.43
-5.2509766 4.9708123 -2.0733442 43.43
-60.110653 56.903469 7.7222924 43.43
-5.7748833 5.4667664 -2.081727 43.43
-6.4276824 6.0847354 -2.097167 43.43
-7.185853 6.802454 -2.1032348 43.43
-8.1485519 7.713789 -2.1140666 43.43
-9.3525772 8.9063387 -2.1218333 43.599998
-10.947619 10.425277 -2.1246166 43.599998
-13.208681 12.578457 -2.1329913 43.599998
-16.811785 16.009645 -2.1658683 43.599998
-22.0161 20.965649 -2.1258984 43.599998
-3.3514829 3.1915739 -2.0605278 43.599998
-23.920918 22.779583 -1.5404208 43.599998
-3.5709803 3.4005985 -2.0597003 43.599998
-3.8180478 3.6358778 -2.0587628 43.599998
-4.1020479 3.9063272 -2.0616975 43.599998
-4.4264884 4.2152877 -2.0653949 43.599998
-59.799404 56.946201 3.8508656 43.599998
-4.7865477 4.5581679 -2.0624847 43.599998
-5.2334204 4.9837189 -2.0722415 43.599998
-59.759853 56.908539 7.6988835 43.599998
-5.7600389 5.4852109 -2.0822334 43.599998
-6.4096003 6.1037798 -2.097167 43.599998
-7.1613879 6.8196974 -2.1019871 43.599998
-8.1227827 7.7352214 -2.1133261 43.599998
-9.3263769 8.9280634 -2.1211848 43.75
-10.914566 10.448423 -2.1235032 43.75
-13.231668 12.666567 -2.1420512 43.75
-16.761183 16.045341 -2.1647537 43.75
-21.949608 21.012178 -2.1247821 43.75
-3.3444357 3.2016006 -2.0613413 43.75
-23.835222 22.817263 -1.5387437 43.75
-3.5620654 3.4099357 -2.0597003 43.75
-3.808516 3.6458609 -2.0587628 43.75
-4.0877342 3.9131541 -2.0596454 43.75
-4.4140687 4.2255516 -2.0647545 43.75
-59.504353 56.963028 3.8414557 43.75
-4.7745981 4.5706835 -2.0624847 43.75
-5.2231326 5.0000615 -2.0733442 43.75
-59.484074 56.943615 7.6825347 43.75
-5.741466 5.4962583 -2.080714 43.75
-6.3950047 6.1218853 -2.0976281 43.75
-7.1435094 6.8384228 -2.1019871 43.75
-8.1039238 7.7578192 -2.1136963 43.75
-9.3008385 8.9660435 -2.1224818 43.950001
-10.87375 10.482335 -2.122668 43.950001
-13.213116 12.737494 -2.1462326 43.950001
-16.703638 16.102369 -2.1645679 43.950001
-21.844526 21.058205 -2.1217129 43.950001
-3.3332396 3.2132554 -2.0613413 43.950001
