# .PCD v0.7 - Point Cloud Data file format
VERSION 0.7
FIELDS x y z intensity
SIZE 4 4 4 4
TYPE F F F F
COUNT 1 1 1 1
WIDTH 1215
HEIGHT 1
VIEWPOINT 0 0 0 1 0 0 0
POINTS 1215
DATA ascii
3.1065869 -3.3985713 -1.9232606 227.57001
3.3422213 -3.6563528 -1.9343641 227.57001
40.223606 -44.004177 0 227.57001
3.6074612 -3.9465225 -1.9460946 227.57001
3.9130936 -4.2808805 -1.9597563 227.57001
4.185111 -4.578465 -1.9355901 227.57001
4.5320859 -4.9580512 -1.9261539 227.57001
17.820761 -19.495712 2.4642372 227.57001
4.9147892 -5.3767242 -1.9069834 227.57001
5.4083433 -5.916667 -1.8993472 227.57001
14.643918 -16.020283 3.050396 227.57001
6.0912957 -6.6638098 -1.9190249 227.57001
6.0693169 -6.6397653 -1.6948823 227.57001
6.0122118 -6.6166081 -1.4688119 227.74001
6.0108767 -6.6151385 -1.2561764 227.74001
6.0221853 -6.6275845 -1.0472147 227.74001
2.8936152 -3.184505 -1.9157296 227.74001
6.5174732 -7.1726627 -0.4519524 227.74001
3.0940073 -3.4050422 -1.9217188 227.74001
3.3363695 -3.6717684 -1.937274 227.74001
40.24754 -44.293552 0 227.74001
3.5982635 -3.9599905 -1.9474627 227.74001
3.8991005 -4.29107 -1.959116 227.74001
4.1702242 -4.5894489 -1.9349943 227.74001
4.5199409 -4.9743223 -1.9272563 227.74001
17.733376 -19.516079 2.46015 227.74001
4.9027176 -5.3955789 -1.9085029 227.74001
5.3894553 -5.9312477 -1.8988861 227.74001
18.612007 -20.483038 3.8896098 227.74001
6.0978093 -6.7108107 -1.9273413 227.74001
6.037694 -6.6446524 -1.6915495 227.74001
5.9742017 -6.6164212 -1.4645967 227.92
5.9781194 -6.62076 -1.2536713 227.92
5.9880219 -6.6317277 -1.0448917 227.92
2.8835964 -3.1935797 -1.9157296 227.92
6.5029407 -7.2019992 -0.4525114 227.92
3.0870051 -3.4188545 -1.9240314 227.92
3.3235693 -3.6808491 -1.9365466 227.92
40.259647 -44.587513 0 227.92
3.5858052 -3.9712751 -1.9474627 227.92
40.35466 -44.692738 1.3980325 227.92
3.8894098 -4.3075171 -1.9610367 227.92
4.1557856 -4.6025276 -1.9349943 227.92
18.732353 -20.746059 1.9545764 227.92
4.5055799 -4.9899244 -1.9278077 227.92
17.705339 -19.608643 2.4647946 227.92
4.8883362 -5.4138265 -1.909516 227.92
18.382082 -20.358135 3.2076178 227.92
5.3707952 -5.9481497 -1.8988861 227.92
18.572784 -20.569338 3.8948984 227.92
6.0845628 -6.738646 -1.9298363 227.92
6.0075693 -6.6533761 -1.6889575 227.92
5.9402061 -6.6204677 -1.4613544 228.10001
5.9440632 -6.6247668 -1.2508879 228.10001
5.9578719 -6.6401567 -1.0432656 228.10001
2.8735492 -3.2026231 -1.9157296 228.10001
6.4696093 -7.2104974 -0.45176607 228.10001
3.0762494 -3.4285357 -1.9240314 228.10001
3.3045242 -3.6829524 -1.9321816 228.10001
40.295681 -44.910271 0 228.10001
3.5733113 -3.9825206 -1.9474627 228.10001
3.8809197 -4.3253555 -1.9635977 228.10001
4.1451306 -4.6198239 -1.9367816 228.10001
18.503199 -20.622152 1.9374163 228.10001
4.4937329 -5.008347 -1.9294615 228.10001
18.383068 -20.488266 2.5680904 228.10001
4.8751802 -5.4334774 -1.9110354 228.10001
18.031485 -20.096418 3.1574407 228.10001
5.3572812 -5.970787 -1.9007305 228.10001
18.514687 -20.634954 3.8962901 228.10001
6.0738144 -6.7693768 -1.9331629 228.10001
6.0417657 -6.7336578 -1.7045102 228.10001
5.912498 -6.6267219 -1.4590846 228.25999
5.9163103 -6.6309953 -1.2489394 228.25999
5.9274035 -6.6434283 -1.0411749 228.25999
2.8670275 -3.2133617 -1.9173565 228.25999
6.4507785 -7.2300262 -0.45185924 228.25999
3.070349 -3.4412441 -1.9263439 228.25999
34.24102 -38.377304 -1.1941025 228.25999
3.2967072 -3.6949463 -1.9336365 228.25999
34.250248 -38.387646 0 228.25999
3.5659299 -3.9966908 -1.9495149 228.25999
19.007408 -21.303484 0.6628539 228.25999
3.8700874 -4.3375902 -1.9642378 228.25999
18.591543 -20.837383 1.3022863 228.25999
4.1372981 -4.6370797 -1.9391646 228.25999
18.060343 -20.242016 1.8969575 228.25999
4.4822893 -5.0237455 -1.930564 228.25999
4.8651404 -5.4528451 -1.9130615 228.25999
5.3457689 -5.9915328 -1.902575 228.25999
18.388426 -20.60973 3.8818161 228.25999
6.0522823 -6.7833924 -1.9323312 228.25999
5.9117174 -6.6258473 -1.6730343 228.25999
5.9728241 -6.7368207 -1.4791876 228.44
5.8809967 -6.6332474 -1.2458776 228.44
5.8933253 -6.6471529 -1.0388519 228.44
2.8544941 -3.2196186 -1.9157296 228.44
6.4187551 -7.2397919 -0.45120707 228.44
3.0546255 -3.4453492 -1.9232606 228.44
3.2850828 -3.7052848 -1.9336365 228.44
40.362827 -45.525723 0 228.44
3.5558498 -4.0106864 -1.9508829 228.44
19.078339 -21.518688 0.66768169 228.44
3.8576984 -4.3511448 -1.9648781 228.44
18.31658 -20.659492 1.2875659 228.44
4.1201763 -4.6471972 -1.9379731 228.44
18.032398 -20.338961 1.9007244 228.44
4.4690356 -5.0406795 -1.9316666 228.44
17.55175 -19.796833 2.4683244 228.44
4.8492694 -5.4695501 -1.9135679 228.44
17.994936 -20.296707 3.1720755 228.44
5.3320842 -6.0141225 -1.9044195 228.44
18.268404 -20.605154 3.8701255 228.44
6.0270486 -6.7979813 -1.9310838 228.44
5.9725041 -6.7792449 -1.4843755 228.62
5.845727 -6.6353436 -1.2428157 228.62
5.861908 -6.6537104 -1.0369934 228.62
2.8443654 -3.2285702 -1.9157296 228.62
6.4065447 -7.271914 -0.4519524 228.62
3.0474465 -3.4590828 -1.9255731 228.62
3.2746577 -3.7169847 -1.9343641 228.62
40.417919 -45.877403 0 228.62
3.5432324 -4.0218372 -1.9508829 228.62
18.795197 -21.333973 0.660115 228.62
3.8465149 -4.366086 -1.9661585 228.62
18.266113 -20.733423 1.2885908 228.62
4.1030326 -4.6572528 -1.9367816 228.62
17.833887 -20.242815 1.886494 228.62
4.4544487 -5.0561371 -1.9322178 228.62
18.039719 -20.47645 2.5459821 228.62
4.8358998 -5.4891129 -1.9150875 228.62
18.617861 -21.132685 3.2935691 228.62
5.3118773 -6.0293837 -1.9039583 228.62
18.085751 -20.528698 3.8450744 228.62
5.9836779 -6.7919278 -1.9240148 228.62
5.8543787 -6.6451635 -1.6685907 228.62
5.9418454 -6.7825365 -1.4814572 228.78
5.8102088 -6.6322756 -1.2391973 228.78
5.8328328 -6.6581006 -1.035135 228.78
2.8353384 -3.2365007 -1.9157296 228.78
6.3980608 -7.3033004 -0.45279092 228.78
3.0389912 -3.4689677 -1.9263439 228.78
3.2740862 -3.7373254 -1.9401839 228.78
18.060558 -20.615885 0 228.78
3.5257955 -4.0246482 -1.9474627 228.78
18.697338 -21.342762 0.65876877 228.78
3.8343074 -4.3768106 -1.9661585 228.78
18.822937 -21.48613 1.3320997 228.78
4.0925269 -4.6715651 -1.9379731 228.78
17.875891 -20.40509 1.8969575 228.78
4.4415789 -5.0700026 -1.9327692 228.78
18.06776 -20.624107 2.558058 228.78
4.823102 -5.5055065 -1.9161005 228.78
18.587574 -21.217464 3.2986798 228.78
5.2963018 -6.0456576 -1.9044195 228.78
17.88871 -20.419722 3.8152914 228.78
5.8138623 -6.636446 -1.8753635 228.78
17.954283 -20.494572 4.4764719 228.78
5.8202577 -6.6437459 -1.664147 228.78
5.7831531 -6.643384 -1.4470878 228.96001
5.7789412 -6.6385455 -1.2369705 228.96001
5.8027573 -6.665904 -1.0335089 228.96001
2.823957 -3.244014 -1.9149162 228.96001
6.3619676 -7.3082957 -0.45185924 228.96001
3.0280781 -3.4784977 -1.9263439 228.96001
40.48336 -46.505169 -1.4315026 228.96001
3.2672219 -3.7532136 -1.9430938 228.96001
3.5131342 -4.0357046 -1.9474627 228.96001
19.038483 -21.870413 0.67320585 228.96001
3.8168063 -4.3845472 -1.9642378 228.96001
18.111277 -20.805286 1.2863548 228.96001
4.0778308 -4.6843987 -1.9379731 228.96001
4.4281535 -5.0868311 -1.9338717 228.96001
18.242151 -20.955629 2.5920565 228.96001
4.8095932 -5.5250096 -1.9176199 228.96001
17.361317 -19.943773 3.0921638 228.96001
5.2823939 -6.0681376 -1.9062639 228.96001
17.741245 -20.380215 3.7974772 228.96001
5.7814245 -6.641398 -1.871621 228.96001
17.858709 -20.51515 4.4686899 228.96001
5.7774191 -6.636797 -1.6578518 228.96001
5.7414632 -6.6351433 -1.4415756 229.13
5.7462592 -6.640686 -1.234187 229.13
5.7738547 -6.6725764 -1.0318828 229.13
2.8167105 -3.255142 -1.916543 229.13
6.3520212 -7.3407369 -0.45269775 229.13
3.0080831 -3.4763026 -1.9201771 229.13
3.2487571 -3.7544384 -1.9387289 229.13
18.09133 -20.907312 0 229.13
3.5122125 -4.0589013 -1.953619 229.13
18.993134 -21.949486 0.67390221 229.13
3.8037803 -4.3958526 -1.9642378 229.13
18.16712 -20.9949 1.2947397 229.13
4.0651631 -4.6979213 -1.9385688 229.13
17.600779 -20.340405 1.8809136 229.13
4.4180732 -5.1057625 -1.9360768 229.13
17.326408 -20.023329 2.4703681 229.13
4.7969775 -5.5436449 -1.9191395 229.13
17.286469 -19.977171 3.0893762 229.13
5.2681866 -6.0881991 -1.9076474 229.13
17.770119 -20.536104 3.8166831 229.13
5.7450523 -6.6392913 -1.8662153 229.13
17.802927 -20.574018 4.4699869 229.13
5.7461271 -6.6405334 -1.6545191 229.13
5.7087526 -6.6346946 -1.438009 229.28999
5.7173586 -6.6446962 -1.2319603 229.28999
5.7435379 -6.6751223 -1.0297921 229.28999
5.8922133 -6.8479118 -0.63171464 229.28999
2.8076093 -3.262995 -1.916543 229.28999
6.3445277 -7.3735905 -0.4536294 229.28999
3.009197 -3.4972794 -1.9271147 229.28999
25.968742 -30.180792 -0.92439312 229.28999
3.2394753 -3.7649081 -1.9394565 229.28999
18.002872 -20.922882 0 229.28999
3.5045416 -4.0729675 -1.9556712 229.28999
18.164948 -21.111246 0.64660633 229.28999
3.7939615 -4.4093304 -1.9655184 229.28999
18.122755 -21.062208 1.2957646 229.28999
4.0557642 -4.7135963 -1.9403561 229.28999
4.4000363 -5.1137085 -1.934423 229.28999
17.275621 -20.077673 2.4711113 229.28999
4.7840018 -5.5599518 -1.9201525 229.28999
17.939325 -20.849028 3.2164452 229.28999
5.2625885 -6.1161637 -1.9117974 229.28999
5.7175579 -6.644928 -1.8633046 229.28999
18.293753 -21.260942 4.6081138 229.28999
5.7198696 -6.6476145 -1.6522973 229.28999
5.6903248 -6.6531034 -1.4383332 229.46001
5.6847453 -6.6465797 -1.2291769 229.46001
5.713378 -6.680057 -1.0279337 229.46001
5.8563075 -6.8471699 -0.63004047 229.46001
2.799103 -3.2726994 -1.9173565 229.46001
6.3265176 -7.3969374 -0.45390892 229.46001
2.996408 -3.5033875 -1.9255731 229.46001
3.2282903 -3.7745032 -1.9394565 229.46001
17.875715 -20.900209 0 229.46001
3.4899983 -4.0804911 -1.9543031 229.46001
17.948875 -20.98575 0.64112854 229.46001
3.7833252 -4.4234476 -1.9667988 229.46001
18.07057 -21.128033 1.29651 229.46001
4.036797 -4.7198057 -1.9379731 229.46001
4.3910923 -5.1340461 -1.9371793 229.46001
17.434715 -20.384596 2.5025086 229.46001
4.7712569 -5.5785332 -1.921672 229.46001
17.744396 -20.746672 3.192518 229.46001
5.2456832 -6.1332302 -1.9122585 229.46001
17.083843 -19.974356 3.6939325 229.46001
5.7143469 -6.68119 -1.8687103 229.46001
5.7001204 -6.6645565 -1.6522973 229.46001
5.6567311 -6.6584001 -1.435415 229.64999
5.6511321 -6.6518102 -1.2266717 229.64999
5.6809058 -6.6868558 -1.0260752 229.64999
2.789418 -3.283356 -1.91817 229.64999
6.3148885 -7.4331017 -0.45484057 229.64999
2.9859688 -3.5147111 -1.9263439 229.64999
40.629807 -47.824356 -1.4569416 229.64999
3.2169621 -3.7866077 -1.9401839 229.64999
40.658886 -47.858582 0 229.64999
3.4703636 -4.0848804 -1.9508829 229.64999
17.929674 -21.104582 0.64293903 229.64999
3.7747695 -4.4431891 -1.9699999 229.64999
17.953842 -21.13303 1.2931559 229.64999
4.017415 -4.7288013 -1.9361858 229.64999
17.317278 -20.383747 1.8703105 229.64999
4.3765326 -5.1515098 -1.9382819 229.64999
17.078217 -20.102352 2.4608932 229.64999
4.7564893 -5.5987477 -1.9231915 229.64999
16.924391 -19.921289 3.056854 229.64999
5.2240558 -6.1491084 -1.9117974 229.64999
16.923904 -19.920715 3.6736131 229.64999
5.6554284 -6.656867 -1.8566514 229.64999
17.511972 -20.612915 4.4437232 229.64999
5.6589007 -6.6609545 -1.6467427 229.64999
18.389202 -21.645481 5.3512659 229.64999
5.6203971 -6.6555529 -1.4311999 229.82001
5.6211486 -6.6564426 -1.224445 229.82001
5.6482239 -6.6885047 -1.0237522 229.82001
5.6955304 -6.744524 -0.82357991 229.82001
2.7784851 -3.2902219 -1.9173565 229.82001
6.3134303 -7.4762278 -0.45633125 229.82001
2.9755273 -3.523555 -1.9263439 229.82001
3.2033088 -3.7932892 -1.9387289 229.82001
3.4606533 -4.098031 -1.952251 229.82001
17.95212 -21.258512 0.64600283 229.82001
3.7603474 -4.4529219 -1.9693598 229.82001
18.936422 -22.424103 1.3687142 229.82001
4.007062 -4.7450762 -1.9379731 229.82001
17.052052 -20.192671 1.848128 229.82001
4.363709 -5.1674099 -1.9393845 229.82001
17.041624 -20.180323 2.4642372 229.82001
4.7398567 -5.6128359 -1.9231915 229.82001
16.822914 -19.921333 3.0491881 229.82001
5.2045321 -6.163095 -1.9113363 229.82001
16.983561 -20.111567 3.6994994 229.82001
5.6306033 -6.6676388 -1.8549881 229.82001
5.625164 -6.6611977 -1.6426694 229.82001
18.323629 -21.698446 5.3508954 229.82001
5.5791636 -6.6489882 -1.426012 230
5.5925708 -6.6649661 -1.2227749 230
5.6182451 -6.6955643 -1.0221262 230
5.7645841 -6.8699636 -0.62711072 230
2.7704837 -3.301734 -1.9189835 230
6.2886276 -7.4944944 -0.45623809 230
2.964443 -3.5328856 -1.9263439 230
40.164688 -47.866409 -1.450721 230
3.191376 -3.803334 -1.9387289 230
3.4513862 -4.1132016 -1.9543031 230
18.323507 -21.837107 0.66183257 230
3.7499933 -4.4690681 -1.9712805 230
19.207474 -22.890577 1.3934966 230
3.9810903 -4.7444787 -1.9326113 230
17.12447 -20.408148 1.8629164 230
4.3449821 -5.1781483 -1.9382819 230
16.86294 -20.096468 2.4475167 230
4.7246876 -5.6306634 -1.9242045 230
16.757694 -19.971041 3.0487235 230
5.1851449 -6.1794147 -1.9113363 230
16.745886 -19.956968 3.661366 230
5.6045985 -6.6793008 -1.8533248 230
18.006058 -21.458784 4.6022773 230
5.595366 -6.6682973 -1.6400772 230
18.250317 -21.749882 5.3494143 230
5.5518265 -6.6564188 -1.4240667 230.17
5.5626221 -6.6693625 -1.2205482 230.17
5.5907202 -6.7030511 -1.0207323 230.17
5.7377858 -6.8793764 -0.62641311 230.17
2.7583344 -3.3071332 -1.9173565 230.17
6.2996335 -7.55301 -0.45866042 230.17
2.9527657 -3.5402484 -1.9255731 230.17
39.97126 -47.92395 -1.4488642 230.17
3.1824639 -3.8156476 -1.9401839 230.17
3.4355555 -4.1190944 -1.952251 230.17
17.855223 -21.4077 0.64720976 230.17
3.7330759 -4.4758096 -1.9693598 230.17
18.129841 -21.736959 1.319988 230.17
3.9841158 -4.7767963 -1.9409518 230.17
16.947554 -20.319441 1.8502207 230.17
4.3332934 -5.1954465 -1.9399357 230.17
16.884869 -20.244286 2.4594069 230.17
4.7129173 -5.6506004 -1.9262305 230.17
16.667828 -19.984062 3.0431483 230.17
5.1630478 -6.1902885 -1.9099529 230.17
16.67518 -19.992878 3.6588609 230.17
5.5609484 -6.667356 -1.8454242 230.17
16.974028 -20.351183 4.3539085 230.17
5.5642262 -6.6712856 -1.6367445 230.17
18.227247 -21.853745 5.3616343 230.17
5.5207157 -6.6591883 -1.4211484 230.34
5.536489 -6.6782141 -1.2191564 230.34
5.5644684 -6.7119632 -1.0195708 230.34
5.6315436 -6.7928705 -0.82320833 230.34
5.7084355 -6.8856192 -0.62543654 230.34
2.749676 -3.3167095 -1.91817 230.34
6.3052473 -7.6055045 -0.46071008 230.34
2.9446042 -3.5518353 -1.9271147 230.34
39.734459 -47.928432 -1.445429 230.34
3.1746957 -3.829376 -1.9423664 230.34
25.613466 -30.895432 0 230.34
3.4269173 -4.1336102 -1.9543031 230.34
17.759722 -21.422102 0.64604926 230.34
3.717361 -4.4839487 -1.9680792 230.34
17.922459 -21.618397 1.3095533 230.34
3.9699252 -4.7885962 -1.9409518 230.34
4.3178592 -5.2082806 -1.9399357 230.34
4.6998353 -5.6690273 -1.92775 230.34
16.614799 -20.041075 3.0443099 230.34
5.1396899 -6.1995878 -1.9081085 230.34
16.665085 -20.10173 3.6697164 230.34
5.6859756 -6.8585277 -1.8936597 230.34
17.809126 -21.481693 4.584444 230.34
5.548171 -6.6923051 -1.6378554 230.34
18.212502 -21.968252 5.3764467 230.34
5.4920559 -6.6623964 -1.4185545 230.5
5.5102596 -6.6844797 -1.2174863 230.5
5.5355949 -6.7152138 -1.0177125 230.5
5.6049523 -6.7993507 -0.82209361 230.5
5.6841087 -6.8953753 -0.62487847 230.5
2.7404034 -3.3243752 -1.91817 230.5
6.3182955 -7.6647048 -0.4632256 230.5
2.9323263 -3.5571964 -1.9255731 230.5
39.55595 -47.985203 -1.4438043 230.5
3.1663597 -3.8411014 -1.9438213 230.5
25.600876 -31.056347 0 230.5
3.4237287 -4.1533151 -1.9590914 230.5
17.694744 -21.465441 0.64586359 230.5
3.7024145 -4.4913878 -1.9667988 230.5
17.825167 -21.623655 1.3068515 230.5
3.9650383 -4.8099761 -1.9451221 230.5
17.165272 -20.823141 1.8870522 230.5
4.3045211 -5.2218013 -1.940487 230.5
17.700249 -21.47212 2.5961437 230.5
4.6852169 -5.6836224 -1.9282565 230.5
17.577188 -21.322834 3.2315447 230.5
5.1285467 -6.2214246 -1.910414 230.5
18.063927 -21.913296 3.9912062 230.5
5.4975681 -6.6690836 -1.8371077 230.5
17.803047 -21.596825 4.5983863 230.5
5.5532136 -6.736587 -1.6448913 230.5
5.4611802 -6.6698833 -1.4162848 230.69
5.4817896 -6.6950536 -1.2160946 230.69
5.5057454 -6.7243114 -1.0163186 230.69
5.576066 -6.8101964 -0.82116473 230.69
5.6536279 -6.9049244 -0.62404144 230.69
2.7293642 -3.3334444 -1.91817 230.69
6.3409386 -7.7443547 -0.46676594 230.69
2.9228525 -3.5697565 -1.9271147 230.69
25.469345 -31.106382 -0.9333989 230.69
3.1536047 -3.8515804 -1.9438213 230.69
25.477476 -31.116312 0 230.69
3.4135089 -4.1690083 -1.9611435 230.69
17.625998 -21.527096 0.6459564 230.69
3.6862998 -4.5021749 -1.9661585 230.69
17.757158 -21.687284 1.3071309 230.69
3.9502757 -4.8245754 -1.9457178 230.69
17.069582 -20.84753 1.8841224 230.69
4.2859631 -5.2345595 -1.9399357 230.69
17.690763 -21.606195 2.6052473 230.69
4.6675692 -5.7006249 -1.928763 230.69
16.492067 -20.142195 3.0443099 230.69
5.1128192 -6.2444205 -1.9122585 230.69
17.260923 -21.081221 3.8292086 230.69
5.4630289 -6.6721411 -1.8329495 230.69
17.67382 -21.585501 4.5834713 230.69
5.5059414 -6.7245512 -1.6374851 230.69
5.4550695 -6.7028952 -1.4198514 230.86
5.4531498 -6.7005363 -1.2141461 230.86
5.4795003 -6.732914 -1.0151571 230.86
5.5457797 -6.8143549 -0.81967843 230.86
5.6268187 -6.9139314 -0.62334383 230.86
2.7217684 -3.344362 -1.9197969 230.86
2.9157426 -3.5827072 -1.9294273 230.86
3.144515 -3.8638103 -1.9452763 230.86
25.448162 -31.269329 0 230.86
3.4034967 -4.1820331 -1.9625115 230.86
17.101383 -21.013258 0.62901253 230.86
3.6681414 -4.5072141 -1.9635977 230.86
17.184525 -21.115416 1.2695847 230.86
3.9347384 -4.834794 -1.9451221 230.86
18.618374 -22.877253 2.0625594 230.86
4.2764807 -5.2547088 -1.942692 230.86
16.788176 -20.628405 2.4813294 230.86
4.6530771 -5.7174501 -1.9297761 230.86
5.0918121 -6.2565441 -1.9113363 230.86
17.177046 -21.106228 3.8244767 230.86
5.43086 -6.6731477 -1.8287913 230.86
5.4537091 -6.7012239 -1.6278572 230.86
17.511171 -21.516783 5.2268438 230.86
5.4294338 -6.7095795 -1.2130327 231.02
5.4531794 -6.7389245 -1.0137633 231.02
5.521718 -6.8236227 -0.81893528 231.02
5.6024694 -6.9234138 -0.62278581 231.02
2.7170157 -3.3576307 -1.9230509 231.02
6.3364444 -7.8304448 -0.46974728 231.02
2.898761 -3.5822279 -1.9248022 231.02
3.1360567 -3.8754728 -1.9467312 231.02
25.345646 -31.321615 0 231.02
3.3882585 -4.1871386 -1.9604595 231.02
17.055216 -21.076475 0.62947673 231.02
3.6519649 -4.513021 -1.961677 231.02
18.069298 -22.329657 1.339553 231.02
3.9212217 -4.8457632 -1.9451221 231.02
16.955502 -20.953253 1.8848199 231.02
4.2617903 -5.2666306 -1.942692 231.02
16.771843 -20.72629 2.4874601 231.02
4.6419611 -5.7364378 -1.931802 231.02
17.756573 -21.943197 3.3010027 231.02
5.081666 -6.2798157 -1.914103 231.02
17.509237 -21.637547 3.9118776 231.02
5.3986673 -6.6715589 -1.8242172 231.02
17.295948 -21.373966 4.5173259 231.02
5.4015932 -6.6751752 -1.617859 231.02
17.413927 -21.519762 5.2157345 231.02
5.3997097 -6.7182851 -1.2113627 231.21001
5.4245801 -6.749229 -1.0126017 231.21001
5.4915748 -6.832583 -0.81782061 231.21001
5.5744805 -6.9357338 -0.62222773 231.21001
2.7024326 -3.36235 -1.9206104 231.21001
6.3129463 -7.8545284 -0.4699336 231.21001
2.8880222 -3.5932593 -1.9255731 231.21001
17.530109 -21.810852 -0.64967012 231.21001
3.123188 -3.8858511 -1.9467312 231.21001
17.613768 -21.91494 0 231.21001
3.3790643 -4.2042108 -1.9631957 231.21001
17.002766 -21.154736 0.63012666 231.21001
3.641727 -4.531014 -1.9642378 231.21001
16.819921 -20.927242 1.2520694 231.21001
3.9087193 -4.863204 -1.9469093 231.21001
17.192146 -21.390362 1.9190006 231.21001
4.2455063 -5.2822328 -1.9432434 231.21001
16.72298 -20.806627 2.4904327 231.21001
4.6217008 -5.7502918 -1.9312955 231.21001
17.037836 -21.19837 3.1804385 231.21001
5.063252 -6.2996664 -1.9150252 231.21001
17.685537 -22.004236 3.9675467 231.21001
5.3875437 -6.7031484 -1.8279595 231.21001
17.260828 -21.475815 4.5267291 231.21001
5.3695779 -6.6807952 -1.6148965 231.21001
17.362169 -21.601902 5.2216592 231.21001
5.3372836 -6.6787248 -1.4046122 231.37
5.3747454 -6.7256017 -1.209971 231.37
5.3995109 -6.7565918 -1.0114403 231.37
5.4662571 -6.8401136 -0.81689167 231.37
5.5550904 -6.9512734 -0.62222773 231.37
2.6930327 -3.3698835 -1.9206104 231.37
6.2785153 -7.8565197 -0.46900195 231.37
2.8791287 -3.6027517 -1.9263439 231.37
17.467886 -21.858158 -0.64962369 231.37
3.1204658 -3.9047451 -1.9518236 231.37
17.460106 -21.848425 0 231.37
3.363791 -4.2092261 -1.9611435 231.37
3.6302428 -4.5426464 -1.9648781 231.37
16.748943 -20.958523 1.2511377 231.37
3.898699 -4.8785748 -1.9486966 231.37
16.330221 -20.434563 1.8291543 231.37
4.2355399 -5.3000751 -1.9454484 231.37
17.61087 -22.037083 2.6318142 231.37
4.6116643 -5.7707329 -1.9338281 231.37
16.623896 -20.802048 3.1140003 231.37
5.0492849 -6.3183417 -1.9164085 231.37
16.560694 -20.722961 3.728169 231.37
5.3920088 -6.7472038 -1.8358603 231.37
17.388062 -21.758274 4.5760136 231.37
5.3521276 -6.6972995 -1.6152669 231.37
17.358219 -21.72093 5.2386932 231.37
5.3138213 -6.692368 -1.4039637 231.55
5.3462005 -6.7331476 -1.2083008 231.55
5.3733168 -6.7672987 -1.010511 231.55
5.4496946 -6.8634906 -0.81763482 231.55
5.5295029 -6.9640036 -0.62180918 231.55
2.6858411 -3.3826199 -1.9230509 231.55
6.2463489 -7.866818 -0.46844295 231.55
2.8746817 -3.6204507 -1.930969 231.55
3.0977571 -3.9013979 -1.9452763 231.55
17.401331 -21.915701 0 231.55
3.3528879 -4.2227163 -1.9625115 231.55
16.690434 -21.020376 0.6231634 231.55
3.6183102 -4.5569963 -1.9661585 231.55
16.702896 -21.036072 1.2526283 231.55
3.8797917 -4.886313 -1.9469093 231.55
17.036377 -21.456068 1.9157917 231.55
4.2176728 -5.3118496 -1.9448972 231.55
17.630709 -22.204586 2.6451907 231.55
4.5923095 -5.7836771 -1.9333216 231.55
16.512758 -20.79661 3.1054051 231.55
5.0475626 -6.3570352 -1.9233253 231.55
16.533688 -20.822968 3.7367978 231.55
5.4121456 -6.8162007 -1.8499982 231.55
17.401844 -21.916346 4.5977378 231.55
5.3445048 -6.7310119 -1.6193402 231.55
17.010019 -21.422873 5.1538939 231.55
5.2963347 -6.7087297 -1.4042879 231.71001
5.3224683 -6.7418327 -1.2071875 231.71001
5.347013 -6.7729225 -1.0091172 231.71001
5.4354424 -6.8849344 -0.81837797 231.71001
5.5075617 -6.9762859 -0.62153018 231.71001
2.6718559 -3.3843708 -1.9197969 231.71001
6.2082629 -7.8638458 -0.46723178 231.71001
2.8657038 -3.6299129 -1.9317398 231.71001
38.009754 -48.145969 -1.4241679 231.71001
3.0949311 -3.920269 -1.9503686 231.71001
3.3410828 -4.2320633 -1.9625115 231.71001
16.803883 -21.285042 0.62961602 231.71001
3.6067448 -4.5685701 -1.9667988 231.71001
17.352188 -21.979567 1.3059198 231.71001
3.8673146 -4.8986268 -1.9475051 231.71001
4.2052054 -5.3266249 -1.9459997 231.71001
16.422318 -20.801723 2.4725976 231.71001
4.5797372 -5.8010345 -1.934841 231.71001
16.434925 -20.817694 3.1016881 231.71001
5.051497 -6.3986001 -1.9316255 231.71001
17.545614 -22.224575 3.9795156 231.71001
17.347912 -21.97415 4.5996833 231.71001
16.993973 -21.525826 5.1672249 231.71001
5.2679243 -6.7160187 -1.4023424 231.89
5.2963724 -6.7522869 -1.2060741 231.89
5.3257089 -6.7896872 -1.0091172 231.89
5.4371376 -6.9317465 -0.82190782 231.89
5.4930062 -7.0029726 -0.62236726 231.89
2.6634657 -3.3956232 -1.9214239 231.89
2.853147 -3.6374457 -1.930969 231.89
37.769463 -48.151871 -1.4208256 231.89
3.0860493 -3.93437 -1.952551 231.89
17.075949 -21.769938 0 231.89
3.3370502 -4.2543683 -1.967984 231.89
16.81097 -21.432121 0.63240129 231.89
3.5958824 -4.5843511 -1.9687195 231.89
16.88109 -21.521517 1.2755474 231.89
3.8542626 -4.9137568 -1.9486966 231.89
16.859503 -21.493994 1.9102113 231.89
4.1908236 -5.3428349 -1.9471023 231.89
17.770247 -22.65509 2.686249 231.89
4.5638781 -5.8184381 -1.9358541 231.89
17.580723 -22.413471 3.331202 231.89
5.0457835 -6.4328136 -1.9371589 231.89
16.578514 -21.135765 3.7752094 231.89
17.515087 -22.329792 4.6625862 231.89
5.2528653 -6.7403183 -1.4039637 232.07001
5.2726989 -6.7657685 -1.2055174 232.07001
5.2994676 -6.8001175 -1.008188 232.07001
5.4043169 -6.9346571 -0.82023579 232.07001
5.4807897 -7.0327845 -0.62348336 232.07001
2.653908 -3.4054151 -1.9222374 232.07001
8.0757351 -10.36254 -0.61266524 232.07001
2.8439744 -3.6493025 -1.9325106 232.07001
37.603256 -48.251366 -1.4202685 232.07001
3.0645125 -3.9322901 -1.9467312 232.07001
3.3236682 -4.2648311 -1.967984 232.07001
16.732496 -21.470634 0.63198352 232.07001
3.5768037 -4.5896468 -1.9661585 232.07001
16.914097 -21.703661 1.283187 232.07001
3.8446746 -4.9333706 -1.9516753 232.07001
17.666319 -22.668888 2.0096841 232.07001
4.1728363 -5.3544579 -1.946551 232.07001
15.920396 -20.428574 2.4163051 232.07001
4.550334 -5.8388515 -1.93788 232.07001
17.134132 -21.986002 3.2596531 232.07001
5.041101 -6.4685888 -1.9431535 232.07001
16.51812 -21.195555 3.7766013 232.07001
5.5075932 -7.0671782 -1.904471 232.07001
17.523705 -22.485889 4.6836615 232.07001
5.2517853 -6.7389326 -1.6097124 232.07001
17.594145 -22.576277 5.3927398 232.07001
5.2304263 -6.7527537 -1.4033152 232.24001
5.2501755 -6.7782512 -1.2049607 232.24001
5.2780519 -6.8142409 -1.0079558 232.24001
5.3946924 -6.9648304 -0.82190782 232.24001
5.4843335 -7.0805616 -0.62627363 232.24001
2.6449113 -3.4147189 -1.9230509 232.24001
8.0596342 -10.40541 -0.61378324 232.24001
2.8342643 -3.6591835 -1.9332815 232.24001
37.366871 -48.242588 -1.4167404 232.24001
3.0585356 -3.9487298 -1.9503686 232.24001
3.3063962 -4.2687306 -1.9652478 232.24001
16.78993 -21.67668 0.63657928 232.24001
3.5666511 -4.6047335 -1.9680792 232.24001
16.863083 -21.771124 1.2842119 232.24001
3.8288507 -4.9432468 -1.9510796 232.24001
16.467661 -21.260612 1.8804951 232.24001
4.1581082 -5.3683352 -1.9471023 232.24001
4.5341744 -5.8538566 -1.9383866 232.24001
16.441149 -21.226383 3.1397858 232.24001
5.0349946 -6.500442 -1.9482257 232.24001
16.440605 -21.225681 3.7732611 232.24001
5.4602456 -7.0494628 -1.8953229 232.24001
17.507668 -22.603315 4.6972799 232.24001
5.2317672 -6.7544856 -1.6097124 232.24001
5.2079597 -6.7651153 -1.4026667 232.41
5.2348733 -6.8000765 -1.2060741 232.41
5.2541747 -6.8251491 -1.0072589 232.41
5.3484941 -6.9476695 -0.8180064 232.41
5.491293 -7.1331639 -0.62948245 232.41
2.6336534 -3.4211035 -1.9222374 232.41
8.0372562 -10.440358 -0.61443537 232.41
2.822269 -3.6661146 -1.9325106 232.41
3.0479426 -3.9592633 -1.9510961 232.41
3.2994483 -4.2859683 -1.968668 232.41
16.65114 -21.629755 0.63374752 232.41
3.5575962 -4.6213012 -1.9706402 232.41
3.8130026 -4.9530725 -1.9504838 232.41
17.36232 -22.553572 1.9902917 232.41
4.1433344 -5.3821726 -1.9476535 232.41
17.415709 -22.622925 2.6635833 232.41
4.5179658 -5.8688169 -1.9388931 232.41
16.415661 -21.323868 3.146987 232.41
5.0156856 -6.5153522 -1.9482257 232.41
5.4321451 -7.0563316 -1.892828 232.41
17.291245 -22.461246 4.657074 232.41
5.2141013 -6.7730932 -1.6104529 232.41
5.1902628 -6.7836728 -1.4033152 232.58
5.2086568 -6.807714 -1.2046824 232.58
5.2351084 -6.8422861 -1.0074911 232.58
5.3060756 -6.9350405 -0.81466228 232.58
5.4955635 -7.1827011 -0.6324122 232.58
2.6301525 -3.4376092 -1.9271182 232.58
8.0062437 -10.46416 -0.61443537 232.58
2.8046505 -3.665678 -1.9278857 232.58
36.935356 -48.274506 -1.4112163 232.58
3.0350497 -3.9668097 -1.9503686 232.58
3.2890012 -4.2987242 -1.970036 232.58
16.739979 -21.87915 0.63959664 232.58
3.5438688 -4.6318364 -1.9706402 232.58
16.67411 -21.79306 1.2796468 232.58
3.8006098 -4.9673967 -1.9516753 232.58
17.294113 -22.603403 1.9901522 232.58
4.1285152 -5.3959694 -1.9482049 232.58
17.284374 -22.590677 2.6537368 232.58
4.5028844 -5.8852696 -1.9399061 232.58
4.9975147 -6.5317512 -1.9486868 232.58
5.4159398 -7.0786328 -1.8944913 232.58
5.1963706 -6.791656 -1.6111935 232.58
5.1677232 -6.7959008 -1.4026667 232.75
5.1920314 -6.827868 -1.2055174 232.75
5.2159863 -6.8593702 -1.0077235 232.75
5.2951183 -6.9634342 -0.81614852 232.75
5.4911346 -7.2212086 -0.63436538 232.75
2.6188354 -3.4439435 -1.9263047 232.75
7.9812069 -10.49582 -0.61490124 232.75
2.7959962 -3.6769216 -1.9294273 232.75
36.737499 -48.312263 -1.4091274 232.75
3.0277772 -3.9817293 -1.9532785 232.75
3.2750945 -4.3069677 -1.969352 232.75
16.706455 -21.970102 0.64080364 232.75
3.5346978 -4.6483636 -1.9732012 232.75
16.594864 -21.823355 1.2785287 232.75
3.788166 -4.9816909 -1.9528668 232.75
16.707685 -21.971724 1.9301616 232.75
4.1148143 -5.4112558 -1.9493073 232.75
17.122047 -22.516636 2.6390598 232.75
4.4889159 -5.903224 -1.9414256 232.75
17.847137 -23.470177 3.4480495 232.75
4.9816465 -6.5511975 -1.9500703 232.75
16.942734 -22.280827 3.933867 232.75
5.4245167 -7.1336017 -1.904887 232.75
16.646376 -21.891096 4.5182986 232.75
5.1821446 -6.8148665 -1.6130451 232.75
16.643297 -21.887049 5.1805558 232.75
5.1499152 -6.8118796 -1.4029909 232.91
5.177722 -6.8486595 -1.2066308 232.91
5.1992068 -6.8770781 -1.008188 232.91
5.2864604 -6.9924903 -0.81782061 232.91
5.476964 -7.244472 -0.63506293 232.91
2.6048005 -3.4454134 -1.9230509 232.91
7.9386129 -10.500537 -0.6138764 232.91
2.7857172 -3.684715 -1.9294273 232.91
3.0177698 -3.9916549 -1.954006 232.91
3.2653213 -4.3190951 -1.9707201 232.91
16.631773 -21.999126 0.640293 232.91
3.5239887 -4.6612391 -1.9744816 232.91
16.526628 -21.860048 1.2779697 232.91
3.7776937 -4.996819 -1.9546541 232.91
16.645061 -22.016703 1.9300221 232.91
4.1043248 -5.4288597 -1.9515125 232.91
17.116747 -22.64061 2.6479776 232.91
4.4747472 -5.9188232 -1.9424386 232.91
16.546415 -21.886223 3.2085469 232.91
4.975069 -6.5806074 -1.9546814 232.91
16.958084 -22.430742 3.9519594 232.91
5.3951364 -7.1362376 -1.9015603 232.91
16.568518 -21.915455 4.5137596 232.91
5.1678352 -6.8355823 -1.6145263 232.91
16.54537 -21.884838 5.169076 232.91
5.1320381 -6.8352327 -1.4042879 233.10001
5.1621175 -6.8752947 -1.2083008 233.10001
5.1811438 -6.9006357 -1.0091172 233.10001
5.484056 -7.3040771 -0.63869029 233.10001
2.5933609 -3.4540324 -1.9230509 233.10001
7.8845553 -10.501242 -0.61238575 233.10001
2.7745912 -3.6954083 -1.9301981 233.10001
22.878252 -30.47097 -0.88465619 233.10001
3.0011609 -3.9971709 -1.9518236 233.10001
3.2464669 -4.3238878 -1.967984 233.10001
16.592344 -22.098928 0.6415928 233.10001
3.5107875 -4.67593 -1.975762 233.10001
16.329294 -21.748579 1.2682804 233.10001
3.7622492 -5.0108457 -1.9552498 233.10001
16.817532 -22.398849 1.9586222 233.10001
4.0851455 -5.4409027 -1.9509612 233.10001
16.058752 -21.388248 2.4952631 233.10001
4.4574184 -5.9367242 -1.9434516 233.10001
4.9532194 -6.5970693 -1.9546814 233.10001
16.646967 -22.171677 3.8965685 233.10001
5.3761406 -7.160347 -1.9032236 233.10001
16.673494 -22.20701 4.5623956 233.10001
5.1498594 -6.8589687 -1.6160074 233.10001
16.496307 -21.971018 5.1764822 233.10001
5.1140952 -6.8535933 -1.4049364 233.27
5.1547241 -6.9080415 -1.2113627 233.27
5.1701503 -6.9287148 -1.0109757 233.27
5.4969625 -7.3666878 -0.64273614 233.27
2.5841937 -3.463176 -1.9238644 233.27
2.7713401 -3.7139781 -1.9355941 233.27
2.9993153 -4.019496 -1.9583708 233.27
3.2437391 -4.3470578 -1.9741403 233.27
16.567358 -22.202545 0.64317113 233.27
3.4968982 -4.686326 -1.975762 233.27
16.054411 -21.515123 1.251883 233.27
3.7473652 -5.0219865 -1.9552498 233.27
4.072433 -5.4576221 -1.952615 233.27
16.010702 -21.456551 2.4976783 233.27
4.4432554 -5.9545755 -1.9449711 233.27
16.336107 -21.892637 3.1943765 233.27
4.9289684 -6.6054974 -1.952837 233.27
16.444897 -22.038429 3.8645587 233.27
5.3572116 -7.1794024 -1.9040552 233.27
16.652382 -22.316488 4.5747166 233.27
5.1353626 -6.8820944 -1.617859 233.27
16.47336 -22.076574 5.1898131 233.27
5.0960646 -6.874382 -1.4059091 233.45
5.1412525 -6.9353385 -1.2133111 233.45
5.1613708 -6.9624767 -1.013531 233.45
5.5118127 -7.4352093 -0.64720058 233.45
2.5787416 -3.4786162 -1.9279317 233.45
2.7651539 -3.7300789 -1.9394482 233.45
2.9855633 -4.0274024 -1.9576434 233.45
3.2334239 -4.3617563 -1.9761924 233.45
16.610645 -22.407078 0.64758116 233.45
3.48103 -4.6957664 -1.9751219 233.45
3.7315698 -5.0337343 -1.9552498 233.45
16.442762 -22.180613 1.9307197 233.45
4.058702 -5.4750223 -1.9542688 233.45
15.835299 -21.361168 2.480772 233.45
4.4279833 -5.9731679 -1.9464906 233.45
16.8339 -22.708239 3.3056488 233.45
4.9139872 -6.6287665 -1.9551425 233.45
16.328402 -22.026342 3.8534248 233.45
5.309 -7.161623 -1.8949071 233.45
16.414124 -22.141979 4.5283504 233.45
5.1242509 -6.9124036 -1.6211917 233.45
16.386366 -22.104534 5.1842585 233.45
5.0861812 -6.9037719 -1.4088273 233.62
5.1370988 -6.9728861 -1.2172079 233.62
5.154829 -6.9969521 -1.0163186 233.62
5.5027452 -7.4691992 -0.64873523 233.62
2.5619066 -3.4774263 -1.9230509 233.62
2.7453175 -3.7263803 -1.9332815 233.62
2.9769156 -4.0407424 -1.9598258 233.62
3.2160094 -4.3652782 -1.9734563 233.62
16.300968 -22.126261 0.63806474 233.62
3.4682059 -4.7075996 -1.975762 233.62
16.324394 -22.158058 1.2834666 233.62
3.7166181 -5.0447841 -1.9552498 233.62
16.026598 -21.753841 1.8894238 233.62
4.0435801 -5.4885883 -1.9548202 233.62
15.673815 -21.27499 2.4653521 233.62
4.4102411 -5.9862795 -1.9464906 233.62
16.437717 -22.31188 3.2408369 233.62
4.8989148 -6.6495848 -1.956987 233.62
16.238306 -22.041208 3.8475795 233.62
5.3074536 -7.2041187 -1.9019761 233.62
16.309727 -22.138149 4.5176501 233.62
5.1212053 -6.9513125 -1.6267463 233.62
16.424461 -22.293886 5.2172155 233.62
5.0773335 -6.9347563 -1.4120697 233.78999
5.1292572 -7.0056753 -1.2202698 233.78999
5.1469541 -7.0298467 -1.0188739 233.78999
5.5135608 -7.5305672 -0.65264159 233.78999
2.5515776 -3.4850123 -1.9230509 233.78999
2.7396998 -3.7419548 -1.9371357 233.78999
2.9627123 -4.0465512 -1.9583708 233.78999
3.2030432 -4.3748012 -1.9734563 233.78999
3.4564617 -4.7209268 -1.9770426 233.78999
16.004833 -21.859825 1.2634357 233.78999
3.7027614 -5.0573297 -1.9558456 233.78999
15.859443 -21.661247 1.8772862 233.78999
4.0306845 -5.5052156 -1.9564739 233.78999
15.636502 -21.356749 2.4694393 233.78999
4.3958893 -6.0040221 -1.9480102 233.78999
4.8791637 -6.6640911 -1.956987 233.78999
16.746136 -22.872316 3.9839692 233.78999
5.2895222 -7.2245698 -1.9032236 233.78999
16.478308 -22.50651 4.5828228 233.78999
5.1110072 -6.9807491 -1.630079 233.78999
5.0706687 -6.9689403 -1.4159606 233.96001
5.1247621 -7.0432839 -1.2241666 233.96001
5.1436048 -7.069181 -1.0223584 233.96001
5.5217123 -7.5888381 -0.65626889 233.96001
2.545526 -3.4984772 -1.9263047 233.96001
2.725328 -3.7455902 -1.9348232 233.96001
2.9485009 -4.0523109 -1.9569159 233.96001
3.2011061 -4.3994823 -1.9802966 233.96001
16.52112 -22.706018 0.65194482 233.96001
3.4435539 -4.7326937 -1.9776827 233.96001
15.943429 -21.912062 1.2637151 233.96001
3.688863 -5.0698376 -1.9564413 233.96001
16.738865 -23.00528 1.9894546 233.96001
4.0132012 -5.5155959 -1.9559227 233.96001
15.474651 -21.26779 2.4538333 233.96001
4.3803325 -6.0201674 -1.9490231 233.96001
16.16478 -22.216278 3.2129607 233.96001
4.8593693 -6.6785383 -1.956987 233.96001
5.2692142 -7.2418141 -1.9036394 233.96001
16.394039 -22.531364 4.5779591 233.96001
5.1307449 -7.051507 -1.6430397 233.96001
5.0626235 -7.0040293 -1.4198514 234.14
5.1211729 -7.085031 -1.2286202 234.14
5.1376624 -7.1078439 -1.0256107 234.14
5.5445948 -7.670826 -0.66184944 234.14
2.535593 -3.5079377 -1.9271182 234.14
2.7211151 -3.7646034 -1.9402192 234.14
2.9423037 -4.0706129 -1.9612807 234.14
3.186168 -4.4079943 -1.9796126 234.14
3.4286687 -4.7434888 -1.9776827 234.14
16.030167 -22.177387 1.2761064 234.14
3.6729174 -5.0814013 -1.9564413 234.14
16.685209 -23.083624 1.9916868 234.14
3.9981062 -5.5312929 -1.9570252 234.14
4.3613977 -6.0338988 -1.9490231 234.14
16.057669 -22.215433 3.2055271 234.14
4.8429246 -6.7000804 -1.9588314 234.14
16.611906 -22.98221 3.9853609 234.14
5.2693577 -7.2900419 -1.911956 234.14
16.370575 -22.648335 4.5912528 234.14
5.0602417 -7.0446658 -1.4250393 234.31
5.119771 -7.1275401 -1.2333521 234.31
5.1362519 -7.1504841 -1.0295597 234.31
5.5555654 -7.7342353 -0.66589528 234.31
2.52091 -3.5095098 -1.9238644 234.31
2.7034733 -3.7636673 -1.9355941 234.31
2.9312999 -4.0808382 -1.9620082 234.31
3.1752682 -4.4204812 -1.9809806 234.31
3.4156849 -4.7551799 -1.978323 234.31
15.94215 -22.194023 1.2743362 234.31
3.6578245 -5.0922766 -1.9564413 234.31
15.961338 -22.220736 1.913141 234.31
3.9850416 -5.5478153 -1.9586791 234.31
16.385378 -22.811066 2.6202958 234.31
4.3479905 -6.0530982 -1.9510492 234.31
4.8230238 -6.7144203 -1.9588314 234.31
16.536711 -23.021746 3.9836907 234.31
5.2511287 -7.310411 -1.9132034 234.31
16.298698 -22.690395 4.5899558 234.31
5.1426125 -7.159339 -1.6608143 234.31
5.0588999 -7.0844665 -1.4302272 234.47
5.1194134 -7.16921 -1.238084 234.47
5.1347342 -7.1906648 -1.0332766 234.47
5.5536556 -7.7773213 -0.66826701 234.47
2.5132232 -3.5195096 -1.9254912 234.47
2.6983149 -3.7787116 -1.9394482 234.47
2.9220579 -4.0920405 -1.9634632 234.47
3.1650958 -4.4323897 -1.9823488 234.47
3.4023926 -4.7646995 -1.978323 234.47
15.862696 -22.214067 1.2729387 234.47
3.6446993 -5.1040249 -1.9570371 234.47
15.632555 -21.891779 1.8810531 234.47
3.9706509 -5.5604868 -1.9592303 234.47
15.591399 -21.834145 2.5030661 234.47
4.3321948 -6.0667911 -1.9515557 234.47
16.047199 -22.472445 3.2292218 234.47
4.8019929 -6.7246947 -1.9579092 234.47
16.498829 -23.104906 3.9900928 234.47
5.237515 -7.3345985 -1.9156983 234.47
5.1294527 -7.1832685 -1.6630361 234.47
5.0536437 -7.1269617 -1.435415 234.66
5.1185231 -7.2184587 -1.2436508 234.66
5.1338415 -7.2400613 -1.0379226 234.66
5.5312967 -7.8005776 -0.66868556 234.66
2.5004816 -3.526334 -1.9246778 234.66
2.6836345 -3.7846279 -1.9379066 234.66
2.911705 -4.106267 -1.9656457 234.66
3.1503799 -4.4428611 -1.9823488 234.66
3.3898616 -4.7805929 -1.9802437 234.66
15.639872 -22.056316 1.2609202 234.66
3.6288581 -5.1176405 -1.9576328 234.66
15.573722 -21.963028 1.8827273 234.66
3.9533019 -5.5751915 -1.9597816 234.66
16.24688 -22.912357 2.6204815 234.66
4.3165293 -6.0874372 -1.9535817 234.66
15.999017 -22.562805 3.2345645 234.66
4.7819176 -6.7437568 -1.9588314 234.66
16.477108 -23.23704 4.0034533 234.66
5.2165585 -7.3567138 -1.9169458 234.66
5.1226568 -7.224288 -1.6685907 234.66
5.0541887 -7.1700816 -1.4412514 234.82001
5.1223083 -7.2667189 -1.2494961 234.82001
5.1330595 -7.281971 -1.0418718 234.82001
5.4853525 -7.7817488 -0.66575581 234.82001
2.491677 -3.5347962 -1.9254912 234.82001
2.6815615 -3.8041744 -1.9440733 234.82001
2.9002268 -4.1143818 -1.9656457 234.82001
3.1412094 -4.4562497 -1.9844009 234.82001
3.3775902 -4.7915893 -1.980884 234.82001
15.510306 -22.003563 1.2554233 234.82001
3.6189528 -5.1339965 -1.9600158 234.82001
15.333009 -21.752043 1.8609632 234.82001
3.9410408 -5.5909233 -1.9614354 234.82001
16.04286 -22.759068 2.5978158 234.82001
4.3017426 -6.1026301 -1.9545947 234.82001
15.959981 -22.641491 3.2394431 234.82001
4.772037 -6.7698092 -1.9625205 234.82001
5.1982484 -7.3744507 -1.9177774 234.82001
5.1103892 -7.2498102 -1.6711828 234.82001
5.0769176 -7.2505898 -1.454221 235
5.1221738 -7.3152223 -1.2550631 235
5.1329451 -7.3306055 -1.0465178 235
5.5180964 -7.8806586 -0.67273146 235
2.4805598 -3.5426066 -1.9254912 235
2.6643045 -3.8050213 -1.9402192 235
2.8851497 -4.1204205 -1.9641907 235
3.1250381 -4.463017 -1.9830328 235
3.3625202 -4.8021765 -1.980884 235
16.190527 -23.122469 1.3163545 235
3.601711 -5.1437764 -1.9594201 235
3.9234569 -5.6032772 -1.9614354 235
16.739977 -23.907166 2.7228484 235
4.2858787 -6.1208692 -1.9561142 235
4.7540941 -6.7895503 -1.9639038 235
5.1784215 -7.3955522 -1.9190249 235
5.1101346 -7.2980285 -1.6785889 235
5.1242013 -7.3645282 -1.2609082 235.17
5.1349978 -7.3800454 -1.0513961 235.17
5.4878531 -7.8871703 -0.67189437 235.17
2.4700379 -3.5499511 -1.9254912 235.17
2.6540573 -3.8144245 -1.94099 235.17
2.8761036 -4.1335506 -1.9663731 235.17
3.1128559 -4.4738121 -1.9837168 235.17
3.3460927 -4.8090215 -1.9796034 235.17
15.341374 -22.048702 1.2526283 235.17
3.5897045 -5.1591415 -1.9612073 235.17
16.396328 -23.564886 2.0074518 235.17
3.9079123 -5.6164718 -1.9619867 235.17
4.2665939 -6.1319704 -1.9556077 235.17
15.816837 -22.732038 3.2385137 235.17
4.7339282 -6.8036261 -1.9639038 235.17
5.1620421 -7.4189134 -1.9211041 235.17
5.1131544 -7.3486514 -1.6867356 235.17
5.0775747 -7.3438983 -1.4668664 235.34
5.1293597 -7.418797 -1.2675886 235.34
5.1368022 -7.4295616 -1.0562744 235.34
5.5166206 -7.9789076 -0.67831194 235.34
2.4563768 -3.5527556 -1.9230509 235.34
2.6437774 -3.8238006 -1.9417608 235.34
2.8648858 -4.1435986 -1.9671006 235.34
3.0974305 -4.4799371 -1.9823488 235.34
3.3371973 -4.8267212 -1.9828047 235.34
3.5765529 -5.1729107 -1.9623988 235.34
16.507879 -23.876003 2.029774 235.34
3.889044 -5.6248794 -1.9608841 235.34
4.2527823 -6.1509686 -1.9576337 235.34
4.7137208 -6.8176417 -1.9639038 235.34
5.1667085 -7.472816 -1.9310838 235.34
5.1226249 -7.4090557 -1.6971041 235.34
5.0846443 -7.4037385 -1.475621 235.52
5.132937 -7.4740572 -1.2742689 235.52
5.1381769 -7.4816871 -1.061385 235.52
5.4847498 -7.9863315 -0.67747486 235.52
2.4472721 -3.5634673 -1.9246778 235.52
2.6348858 -3.8366511 -1.9440733 235.52
2.849745 -4.149507 -1.9656457 235.52
3.0844049 -4.4911947 -1.9830328 235.52
3.3230898 -4.8387432 -1.9834448 235.52
51.404308 -74.849693 4.2344337 235.52
3.5656881 -5.1919904 -1.9653776 235.52
16.552515 -24.102077 2.0445623 235.52
3.8778841 -5.6465778 -1.9641918 235.52
16.464823 -23.974388 2.7133734 235.52
4.2367234 -6.1690831 -1.9591532 235.52
4.6966863 -6.8388338 -1.9657483 235.52
5.162034 -7.5164256 -1.9381528 235.52
5.0839782 -7.4472475 -1.4814572 235.67999
5.1421952 -7.5325265 -1.2817843 235.67999
5.1407838 -7.5304594 -1.0662634 235.67999
5.3678827 -7.8631244 -0.88823271 235.67999
15.210653 -22.281273 -1.886494 235.67999
2.4393718 -3.5733054 -1.9263047 235.67999
2.6241617 -3.8439941 -1.9440733 235.67999
2.8412974 -4.1620646 -1.967828 235.67999
3.0803282 -4.512208 -1.9885051 235.67999
3.3106329 -4.8495693 -1.9840851 235.67999
51.038521 -74.763596 4.2214832 235.67999
3.5500991 -5.2003503 -1.9647818 235.67999
3.8621008 -5.6573849 -1.9641918 235.67999
4.2216616 -6.1840863 -1.9601662 235.67999
4.6819592 -6.8583517 -1.9675927 235.67999
5.1608777 -7.5598941 -1.9456376 235.67999
5.5450921 -8.1227093 -1.8530022 235.67999
5.1531768 -7.5969219 -1.2901347 235.85001
5.146296 -7.5867782 -1.072071 235.85001
5.3735933 -7.921864 -0.89306307 235.85001
15.123197 -22.294933 -1.8838433 235.85001
2.4297845 -3.5820394 -1.9271182 235.85001
2.6137807 -3.8532906 -1.9448442 235.85001
2.8310275 -4.1735601 -1.969283 235.85001
3.0648167 -4.5182171 -1.9871371 235.85001
3.2983565 -4.8625069 -1.9853655 235.85001
3.5346539 -5.2108607 -1.9647818 235.85001
3.8463771 -5.6704102 -1.964743 235.85001
4.2130694 -6.2109957 -1.9647248 235.85001
4.6681447 -6.8818765 -1.9703594 235.85001
5.1516027 -7.5946012 -1.9506274 235.85001
5.5452399 -8.1749096 -1.8611488 235.85001
5.0769863 -7.53545 -1.4928057 236.03
5.1536312 -7.649209 -1.2962582 236.03
5.149075 -7.6424465 -1.0776461 236.03
5.3119607 -7.8842072 -0.88693219 236.03
15.058655 -22.350609 -1.8845409 236.03
2.4164774 -3.5866246 -1.9254912 236.03
2.6037247 -3.8645439 -1.9463859 236.03
2.8199837 -4.1855235 -1.9707379 236.03
3.0516572 -4.5293818 -1.9878211 236.03
3.2841232 -4.8744164 -1.9860058 236.03
3.5225332 -5.2282729 -1.9671649 236.03
3.8317668 -5.6872492 -1.9663969 236.03
4.1967797 -6.2290144 -1.9662442 236.03
4.6486764 -6.8997359 -1.9712816 236.03
5.1299043 -7.6139927 -1.9514592 236.03
5.0851183 -7.5989275 -1.5022087 236.21001
5.1427927 -7.6851134 -1.2995985 236.21001
5.1581836 -7.7081122 -1.0846152 236.21001
5.3159604 -7.9438858 -0.89176255 236.21001
14.989473 -22.399464 -1.8846804 236.21001
2.4041817 -3.59268 -1.9246778 236.21001
2.5925975 -3.8742385 -1.9471568 236.21001
2.8078568 -4.1959105 -1.9714655 236.21001
3.0374126 -4.5389466 -1.9878211 236.21001
3.270901 -4.8878589 -1.9872862 236.21001
3.5082142 -5.242487 -1.9683564 236.21001
3.8138809 -5.6992588 -1.9663969 236.21001
4.1793418 -6.2453842 -1.9672573 236.21001
4.6280594 -6.9159236 -1.9717427 236.21001
5.1113992 -7.6382003 -1.9535383 236.21001
5.8675961 -8.7682209 -1.9877928 236.21001
5.0964236 -7.664928 -1.5122602 236.38
5.1309338 -7.7168312 -1.3023819 236.38
5.1594877 -7.7597752 -1.0897259 236.38
14.935099 -22.462116 -1.8862151 236.38
2.3935115 -3.5997975 -1.9246778 236.38
2.5831347 -3.8849874 -1.9486984 236.38
2.7933319 -4.2011204 -1.9700105 236.38
3.0260131 -4.5510688 -1.9891891 236.38
3.2563841 -4.8975425 -1.9872862 236.38
3.4926441 -5.2528729 -1.9683564 236.38
3.799083 -5.7137518 -1.9674995 236.38
4.1607933 -6.2577572 -1.9672573 236.38
4.6085968 -6.9312453 -1.972204 236.38
5.0941296 -7.6614776 -1.9556173 236.38
5.8459072 -8.7921381 -1.9892741 236.38
5.0856252 -7.6981287 -1.5158268 236.55
5.126574 -7.7601132 -1.3071138 236.55
5.1736698 -7.8314023 -1.0976241 236.55
5.3104382 -8.0384293 -0.89882237 236.55
14.872786 -22.512989 -1.8867731 236.55
2.3838272 -3.6084077 -1.9254912 236.55
2.5715961 -3.8926344 -1.9486984 236.55
2.7839353 -4.2140532 -1.9721929 236.55
32.369202 -48.997375 0 236.55
3.0093889 -4.5553226 -1.9871371 236.55
20.488432 -31.013414 0.86297733 236.55
3.2418385 -4.9071827 -1.9872862 236.55
3.4812527 -5.2695847 -1.9707394 236.55
3.7831731 -5.7266026 -1.9680507 236.55
4.1443405 -6.2733035 -1.9682703 236.55
4.5912294 -6.9497604 -1.9735873 236.55
5.0756884 -7.6830878 -1.9572806 236.55
5.8230448 -8.8143644 -1.9903851 236.55
5.0855036 -7.7478318 -1.5226359 236.72
5.126349 -7.81006 -1.3129591 236.72
5.1961923 -7.9164672 -1.1073807 236.72
5.2767296 -8.0391674 -0.89715034 236.72
14.81906 -22.577032 -1.8884473 236.72
2.3731103 -3.6154649 -1.9254912 236.72
2.5620606 -3.9033329 -1.9502401 236.72
2.7724421 -4.2238522 -1.9729204 236.72
3.0010161 -4.5720878 -1.9905572 236.72
3.2283039 -4.9183636 -1.9879265 236.72
3.4656022 -5.2798905 -1.9707394 236.72
3.7661653 -5.7378025 -1.9680507 236.72
4.1257091 -6.2855725 -1.9682703 236.72
4.5748601 -6.9698601 -1.9754318 236.72
5.0571637 -7.7046556 -1.958944 236.72
5.802259 -8.839818 -1.9922365 236.72
5.0915999 -7.8075199 -1.5313904 236.89
5.1280365 -7.8633919 -1.319361 236.89
5.2128296 -7.9934144 -1.1159759 236.89
11.769699 -18.047796 -2.0101814 236.89
14.767265 -22.644299 -1.8904004 236.89
2.3653667 -3.6270814 -1.9279317 236.89
2.5434113 -3.9000969 -1.9448442 236.89
2.7639682 -4.2383013 -1.9758303 236.89
20.77054 -31.849792 0 236.89
2.9833307 -4.5746746 -1.9878211 236.89
20.881809 -32.020416 0.88753438 236.89
3.2157667 -4.9310946 -1.9892069 236.89
3.4530499 -5.2949476 -1.9725266 236.89
20.634937 -31.641857 2.6415381 236.89
3.7522748 -5.7537827 -1.9697045 236.89
4.1123257 -6.3058891 -1.9708028 236.89
4.5584126 -6.9899235 -1.9772762 236.89
5.0353498 -7.7212653 -1.9593598 236.89
5.7845941 -8.8701649 -1.995199 236.89
5.1035237 -7.879797 -1.5424145 237.07001
5.1356068 -7.9293332 -1.3277113 237.07001
5.2276468 -8.0714417 -1.1245711 237.07001
11.72052 -18.096382 -2.011482 237.07001
14.687376 -22.677183 -1.8892844 237.07001
2.3519738 -3.6314275 -1.9263047 237.07001
2.5321496 -3.9096169 -1.9456151 237.07001
2.7546904 -4.2532187 -1.9787402 237.07001
2.9709876 -4.5871792 -1.9891891 237.07001
20.482204 -31.624348 0.87476844 237.07001
3.2023194 -4.9443536 -1.9904875 237.07001
20.441589 -31.56164 1.7535865 237.07001
3.4343226 -5.3025646 -1.9713351 237.07001
20.438902 -31.557489 2.6291215 237.07001
3.7362704 -5.7687697 -1.9708071 237.07001
4.0935469 -6.3204012 -1.9713093 237.07001
4.5385466 -7.0074768 -1.9781984 237.07001
5.0185122 -7.7485399 -1.9622705 237.07001
5.7631097 -8.8981924 -1.9974208 237.07001
5.1257195 -7.9688234 -1.5566812 237.25
5.1545992 -8.0137224 -1.3391236 237.25
8.7291861 -13.571039 -1.8869842 237.25
11.658225 -18.124741 -2.0105531 237.25
14.568572 -22.649382 -1.8831458 237.25
2.3415422 -3.6403351 -1.9271182 237.25
19.910027 -30.953602 -1.7163198 237.25
2.5238481 -3.9237611 -1.9486984 237.25
19.916559 -30.963758 -0.85476071 237.25
2.7392993 -4.258718 -1.9772853 237.25
2.9606287 -4.6028128 -1.9919254 237.25
3.1857455 -4.952796 -1.9898472 237.25
3.4248769 -5.3245678 -1.9755054 237.25
20.48321 -31.844715 2.6476767 237.25
3.7222891 -5.7869468 -1.9730122 237.25
4.0757637 -6.3364844 -1.9723223 237.25
4.5144038 -7.0184269 -1.9772762 237.25
4.9962616 -7.7675586 -1.9631022 237.25
5.7319369 -8.911294 -1.9963099 237.25
6.462317 -10.112619 -1.9717097 237.42
5.175591 -8.0990734 -1.3508141 237.42
8.692091 -13.601901 -1.8876811 237.42
11.608685 -18.165962 -2.0112963 237.42
14.521718 -22.724449 -1.8857965 237.42
2.3317146 -3.6488061 -1.9279317 237.42
15.408458 -24.112072 -1.3344288 237.42
2.5121949 -3.9312322 -1.9486984 237.42
