# .PCD v0.7 - Point Cloud Data file format
VERSION 0.7
FIELDS x y z intensity
SIZE 4 4 4 4
TYPE F F F F
COUNT 1 1 1 1
WIDTH 1145
HEIGHT 1
VIEWPOINT 0 0 0 1 0 0 0
POINTS 1145
DATA ascii
-6.6188755 -4.4109039 -2.0822334 326.32001
-7.3458548 -4.8953724 -2.0916336 326.32001
-8.1738195 -5.4471388 -2.0878491 326.32001
-9.2014332 -6.1319537 -2.0833313 326.32001
-10.605367 -7.0222011 -2.0897334 326.48999
-11.983849 -7.9349446 -2.0199585 326.48999
-13.874759 -9.186986 -1.9459888 326.48999
-15.223921 -10.080315 -1.7034523 326.48999
-15.733542 -10.417754 -1.3195134 326.48999
-3.8846934 -2.5721977 -2.0743568 326.48999
-20.840431 -13.799212 -1.1656106 326.48999
-4.1376767 -2.7397072 -2.0728047 326.48999
-4.4239445 -2.9292555 -2.0718575 326.48999
-4.7370763 -3.1365914 -2.0678537 326.48999
-5.1249609 -3.393424 -2.0769191 326.48999
-5.5381474 -3.6670101 -2.0726125 326.48999
-6.0464396 -4.0035691 -2.0794082 326.48999
-6.6303205 -4.3901777 -2.081727 326.48999
-7.3603473 -4.8735552 -2.0916336 326.48999
-8.1899452 -5.4228625 -2.0878491 326.48999
-9.2146702 -6.1013703 -2.0822206 326.48999
-10.625727 -6.9877644 -2.0894091 326.67001
-12.005408 -7.8950806 -2.0194018 326.67001
-13.900233 -9.1411686 -1.9455242 326.67001
-15.555 -10.229388 -1.7368934 326.67001
-15.767859 -10.36937 -1.3196529 326.67001
-3.8912284 -2.5589769 -2.0735433 326.67001
-16.403479 -10.787371 -0.91555065 326.67001
-4.1431794 -2.7246668 -2.0712628 326.67001
-4.4300122 -2.9132955 -2.0704024 326.67001
-18.764103 -12.339781 0 326.67001
-4.7453365 -3.1206615 -2.0671697 326.67001
-5.1387625 -3.379389 -2.0781994 326.67001
-5.5528307 -3.6516914 -2.0738039 326.67001
-6.0573812 -3.9834974 -2.0788569 326.67001
-6.6424637 -4.3682632 -2.0812204 326.67001
-7.3739958 -4.8493385 -2.0911725 326.67001
-8.2118454 -5.400331 -2.0890968 326.67001
-9.2354355 -6.0734715 -2.0825908 326.67001
-10.650154 -6.9613042 -2.0903819 326.82999
-12.015803 -7.8539391 -2.0174532 326.82999
-13.910741 -9.092535 -1.9434335 326.82999
-15.401817 -10.067153 -1.716643 326.82999
-15.292408 -9.9956388 -1.2775201 326.82999
-3.8968298 -2.547101 -2.0727298 326.82999
-20.938673 -13.686231 -1.1665422 326.82999
-4.1507721 -2.7130861 -2.0712628 326.82999
-4.4428086 -2.9039712 -2.0725849 326.82999
-4.7587519 -3.1104825 -2.069222 326.82999
-5.1497655 -3.3660624 -2.0788398 326.82999
-5.5598102 -3.6340816 -2.0726125 326.82999
-6.0733094 -3.969722 -2.0805109 326.82999
-6.6578751 -4.3518143 -2.0822334 326.82999
-7.3875089 -4.8287277 -2.0911725 326.82999
-8.225256 -5.376308 -2.0886807 326.82999
-9.2540045 -6.0487332 -2.0829611 326.82999
-10.673181 -6.9259486 -2.0903819 327.01999
-12.043444 -7.8151283 -2.0177317 327.01999
-13.932485 -9.0409479 -1.9422719 327.01999
-15.547037 -10.088651 -1.7290905 327.01999
-15.907895 -10.322815 -1.3260705 327.01999
-3.9037223 -2.53317 -2.0719163 327.01999
-18.910854 -12.27147 -1.0512948 327.01999
-4.1581979 -2.6983023 -2.070492 327.01999
-4.450851 -2.8882082 -2.0718575 327.01999
-4.7643108 -3.0916157 -2.0671697 327.01999
-5.154542 -3.344841 -2.0762787 327.01999
-5.5798388 -3.620821 -2.0755913 327.01999
-6.0880527 -3.9506071 -2.0810621 327.01999
-6.6738925 -4.3307652 -2.0827398 327.01999
-7.403481 -4.8042035 -2.0911725 327.01999
-8.2430391 -5.3490024 -2.0886807 327.01999
-9.2707148 -6.0158725 -2.0822206 327.01999
-10.700317 -6.8985276 -2.0916789 327.19
-12.06325 -7.7772141 -2.017175 327.19
-13.942553 -8.9888067 -1.9399489 327.19
-15.514977 -10.002553 -1.7222165 327.19
-3.9188993 -2.5265265 -2.0759838 327.19
-21.025932 -13.555483 -1.1666354 327.19
-4.1708388 -2.6889527 -2.0728047 327.19
-4.4594011 -2.8749895 -2.0718575 327.19
-4.7845197 -3.0845947 -2.0719581 327.19
-5.1724057 -3.334666 -2.0794799 327.19
-5.5857434 -3.601146 -2.0738039 327.19
-6.0997477 -3.9325259 -2.0810621 327.19
-6.6883392 -4.3119926 -2.0832465 327.19
-7.4144311 -4.7801065 -2.0902503 327.19
-8.2572298 -5.3234615 -2.0882649 327.19
-9.2885237 -5.9883394 -2.0822206 327.19
-10.717415 -6.8646202 -2.0910304 327.35999
-12.076265 -7.7349782 -2.0155048 327.35999
-13.964143 -8.9441843 -1.939252 327.35999
-15.329947 -9.8189964 -1.6984361 327.35999
-15.888229 -10.176582 -1.319374 327.35999
-3.9186857 -2.5099604 -2.0719163 327.35999
-20.919697 -13.399291 -1.1585299 327.35999
-4.1772451 -2.6755705 -2.0720339 327.35999
-4.4679117 -2.8617456 -2.0718575 327.35999
-4.7968159 -3.0724125 -2.0733261 327.35999
-5.1727042 -3.3131728 -2.0756385 327.35999
-5.5964036 -3.5845568 -2.0738039 327.35999
-6.108151 -3.9123366 -2.0799594 327.35999
-6.7011037 -4.292129 -2.0832465 327.35999
-7.431859 -4.7601857 -2.0911725 327.35999
-8.2746363 -5.2999935 -2.0886807 327.35999
-9.3062506 -5.9607534 -2.0822206 327.35999
-10.73535 -6.8365383 -2.0910304 327.51001
-12.091462 -7.7001443 -2.0146699 327.51001
-13.977458 -8.9011936 -1.9378582 327.51001
-15.395913 -9.8045006 -1.7028949 327.51001
-15.781871 -10.050288 -1.3083525 327.51001
-3.9221611 -2.4977298 -2.0702896 327.51001
-20.107079 -12.804689 -1.1116669 327.51001
-4.1811218 -2.6626427 -2.070492 327.51001
-4.4753885 -2.8500388 -2.0718575 327.51001
-4.796917 -3.0547962 -2.069906 327.51001
-5.1877532 -3.3036904 -2.0781994 327.51001
-5.5993271 -3.5657911 -2.0714209 327.51001
-6.1199942 -3.8973646 -2.0805109 327.51001
-6.7123175 -4.2745709 -2.0832465 327.51001
-7.4393711 -4.737577 -2.0897892 327.51001
-8.2835321 -5.2751598 -2.0874333 327.51001
-9.3201656 -5.9353137 -2.0818501 327.51001
-10.749139 -6.7926979 -2.0890849 327.70999
-12.118267 -7.6578903 -2.0146699 327.70999
-14.01684 -8.8576546 -1.9390198 327.70999
-15.655619 -9.8932476 -1.72779 327.70999
-18.603106 -11.755852 -1.5388278 327.70999
-3.9385786 -2.488904 -2.0743568 327.70999
-4.1903906 -2.6480315 -2.070492 327.70999
-4.4837346 -2.8334043 -2.07113 327.70999
-4.8091397 -3.0390372 -2.07059 327.70999
-5.1960497 -3.2835371 -2.0769191 327.70999
-5.6165819 -3.5492837 -2.0732083 327.70999
-6.1335611 -3.8759782 -2.0805109 327.70999
-6.7288332 -4.2521482 -2.0837529 327.70999
-7.4575081 -4.7126193 -2.0902503 327.70999
-8.3068571 -5.2493482 -2.0886807 327.70999
-9.3358421 -5.8995943 -2.0807393 327.70999
-10.776422 -6.7679019 -2.0907061 327.87
-12.129541 -7.6177001 -2.0129998 327.87
-14.023016 -8.8068562 -1.9364644 327.87
-15.470703 -9.7160454 -1.7043812 327.87
-3.9439662 -2.4769239 -2.0735433 327.87
-4.1977692 -2.6363194 -2.070492 327.87
-4.4853191 -2.8169091 -2.0682201 327.87
-4.8191991 -3.0265954 -2.071274 327.87
-5.2019897 -3.266999 -2.0756385 327.87
-5.6216211 -3.5305393 -2.0714209 327.87
-6.144361 -3.858835 -2.0805109 327.87
-6.734127 -4.2292252 -2.081727 327.87
-7.4755836 -4.694881 -2.0916336 327.87
-8.3132 -5.2209282 -2.0866017 327.87
-9.3522806 -5.8735008 -2.0807393 327.87
-10.794281 -6.731925 -2.0900576 328.04999
-12.131567 -7.5659318 -2.0093813 328.04999
-14.045557 -8.7596045 -1.9357675 328.04999
-15.531565 -9.6863632 -1.7077253 328.04999
-15.94022 -9.9412231 -1.3136539 328.04999
-3.9470773 -2.4616208 -2.0711031 328.04999
-4.201333 -2.620189 -2.0681796 328.04999
-23.268364 -14.51147 -0.63667208 328.04999
-4.4988885 -2.8057616 -2.0704024 328.04999
-4.8302784 -3.012435 -2.0719581 328.04999
-5.2138357 -3.2516429 -2.0762787 328.04999
-5.6326847 -3.512861 -2.0714209 328.04999
-6.1564536 -3.8395128 -2.0805109 328.04999
-6.7506638 -4.2100959 -2.0827398 328.04999
-7.4886446 -4.6703424 -2.0911725 328.04999
-8.3279009 -5.1937504 -2.0861859 328.04999
-9.3740225 -5.8461709 -2.0814798 328.04999
-10.807497 -6.6957107 -2.0887606 328.22
-12.169114 -7.5392909 -2.0118864 328.22
-14.069798 -8.7168465 -1.9355352 328.22
-15.76168 -9.7650404 -1.7298336 328.22
-15.806828 -9.7930117 -1.3002607 328.22
-3.9574699 -2.4518232 -2.0727298 328.22
-18.934431 -11.730696 -1.0387173 328.22
-4.215364 -2.6115997 -2.0712628 328.22
-18.963499 -11.748705 -0.51792568 328.22
-4.5087776 -2.7933819 -2.07113 328.22
-19.031515 -11.790844 0 328.22
-4.836 -2.9961104 -2.07059 328.22
-5.225071 -3.2371569 -2.0769191 328.22
-5.6430831 -3.4961331 -2.0714209 328.22
-6.1710873 -3.8232546 -2.0816133 328.22
-6.7647705 -4.1910667 -2.0832465 328.22
-7.4975057 -4.6450281 -2.0897892 328.22
-8.3432751 -5.1690183 -2.0861859 328.22
-9.3813019 -5.8121214 -2.079258 328.22
-10.822274 -6.6605115 -2.0877881 328.39001
-12.177937 -7.4948468 -2.0096595 328.39001
-14.076989 -8.6636086 -1.9329799 328.39001
-15.768537 -9.7046633 -1.7274184 328.39001
-3.9647274 -2.4400704 -2.0727298 328.39001
-18.928318 -11.649334 -1.0364813 328.39001
-4.223094 -2.599081 -2.0712628 328.39001
-18.962515 -11.67038 -0.51695079 328.39001
-4.5106993 -2.7760861 -2.0682201 328.39001
-19.015316 -11.702876 0 328.39001
-4.8448682 -2.9817486 -2.07059 328.39001
-5.234653 -3.2216394 -2.0769191 328.39001
-5.6534314 -3.4793744 -2.0714209 328.39001
-6.1807666 -3.80392 -2.0810621 328.39001
-6.7771759 -4.1709771 -2.0832465 328.39001
-7.5145698 -4.6248021 -2.0907114 328.39001
-8.3585749 -5.1442409 -2.0861859 328.39001
-9.4018536 -5.7863212 -2.0799987 328.39001
-10.840832 -6.6302638 -2.0877881 328.54999
-12.175164 -7.4463434 -2.0057628 328.54999
-14.089266 -8.6170101 -1.9313538 328.54999
-16.488693 -10.084501 -1.8032182 328.54999
-18.48921 -11.308021 -1.5155292 328.54999
-3.9684083 -2.4270828 -2.0711031 328.54999
-21.023026 -12.857705 -1.1492132 328.54999
-4.2256126 -2.5843892 -2.0689504 328.54999
-32.047291 -19.600157 -0.87216884 328.54999
-4.5216126 -2.7654231 -2.069675 328.54999
-19.063278 -11.659122 0 328.54999
-4.8531761 -2.9682076 -2.07059 328.54999
-5.2468619 -3.2089863 -2.0781994 328.54999
-5.6647544 -3.4645696 -2.0720167 328.54999
-6.1880846 -3.7846391 -2.0799594 328.54999
-6.7871461 -4.1510258 -2.0827398 328.54999
-7.5291152 -4.604815 -2.0911725 328.54999
-8.3712387 -5.1198583 -2.0857701 328.54999
-9.4079151 -5.753891 -2.0777769 328.54999
-10.857697 -6.5912056 -2.0868154 328.73999
-12.184553 -7.3966784 -2.0032575 328.73999
-14.112669 -8.5671482 -1.9306569 328.73999
-16.675245 -10.12277 -1.8199388 328.73999
-18.599943 -11.291164 -1.5215282 328.73999
-3.9811206 -2.416754 -2.0735433 328.73999
-21.193632 -12.865673 -1.1562006 328.73999
-4.2325821 -2.5694046 -2.0681796 328.73999
-32.330887 -19.626585 -0.87811077 328.73999
-4.5307584 -2.7504137 -2.069675 328.73999
-19.197577 -11.65396 0 328.73999
-4.856566 -2.9481964 -2.0678537 328.73999
-5.2509956 -3.1876364 -2.0756385 328.73999
-5.6745801 -3.4447749 -2.0714209 328.73999
-6.1989574 -3.7631001 -2.0794082 328.73999
-6.8041821 -4.1305041 -2.0837529 328.73999
-7.5410171 -4.5778022 -2.0902503 328.73999
-8.3881702 -5.0920701 -2.0857701 328.73999
-9.4353447 -5.7277608 -2.0796282 328.73999
-10.874372 -6.5598402 -2.0864911 328.89999
-12.169548 -7.3411407 -1.9974123 328.89999
-14.131434 -8.5246267 -1.92996 328.89999
-16.822807 -10.148167 -1.8329437 328.89999
-18.687778 -11.273189 -1.5261321 328.89999
-3.984725 -2.4037397 -2.0719163 328.89999
-21.207239 -12.793024 -1.1549895 328.89999
-4.2429008 -2.5594814 -2.0697212 328.89999
-19.146111 -11.549672 -0.51913261 328.89999
-4.5352306 -2.735826 -2.0682201 328.89999
-4.8663893 -2.9355936 -2.0685377 328.89999
-5.2631216 -3.1749179 -2.0769191 328.89999
-5.6776381 -3.4249704 -2.0690379 328.89999
-6.2127342 -3.747761 -2.0805109 328.89999
-6.8173466 -4.1124864 -2.0842595 328.89999
-7.5571041 -4.5587363 -2.0911725 328.89999
-8.4040327 -5.0696368 -2.0861859 328.89999
-9.4529858 -5.7024055 -2.0799987 328.89999
-10.898313 -6.5276732 -2.0871396 329.07999
-12.161967 -7.2845545 -1.9924021 329.07999
-14.149625 -8.4750853 -1.9287984 329.07999
-16.885357 -10.113685 -1.8362877 329.07999
-18.774448 -11.245178 -1.5303175 329.07999
-3.9891219 -2.3893318 -2.0702896 329.07999
-19.387733 -11.612513 -1.0539035 329.07999
-4.2525039 -2.5470877 -2.070492 329.07999
-32.633751 -19.546373 -0.88317072 329.07999
-4.5469995 -2.7234793 -2.069675 329.07999
-4.8723631 -2.9183595 -2.0671697 329.07999
-5.2714443 -3.1573939 -2.0762787 329.07999
-5.6932836 -3.4100597 -2.0708253 329.07999
-6.2195296 -3.725261 -2.0788569 329.07999
-6.8302331 -4.0910487 -2.0842595 329.07999
-7.568049 -4.5329728 -2.0902503 329.07999
-8.4132051 -5.0391889 -2.0845227 329.07999
-9.4657955 -5.6696501 -2.0788877 329.07999
-10.927809 -6.5013628 -2.0890849 329.25
-12.149486 -7.2281847 -1.9868352 329.25
-14.162759 -8.4259558 -1.9271724 329.25
-16.9769 -10.100194 -1.842976 329.25
-3.9993341 -2.3793538 -2.0719163 329.25
-19.437555 -11.564131 -1.054742 329.25
-4.2568707 -2.5325718 -2.0689504 329.25
-32.789551 -19.507732 -0.88581675 329.25
-4.5534592 -2.7090235 -2.0689476 329.25
-19.333206 -11.502049 0 329.25
-4.8874612 -2.9077339 -2.069906 329.25
-5.2807894 -3.1417394 -2.0762787 329.25
-5.7000947 -3.3912001 -2.0696337 329.25
-6.2338595 -3.7087569 -2.0799594 329.25
-6.8373528 -4.0677977 -2.0827398 329.25
-7.5814652 -4.510498 -2.0902503 329.25
-8.4314823 -5.0162048 -2.0853543 329.25
-9.4859533 -5.6435494 -2.0796282 329.25
-10.943652 -6.4669027 -2.0884364 329.42001
-12.135072 -7.1709452 -1.9809899 329.42001
-14.184277 -8.381876 -1.9267077 329.42001
-17.029079 -10.062948 -1.8453912 329.42001
-17.327602 -10.239353 -1.4074066 329.42001
-4.0032301 -2.365618 -2.0702896 329.42001
-19.834696 -11.720862 -1.0744002 329.42001
-4.2643661 -2.5199304 -2.0689504 329.42001
-34.473988 -20.37162 -0.92968518 329.42001
-4.5630808 -2.696449 -2.069675 329.42001
-4.8912129 -2.8903513 -2.0678537 329.42001
-5.2884564 -3.1250932 -2.0756385 329.42001
-5.7167063 -3.3781579 -2.0720167 329.42001
-6.2481465 -3.6922004 -2.0810621 329.42001
-6.8493919 -4.047493 -2.0827398 329.42001
-7.598166 -4.4899635 -2.0911725 329.42001
-8.4412756 -4.9881802 -2.0841067 329.42001
-9.4992723 -5.6133795 -2.0788877 329.42001
-10.96051 -6.4304934 -2.0877881 329.60001
-12.1285 -7.1157489 -1.976258 329.60001
-14.188265 -8.3242054 -1.9236878 329.60001
-17.058891 -10.008392 -1.8452054 329.60001
-17.230623 -10.109147 -1.3969431 329.60001
-4.0090666 -2.3521054 -2.0694761 329.60001
-4.2738533 -2.5074549 -2.0697212 329.60001
-19.25819 -11.298714 -0.51838988 329.60001
-4.5699229 -2.6811578 -2.0689476 329.60001
-19.342731 -11.348313 0 329.60001
-4.9002695 -2.8749709 -2.0678537 329.60001
-5.2966137 -3.1075048 -2.0749984 329.60001
-5.7223506 -3.3572834 -2.0702295 329.60001
-6.2597151 -3.6725531 -2.0810621 329.60001
-6.8620739 -4.0259547 -2.0827398 329.60001
-7.6105556 -4.4650865 -2.0907114 329.60001
-8.4585924 -4.9626265 -2.0845227 329.60001
-9.5151653 -5.5825143 -2.0785174 329.60001
-10.979542 -6.3979445 -2.0877881 329.76999
-12.125603 -7.0657716 -1.9723612 329.76999
-14.204319 -8.277071 -1.9225264 329.76999
-17.07991 -9.9527206 -1.8442764 329.76999
-18.886097 -11.005214 -1.5285039 329.76999
-4.0191851 -2.3420396 -2.0711031 329.76999
-19.912828 -11.603505 -1.0747728 329.76999
-4.2796798 -2.493834 -2.0689504 329.76999
-4.5778575 -2.6675868 -2.0689476 329.76999
-4.9136496 -2.8632576 -2.069906 329.76999
-5.3041735 -3.090822 -2.074358 329.76999
-5.7306371 -3.3393288 -2.0696337 329.76999
-6.2656012 -3.6510601 -2.0794082 329.76999
-6.8773322 -4.007525 -2.0837529 329.76999
-7.6271329 -4.4444456 -2.0916336 329.76999
-8.4698992 -4.9355378 -2.0836909 329.76999
-9.5265932 -5.5512891 -2.0774064 329.76999
-10.989936 -6.3603964 -2.0861669 329.94
-12.119087 -7.0138903 -1.9679077 329.94
-14.2185 -8.228919 -1.9211326 329.94
-17.104195 -9.8990078 -1.8437191 329.94
-17.179794 -9.9427605 -1.3880143 329.94
-4.0245347 -2.3291891 -2.0702896 329.94
-20.00423 -11.577395 -1.0778474 329.94
-4.2870603 -2.4811249 -2.0689504 329.94
-19.347397 -11.197255 -0.51899338 329.94
-4.5873647 -2.6549253 -2.069675 329.94
-19.430506 -11.245354 0 329.94
-4.9156165 -2.8449004 -2.0671697 329.94
-5.3182406 -3.0779178 -2.0762787 329.94
-5.7388678 -3.3213546 -2.0690379 329.94
-6.2747426 -3.6314907 -2.0788569 329.94
-6.8891926 -3.987102 -2.0837529 329.94
-7.6335487 -4.4178963 -2.0897892 329.94
-8.4845057 -4.9103851 -2.0836909 329.94
-9.537919 -5.5200453 -2.0762956 329.94
-11.001915 -6.3238268 -2.0848699 330.10999
-12.105503 -6.9581618 -1.9623407 330.10999
-14.242853 -8.1866961 -1.9211326 330.10999
-17.06443 -9.8085203 -1.8362877 330.10999
-17.311274 -9.9504042 -1.3962456 330.10999
-4.0330119 -2.3181481 -2.0711031 330.10999
-19.983067 -11.486132 -1.0748659 330.10999
-4.291203 -2.4665549 -2.0674088 330.10999
-33.486027 -19.247543 -0.89672583 330.10999
-4.596837 -2.6422312 -2.0704024 330.10999
-4.9272947 -2.832176 -2.0685377 330.10999
-5.325707 -3.0611806 -2.0756385 330.10999
-5.7503524 -3.3052638 -2.0696337 330.10999
-6.2871566 -3.6138153 -2.0794082 330.10999
-6.9009924 -3.966644 -2.0837529 330.10999
-7.6499977 -4.3971672 -2.0907114 330.10999
-8.4990377 -4.8851895 -2.0836909 330.10999
-9.5559587 -5.4927011 -2.0766659 330.10999
-11.014871 -6.2853198 -2.0835729 330.29001
-12.106661 -6.908318 -1.9590006 330.29001
-14.25815 -8.1360035 -1.9197388 330.29001
-17.077866 -9.7449932 -1.83443 330.29001
-4.0386877 -2.3045611 -2.0702896 330.29001
-20.069372 -11.452011 -1.0775678 330.29001
-4.3005338 -2.4539762 -2.0681796 330.29001
-19.451904 -11.09967 -0.51996821 330.29001
-4.6018791 -2.6259301 -2.0689476 330.29001
-19.512733 -11.13438 0 330.29001
-4.9312711 -2.8138881 -2.0664856 330.29001
-5.3369431 -3.0453734 -2.0762787 330.29001
-5.7623658 -3.2881286 -2.0702295 330.29001
-6.3018184 -3.5959516 -2.0805109 330.29001
-6.9117393 -3.9439855 -2.0832465 330.29001
-7.6671548 -4.3750415 -2.0916336 330.29001
-8.5126438 -4.8574953 -2.0832751 330.29001
-9.5646324 -5.4577827 -2.0748143 330.29001
-11.028946 -6.2525892 -2.0829244 330.45001
-12.101785 -6.8608084 -1.9551038 330.45001
-14.268718 -8.0892973 -1.9181126 330.45001
-17.14139 -9.7178888 -1.8383313 330.45001
-17.239845 -9.7737055 -1.3857821 330.45001
-4.0451074 -2.2932742 -2.0702896 330.45001
-20.097799 -11.393951 -1.0773815 330.45001
-4.3057642 -2.441047 -2.0674088 330.45001
-4.6091943 -2.6130691 -2.0689476 330.45001
-4.9423795 -2.8019602 -2.0678537 330.45001
-5.3437786 -3.0295234 -2.0756385 330.45001
-5.7731867 -3.2729657 -2.0708253 330.45001
-6.310163 -3.5773914 -2.0799594 330.45001
-6.9210429 -3.9237146 -2.0827398 330.45001
-7.6759562 -4.3516941 -2.0907114 330.45001
-8.5261755 -4.8337049 -2.0832751 330.45001
-9.5849657 -5.43396 -2.0759254 330.45001
-11.04274 -6.212111 -2.0816274 330.64001
-12.102029 -6.8080158 -1.9514853 330.64001
-14.283345 -8.0351191 -1.9164865 330.64001
-17.170052 -9.6590395 -1.8379598 330.64001
-17.329544 -9.7487631 -1.390386 330.64001
-4.0495052 -2.2780557 -2.0686626 330.64001
-20.043186 -11.275328 -1.0724436 330.64001
-4.3106184 -2.4249454 -2.0658669 330.64001
-19.498432 -10.968875 -0.51941115 330.64001
-4.6162105 -2.5968566 -2.0682201 330.64001
-19.592587 -11.021841 0 330.64001
-4.9532819 -2.7864769 -2.0685377 330.64001
-5.3537955 -3.0117862 -2.0756385 330.64001
-5.7806802 -3.251931 -2.0696337 330.64001
-6.3219914 -3.5564463 -2.0799594 330.64001
-6.9357028 -3.9016907 -2.0832465 330.64001
-7.6903448 -4.3262157 -2.0907114 330.64001
-8.540452 -4.8044453 -2.0828593 330.64001
-9.5960808 -5.3982906 -2.0744441 330.64001
-11.049063 -6.1725817 -2.0793576 330.81
-12.099698 -6.7595215 -1.9478667 330.81
-14.305388 -7.991735 -1.9162542 330.81
-17.184727 -9.6002836 -1.8364736 330.81
-4.0546517 -2.2651396 -2.0678492 330.81
-19.886444 -11.109604 -1.0622885 330.81
-4.3210168 -2.413945 -2.0674088 330.81
-4.6238952 -2.5831485 -2.0682201 330.81
-4.9664497 -2.7745175 -2.07059 330.81
-5.3610539 -2.9949639 -2.0749984 330.81
-11.668156 -6.5184398 0.62328625 330.81
-5.7903037 -3.2347651 -2.0696337 330.81
-6.3308372 -3.5367353 -2.0794082 330.81
-6.9489379 -3.8820386 -2.0837529 330.81
-7.7065454 -4.3052773 -2.0916336 330.81
-8.5563774 -4.7800384 -2.0832751 330.81
-9.6206341 -5.3745875 -2.0762956 330.81
-11.062805 -6.1397877 -2.0787094 330.97
-12.104673 -6.7180181 -1.94564 330.97
-14.315492 -7.9450083 -1.9146281 330.97
-17.174904 -9.5319643 -1.8325721 330.97
-17.48135 -9.7020397 -1.3980592 330.97
-4.0657539 -2.2564678 -2.0702896 330.97
-19.599466 -10.877582 -1.0453321 330.97
-4.332582 -2.4045558 -2.0697212 330.97
-4.6278324 -2.568418 -2.0667651 330.97
-19.646997 -10.903961 0 330.97
-4.9774652 -2.7624619 -2.0719581 330.97
-5.3727098 -2.9818203 -2.0762787 330.97
-11.567529 -6.4199057 0.61695093 330.97
-5.7959752 -3.2167301 -2.0684423 330.97
-6.337327 -3.5171766 -2.0783057 330.97
-6.956368 -3.8607404 -2.0827398 330.97
-7.7151346 -4.2818513 -2.0907114 330.97
-8.5662718 -4.7542272 -2.0824435 330.97
-9.6338873 -5.3467469 -2.0759254 330.97
-11.078582 -6.1030979 -2.0780609 331.14999
-12.115311 -6.6742229 -1.9439698 331.14999
-14.329942 -7.8942447 -1.9132344 331.14999
-17.192554 -9.4712343 -1.8312716 331.14999
-17.38942 -9.5796852 -1.3882934 331.14999
-4.0680218 -2.241039 -2.0678492 331.14999
-4.3336487 -2.3873708 -2.0666378 331.14999
-34.502361 -19.007061 -0.91455173 331.14999
-4.642406 -2.5574625 -2.069675 331.14999
-4.9828267 -2.7449975 -2.07059 331.14999
-5.3754125 -2.9612696 -2.0737178 331.14999
-5.8060522 -3.1985056 -2.0684423 331.14999
-6.350029 -3.4981778 -2.0788569 331.14999
-6.9701571 -3.8398011 -2.0832465 331.14999
-7.7268438 -4.2566533 -2.0902503 331.14999
-8.5811653 -4.7272921 -2.0824435 331.14999
-9.6420288 -5.3117127 -2.0740738 331.14999
-11.094911 -6.069253 -2.0777366 331.32001
-12.119422 -6.6296926 -1.9414648 331.32001
-14.349815 -7.8497853 -1.9127697 331.32001
-17.131483 -9.3714418 -1.8217967 331.32001
-19.077101 -10.435754 -1.5205516 331.32001
-4.0746531 -2.2289591 -2.0678492 331.32001
-11.815104 -6.4632206 -0.62803775 331.32001
-4.3390942 -2.3736165 -2.0658669 331.32001
-11.777395 -6.4425931 -0.31167454 331.32001
-4.6483393 -2.5427828 -2.0689476 331.32001
-11.829699 -6.4712048 0 331.32001
-4.9909492 -2.730201 -2.07059 331.32001
-11.805462 -6.4579463 0.3124173 331.32001
-5.3858376 -2.9462168 -2.074358 331.32001
-5.822217 -3.1849296 -2.0708253 331.32001
-6.3620672 -3.4802442 -2.0794082 331.32001
-6.9815192 -3.8191032 -2.0832465 331.32001
-7.7445612 -4.2365108 -2.0916336 331.32001
-8.5900049 -4.6989937 -2.0811961 331.32001
-9.6525736 -5.2802515 -2.0729628 331.32001
-11.114603 -6.0372491 -2.0780609 331.48999
-11.879725 -6.4528494 -1.8999912 331.48999
-11.838472 -6.4304414 -1.5754681 331.48999
-11.827362 -6.424407 -1.2557132 331.48999
-11.855047 -6.439445 -0.94338655 331.48999
-4.0796432 -2.2159874 -2.0670357 331.48999
-11.832473 -6.4271827 -0.62794459 331.48999
-4.3444963 -2.3598509 -2.0650961 331.48999
-11.850925 -6.4372058 -0.31311363 331.48999
-4.6558633 -2.5289798 -2.0689476 331.48999
-11.840059 -6.4313035 0 331.48999
-4.9924221 -2.7117925 -2.0678537 331.48999
-11.828085 -6.4247994 0.31251013 331.48999
-5.3978853 -2.9320326 -2.0756385 331.48999
-11.797361 -6.4081111 0.62608123 331.48999
-5.8282857 -3.1658182 -2.0696337 331.48999
-11.811217 -6.4156375 0.93989873 331.48999
-6.372365 -3.4613521 -2.0794082 331.48999
-6.9979205 -3.8011425 -2.0847659 331.48999
-11.836726 -6.4294934 1.5752357 331.48999
-7.7588072 -4.2144423 -2.0920947 331.48999
-8.6107855 -4.6772213 -2.0828593 331.48999
-9.675107 -5.2553411 -2.0744441 331.48999
-11.135252 -6.0032387 -2.0783851 331.67001
-11.969672 -6.4530907 -1.9111251 331.67001
-14.497166 -7.8157139 -1.9260108 331.67001
-17.083239 -9.2099171 -1.8106496 331.67001
-19.022829 -10.255589 -1.5112042 331.67001
-4.0914092 -2.2057612 -2.0694761 331.67001
-21.617817 -11.6546 -1.1453001 331.67001
-4.3535128 -2.3470664 -2.0658669 331.67001
-4.663785 -2.5143404 -2.0689476 331.67001
-5.0025711 -2.6969867 -2.0685377 331.67001
-5.4037342 -2.9132619 -2.074358 331.67001
-11.901845 -6.4165239 0.63055325 331.67001
-5.8449249 -3.1511166 -2.0720167 331.67001
-11.922635 -6.4277325 0.94715339 331.67001
-6.3815155 -3.4404035 -2.0788569 331.67001
-11.914095 -6.4231281 1.2627729 331.67001
-7.0047183 -3.7763846 -2.0832465 331.67001
-11.911072 -6.4214983 1.5824372 331.67001
-7.7685833 -4.1881995 -2.0911725 331.67001
-8.6185484 -4.6464329 -2.0811961 331.67001
-9.6898394 -5.2239871 -2.0740738 331.67001
-11.148494 -5.9702563 -2.0777366 331.82999
-17.250376 -9.2379446 -1.368343 331.82999
-4.0975533 -2.1943271 -2.0694761 331.82999
-21.588636 -11.561175 -1.1420393 331.82999
-4.3616767 -2.3357711 -2.0666378 331.82999
-4.6675038 -2.499548 -2.0674925 331.82999
-5.0067697 -2.681232 -2.0671697 331.82999
-5.4101782 -2.8972659 -2.0737178 331.82999
-12.009538 -6.4313636 0.63530475 331.82999
-5.8452864 -3.1302757 -2.0690379 331.82999
-12.030238 -6.4424491 0.95426857 331.82999
-6.3877087 -3.4207542 -2.0777545 331.82999
-12.023271 -6.4387178 1.2724338 331.82999
-7.0135312 -3.7558956 -2.0827398 331.82999
-7.7802486 -4.1664891 -2.0911725 331.82999
-8.633215 -4.623271 -2.0816119 331.82999
-9.6939936 -5.1913404 -2.071852 331.82999
-11.161966 -5.9324241 -2.0767639 332.01001
-12.180893 -6.4739685 -1.9386812 332.01001
-14.690635 -7.8078604 -1.9455242 332.01001
-17.053186 -9.0635223 -1.8017319 332.01001
-4.1092668 -2.184016 -2.0719163 332.01001
-21.702473 -11.534551 -1.1461387 332.01001
-4.3689933 -2.322057 -2.0666378 332.01001
-31.196091 -16.580273 -0.82022303 332.01001
-4.6769781 -2.4857466 -2.0682201 332.01001
-5.0168276 -2.6663716 -2.0678537 332.01001
-5.4192533 -2.880255 -2.0737178 332.01001
-12.126711 -6.4451718 0.64042896 332.01001
-5.8534055 -3.1110008 -2.0684423 332.01001
-12.143791 -6.4542499 0.96166277 332.01001
-6.4001212 -3.4015722 -2.0783057 332.01001
-7.0270042 -3.7347515 -2.0832465 332.01001
-7.7950177 -4.1429396 -2.0916336 332.01001
-8.6407871 -4.5924535 -2.0799487 332.01001
-9.7154617 -5.1636276 -2.0729628 332.01001
-11.177773 -5.8983588 -2.0764396 332.17999
-12.189538 -6.4322529 -1.9370112 332.17999
-14.743603 -7.7799983 -1.9494733 332.17999
-17.099375 -9.0231075 -1.8037755 332.17999
-17.341776 -9.1510191 -1.3711332 332.17999
-4.1076493 -2.1675506 -2.0678492 332.17999
-21.895622 -11.554022 -1.1545236 332.17999
-4.3725996 -2.3073611 -2.0650961 332.17999
-4.6859808 -2.4727283 -2.0689476 332.17999
-19.933016 -10.518381 0 332.17999
-5.0197306 -2.6488433 -2.0658016 332.17999
-5.4277754 -2.8641632 -2.0737178 332.17999
-5.8676758 -3.0962927 -2.0702295 332.17999
-6.4152865 -3.3852594 -2.0799594 332.17999
-7.0363436 -3.7129827 -2.0827398 332.17999
-7.8055549 -4.118885 -2.0911725 332.17999
-8.6543751 -4.5667958 -2.0799487 332.17999
-9.7237864 -5.1311097 -2.0714817 332.17999
-11.192752 -5.8613825 -2.0757911 332.35999
-12.204422 -6.3911705 -1.9361762 332.35999
-14.815486 -7.7585235 -1.9557455 332.35999
-17.032377 -8.9194574 -1.7937433 332.35999
-17.373974 -9.0983438 -1.3714123 332.35999
-4.1160569 -2.1554828 -2.0686626 332.35999
-21.984907 -11.512982 -1.1573187 332.35999
-4.3814616 -2.2944691 -2.0658669 332.35999
-30.8398 -16.150082 -0.80824625 332.35999
-4.6887746 -2.4554017 -2.0667651 332.35999
-5.0363517 -2.6374197 -2.069222 332.35999
-5.4384255 -2.8479762 -2.074358 332.35999
-5.8739915 -3.0760722 -2.0690379 332.35999
-6.4190779 -3.361521 -2.0777545 332.35999
-7.0531154 -3.6935518 -2.0842595 332.35999
-7.8236279 -4.0970511 -2.0925558 332.35999
-8.6721458 -4.5414 -2.0807803 332.35999
-9.7468224 -5.1041832 -2.0729628 332.35999
-11.209809 -5.8329711 -2.0761154 332.51001
-12.208814 -6.352798 -1.9342277 332.51001
-14.858655 -7.7316303 -1.9587654 332.51001
-17.175793 -8.9373417 -1.8063766 332.51001
-17.18358 -8.9413939 -1.3545312 332.51001
-4.1200652 -2.1438563 -2.0678492 332.51001
-4.3956389 -2.2872498 -2.0697212 332.51001
-30.514818 -15.878241 -0.79863703 332.51001
-4.6968393 -2.4439781 -2.0674925 332.51001
-20.060684 -10.438482 0 332.51001
-5.0465736 -2.6259606 -2.07059 332.51001
-5.4475436 -2.8346033 -2.0749984 332.51001
-5.8786373 -3.0589211 -2.0678465 332.51001
-6.4295616 -3.3455918 -2.0783057 332.51001
-7.0593286 -3.6732879 -2.0832465 332.51001
-7.8308744 -4.0747585 -2.0916336 332.51001
-8.6822701 -4.5177774 -2.0803645 332.51001
-9.7618952 -5.079556 -2.0733333 332.51001
-11.220322 -5.7912402 -2.0744941 332.70001
-12.226293 -6.3104606 -1.9336711 332.70001
-14.887743 -7.6841369 -1.9592299 332.70001
-17.207106 -8.8812494 -1.8065623 332.70001
-17.103216 -8.8276281 -1.3458815 332.70001
-4.1222811 -2.1276679 -2.0654087 332.70001
-22.257 -11.487695 -1.1680329 332.70001
-4.395 -2.2684286 -2.0658669 332.70001
-30.995502 -15.997972 -0.80982465 332.70001
-4.706574 -2.4292438 -2.0682201 332.70001
-5.0519137 -2.6074872 -2.069222 332.70001
-5.4585972 -2.8173921 -2.0756385 332.70001
-5.8921418 -3.0411613 -2.0690379 332.70001
-6.4423289 -3.3251338 -2.0788569 332.70001
-7.0697513 -3.6489708 -2.0827398 332.70001
-7.8478026 -4.0505528 -2.0925558 332.70001
-8.6989422 -4.4898586 -2.0807803 332.70001
-9.7769394 -5.0462551 -2.0729628 332.70001
-11.23043 -5.7543235 -2.0731971 332.87
-12.230862 -6.2669315 -1.9314443 332.87
-14.908709 -7.6390247 -1.9589977 332.87
-17.242241 -8.8346958 -1.8074913 332.87
-19.221004 -9.848588 -1.5102277 332.87
-4.1318278 -2.1170938 -2.0670357 332.87
-22.333658 -11.443471 -1.1702689 332.87
-4.4033537 -2.2562201 -2.0666378 332.87
-31.112232 -15.941495 -0.81163508 332.87
-4.7170768 -2.4169676 -2.069675 332.87
-20.102736 -10.300376 0 332.87
-5.056283 -2.5907722 -2.0678537 332.87
-5.4652462 -2.8003197 -2.0749984 332.87
-5.8994403 -3.022795 -2.0684423 332.87
-6.4538774 -3.3068812 -2.0794082 332.87
-7.0753813 -3.6253314 -2.0812204 332.87
-7.8580542 -4.0263629 -2.0920947 332.87
-8.7087431 -4.4622445 -2.0799487 332.87
-9.7901201 -5.0163279 -2.0725925 332.87
-11.243936 -5.7191873 -2.0725486 333.04001
-12.251167 -6.2315121 -1.9317226 333.04001
-14.872879 -7.5650363 -1.9513317 333.04001
-17.21158 -8.7546082 -1.8015462 333.04001
-19.298155 -9.815937 -1.5139945 333.04001
-4.1380911 -2.104825 -2.0670357 333.04001
-21.78166 -11.079163 -1.139617 333.04001
-4.4067388 -2.2414718 -2.0650961 333.04001
-31.154049 -15.846394 -0.81149578 333.04001
-4.7192454 -2.4004273 -2.0674925 333.04001
-5.0672979 -2.5774627 -2.069222 333.04001
-5.4718418 -2.7832327 -2.074358 333.04001
-5.9168916 -3.0096054 -2.0714209 333.04001
-6.4568062 -3.2842312 -2.077203 333.04001
-7.09128 -3.6069541 -2.0827398 333.04001
-7.8682318 -4.0021477 -2.0916336 333.04001
-8.7236881 -4.4372725 -2.0803645 333.04001
-9.7979536 -4.9836936 -2.0711114 333.04001
-11.247753 -5.6767216 -2.0699546 333.22
-12.258307 -6.1867466 -1.9297742 333.22
-14.839823 -7.4896336 -1.9438981 333.22
-17.235443 -8.698699 -1.8011746 333.22
-17.287716 -8.7250805 -1.3541126 333.22
-4.1463146 -2.0926378 -2.0678492 333.22
-22.472704 -11.341935 -1.1739024 333.22
-4.4137588 -2.2276165 -2.0650961 333.22
-31.164408 -15.728623 -0.81047451 333.22
-4.7317529 -2.3881078 -2.069675 333.22
-5.0703368 -2.5589902 -2.0671697 333.22
-5.4788671 -2.7651749 -2.0737178 333.22
-5.9212041 -2.9884214 -2.0696337 333.22
-6.467092 -3.2639303 -2.077203 333.22
-7.1043038 -3.58553 -2.0832465 333.22
-7.8807659 -3.9774091 -2.0916336 333.22
-8.7358389 -4.4089627 -2.0799487 333.22
-9.8082981 -4.9502311 -2.0700004 333.22
-11.257488 -5.6397882 -2.0686579 333.39001
-12.262444 -6.1432514 -1.9275475 333.39001
-14.869084 -7.4491286 -1.9448273 333.39001
-17.268299 -8.6510897 -1.8019178 333.39001
-19.297108 -9.6674852 -1.5092511 333.39001
-4.1459708 -2.0770528 -2.0645952 333.39001
-22.493753 -11.268944 -1.1732502 333.39001
-4.421999 -2.2153375 -2.0658669 333.39001
-31.36289 -15.712213 -0.81442034 333.39001
-4.7388177 -2.3740578 -2.069675 333.39001
-32.896637 -16.480589 0 333.39001
-5.0779071 -2.5439351 -2.0671697 333.39001
-5.4870477 -2.7489066 -2.0737178 333.39001
-5.9300447 -2.9708397 -2.0696337 333.39001
-6.480186 -3.2464499 -2.0783057 333.39001
-7.1131811 -3.5635688 -2.0827398 333.39001
-7.8960123 -3.9557524 -2.0925558 333.39001
-8.7488823 -4.3830237 -2.0799487 333.39001
-9.826457 -4.9228683 -2.0707409 333.39001
-11.260825 -5.6021757 -2.0663881 333.54999
-12.277778 -6.1081023 -1.9272691 333.54999
-14.904057 -7.4146562 -1.9466857 333.54999
-17.356575 -8.6347656 -1.808606 333.54999
-4.1566625 -2.0679083 -2.0670357 333.54999
-20.221287 -10.059937 -1.0532513 333.54999
-4.4265156 -2.2021582 -2.0650961 333.54999
-20.266451 -10.082407 -0.5255388 333.54999
-4.7404251 -2.358326 -2.0674925 333.54999
-5.0866737 -2.530582 -2.0678537 333.54999
-5.4980955 -2.7352612 -2.0749984 333.54999
-5.9348989 -2.9525676 -2.0684423 333.54999
-6.4909477 -3.2291977 -2.0788569 333.54999
-7.1283016 -3.5462766 -2.0842595 333.54999
-7.9122553 -3.9362876 -2.0939393 333.54999
-8.7610874 -4.3585753 -2.0799487 333.54999
-9.8419256 -4.8962841 -2.0711114 333.54999
-11.270492 -5.5604367 -2.0647669 333.73999
-12.287309 -6.0620961 -1.925599 333.73999
-14.951721 -7.3766174 -1.9497056 333.73999
-17.388685 -8.5789232 -1.8089775 333.73999
-19.404112 -9.5732603 -1.5130179 333.73999
-4.1602201 -2.0524962 -2.0654087 333.73999
-20.908485 -10.315461 -1.0872571 333.73999
-4.4321389 -2.1866508 -2.0643253 333.73999
-31.433182 -15.50795 -0.81377047 333.73999
-4.7482195 -2.342593 -2.0674925 333.73999
-33.321335 -16.439495 0 333.73999
-5.0933523 -2.5128686 -2.0671697 333.73999
-5.503737 -2.715337 -2.0737178 333.73999
-5.948082 -2.9345601 -2.0696337 333.73999
-6.5033445 -3.2085056 -2.0794082 333.73999
-7.1365523 -3.5209067 -2.0832465 333.73999
-7.9200292 -3.9074447 -2.0925558 333.73999
-8.7719841 -4.3277674 -2.0791168 333.73999
-9.8528204 -4.8610115 -2.0700004 333.73999
-11.273569 -5.5228643 -2.0624971 333.89999
-12.300632 -6.0260177 -1.9250424 333.89999
-14.941936 -7.3199787 -1.9457566 333.89999
-17.407209 -8.5277033 -1.8084202 333.89999
-4.1675763 -2.0416746 -2.0662222 333.89999
-20.250067 -9.9204054 -1.0515742 333.89999
-4.4398851 -2.1750772 -2.0650961 333.89999
-4.7547426 -2.3293245 -2.0674925 333.89999
-33.383278 -16.3543 0 333.89999
-5.0952864 -2.496155 -2.0651176 333.89999
-5.5078955 -2.6982901 -2.0724373 333.89999
-5.9596825 -2.9196184 -2.0708253 333.89999
-6.5088258 -3.1886408 -2.0783057 333.89999
-7.144619 -3.5001128 -2.0827398 333.89999
-7.9274144 -3.8836002 -2.0916336 333.89999
-8.7857924 -4.3041153 -2.0795326 333.89999
-9.8645916 -4.8326135 -2.0696301 333.89999
-11.281989 -5.4831071 -2.0608759 334.07999
-12.310596 -5.9830155 -1.9236506 334.07999
-14.939845 -7.2608447 -1.9425043 334.07999
-17.321077 -8.4181366 -1.7967159 334.07999
-17.41493 -8.4637499 -1.3539732 334.07999
-4.1739697 -2.0285716 -2.0662222 334.07999
-20.59738 -10.010437 -1.0679716 334.07999
-4.4466963 -2.1611183 -2.0650961 334.07999
-31.805191 -15.457494 -0.8210122 334.07999
-4.7637124 -2.3151898 -2.0682201 334.07999
-33.533424 -16.297424 0 334.07999
-5.113245 -2.4850645 -2.069222 334.07999
-5.5197535 -2.6826296 -2.0737178 334.07999
-5.9653912 -2.8992119 -2.0696337 334.07999
-6.5205402 -3.1690176 -2.0788569 334.07999
-7.1538396 -3.4768043 -2.0822334 334.07999
-7.9448271 -3.8612285 -2.0930169 334.07999
-8.8027897 -4.2782025 -2.0803645 334.07999
-9.8744221 -4.7990217 -2.0685191 334.07999
-11.285765 -5.4436069 -2.0586064 334.25
-12.317591 -5.9413004 -1.9219805 334.25
-14.939853 -7.2061296 -1.9397167 334.25
-17.46615 -8.4246712 -1.8091633 334.25
-4.1799703 -2.0161784 -2.0662222 334.25
-20.308491 -9.7956524 -1.0514811 334.25
-4.4497647 -2.1463118 -2.0635545 334.25
-31.825703 -15.350897 -0.82036233 334.25
-4.7722387 -2.3018548 -2.0689476 334.25
-33.062832 -15.947617 0 334.25
-5.1172104 -2.4682493 -2.0678537 334.25
-5.5276885 -2.6662405 -2.0737178 334.25
-5.9722471 -2.8806701 -2.0690379 334.25
-6.5299144 -3.1496568 -2.0788569 334.25
-7.1658664 -3.4564037 -2.0827398 334.25
-7.9597545 -3.8393297 -2.0939393 334.25
-8.8083963 -4.2486658 -2.078701 334.25
-9.8974686 -4.773972 -2.0703707 334.25
-11.301867 -5.4100971 -2.0586064 334.42001
-12.329805 -5.9021621 -1.9211454 334.42001
-14.988044 -7.1746359 -1.9432012 334.42001
-17.498255 -8.3762503 -1.8099065 334.42001
-17.783373 -8.5127335 -1.378667 334.42001
-4.18923 -2.0053451 -2.0678492 334.42001
-20.364494 -9.748292 -1.0528786 334.42001
-4.4594426 -2.1346931 -2.0650961 334.42001
-31.849468 -15.24604 -0.81980526 334.42001
-4.7773671 -2.2868807 -2.0682201 334.42001
-33.34993 -15.964298 0 334.42001
-5.1262064 -2.4538667 -2.0685377 334.42001
-5.5355749 -2.6498277 -2.0737178 334.42001
-5.9824901 -2.8637619 -2.0696337 334.42001
-6.5392308 -3.1302683 -2.0788569 334.42001
-7.1760902 -3.435127 -2.0827398 334.42001
-7.9658446 -3.813175 -2.0925558 334.42001
-8.8227282 -4.2233567 -2.0791168 334.42001
-9.9133625 -4.7454333 -2.0707409 334.42001
-11.302762 -5.3669462 -2.0556881 334.60001
-12.335763 -5.857451 -1.9191971 334.60001
-15.003332 -7.1241059 -1.9422719 334.60001
-17.48311 -8.3015909 -1.8056334 334.60001
-17.801018 -8.4525442 -1.3779694 334.60001
-4.1971598 -1.9929579 -2.0686626 334.60001
-20.586319 -9.7751026 -1.0627543 334.60001
-4.469461 -2.122256 -2.0666378 334.60001
-31.870113 -15.133043 -0.81910896 334.60001
-4.782845 -2.2710619 -2.0674925 334.60001
-5.1338902 -2.4377503 -2.0685377 334.60001
-5.5404491 -2.6307988 -2.0724373 334.60001
-5.9845586 -2.8416774 -2.0672507 334.60001
-6.5438223 -3.1072354 -2.077203 334.60001
-7.183351 -3.4109058 -2.081727 334.60001
-7.9795427 -3.7889655 -2.0930169 334.60001
-8.8306513 -4.1931014 -2.0778694 334.60001
-9.9175692 -4.709208 -2.0685191 334.60001
-11.30614 -5.327498 -2.0534184 334.76999
-12.354879 -5.8216686 -1.9194754 334.76999
-15.040577 -7.0871797 -1.9443626 334.76999
-17.572514 -8.2802382 -1.8123217 334.76999
-4.2080131 -1.9828324 -2.0711031 334.76999
-4.4740686 -2.1081989 -2.0658669 334.76999
-31.887743 -15.025632 -0.8184126 334.76999
-4.7861919 -2.2552726 -2.0660377 334.76999
-33.524624 -15.796936 0 334.76999
-5.1343002 -2.4193027 -2.0658016 334.76999
-5.5533724 -2.6167712 -2.074358 334.76999
-6.0015993 -2.8279774 -2.0702295 334.76999
-6.5547519 -3.0886252 -2.0777545 334.76999
-7.1969404 -3.391227 -2.0827398 334.76999
-7.9889894 -3.7644436 -2.0925558 334.76999
-8.8412838 -4.166048 -2.0774536 334.76999
-9.9368315 -4.6822743 -2.0696301 334.76999
-11.304019 -5.2855692 -2.0501761 334.94
-12.361334 -5.779952 -1.9178053 334.94
-15.048942 -7.0366321 -1.9427366 334.94
-17.505005 -8.1850462 -1.8028467 334.94
-17.664709 -8.2597208 -1.3635995 334.94
-4.2056022 -1.9664688 -2.0670357 334.94
-20.151707 -9.4225998 -1.0374129 334.94
-4.4769607 -2.0933516 -2.0643253 334.94
-31.928562 -14.929259 -0.8183198 334.94
-4.7911749 -2.2402728 -2.06531 334.94
-5.1431584 -2.4048543 -2.0664856 334.94
-5.5593958 -2.5994799 -2.0737178 334.94
-6.0030456 -2.8069232 -2.0678465 334.94
-6.5621457 -3.0683491 -2.077203 334.94
-7.2052178 -3.3690388 -2.0822334 334.94
-8.0018864 -3.7415476 -2.0930169 334.94
-8.8571501 -4.1414542 -2.0782852 334.94
-9.9435587 -4.6494408 -2.0681489 334.94
-11.313407 -5.2467093 -2.0488791 335.12
-12.381227 -5.7419224 -1.9180837 335.12
-15.088995 -6.9976773 -1.9450595 335.12
-17.613733 -8.1685514 -1.8113928 335.12
-4.2200465 -1.9570903 -2.0711031 335.12
-20.047091 -9.2970457 -1.0305185 335.12
-4.490212 -2.0823822 -2.0674088 335.12
-23.257736 -10.786016 -0.59521759 335.12
-4.7981892 -2.2252097 -2.06531 335.12
-5.154098 -2.3902662 -2.0678537 335.12
-5.5675349 -2.5820019 -2.0737178 335.12
-6.0170302 -2.7904599 -2.0696337 335.12
-6.571753 -3.0477183 -2.077203 335.12
-7.2157664 -3.3463862 -2.0822334 335.12
-8.0153666 -3.7172091 -2.0934782 335.12
-8.871892 -4.1144314 -2.078701 335.12
-9.950984 -4.614872 -2.0666678 335.12
-11.317258 -5.210144 -2.0469337 335.28
-12.390018 -5.7040124 -1.9169703 335.28
-15.101259 -6.9521909 -1.9441304 335.28
-17.591255 -8.0985136 -1.8067482 335.28
-17.753283 -8.1731062 -1.3666688 335.28
-4.2155375 -1.9407136 -2.0662222 335.28
-20.022161 -9.2176342 -1.0279099 335.28
-4.4859514 -2.0652044 -2.0627837 335.28
-20.040339 -9.2260017 -0.51221579 335.28
-4.8026919 -2.2110231 -2.0645826 335.28
-5.1556311 -2.3735061 -2.0658016 335.28
-5.5695601 -2.5640671 -2.0717971 335.28
-6.0230651 -2.7728479 -2.0690379 335.28
-6.5819845 -3.0301588 -2.0777545 335.28
-7.219811 -3.3237958 -2.080714 335.28
-8.0221806 -3.6931839 -2.0925558 335.28
-8.8744612 -4.0855498 -2.076622 335.28
-9.970974 -4.590353 -2.0681489 335.28
-11.321004 -5.1688266 -2.0446639 335.45999
-12.398869 -5.6609468 -1.9155786 335.45999
-15.117605 -6.9022398 -1.9434335 335.45999
-17.571323 -8.0225325 -1.8021035 335.45999
-19.624636 -8.9600124 -1.5085535 335.45999
-4.2265997 -1.9297372 -2.0686626 335.45999
-20.174603 -9.2111111 -1.0342453 335.45999
-4.4957747 -2.0526342 -2.0643253 335.45999
-19.976461 -9.1206465 -0.5098483 335.45999
-4.80792 -2.1951504 -2.0638552 335.45999
-5.1733198 -2.3619809 -2.069906 335.45999
-5.5775881 -2.5465574 -2.0717971 335.45999
-6.0317464 -2.7539124 -2.0690379 335.45999
-6.5949693 -3.0110629 -2.0788569 335.45999
-7.233737 -3.3027048 -2.081727 335.45999
-8.0355139 -3.6687715 -2.0930169 335.45999
-8.894371 -4.0608997 -2.0782852 335.45999
-9.987133 -4.5598221 -2.0685191 335.45999
-11.326406 -5.1331191 -2.0430427 335.62
-12.409217 -5.623848 -1.9147435 335.62
-15.107871 -6.8468766 -1.9397167 335.62
-17.617237 -7.9841194 -1.8045187 335.62
-19.633224 -8.8977633 -1.5072979 335.62
-4.2319722 -1.9179268 -2.0686626 335.62
-20.005541 -9.0664968 -1.0242764 335.62
-4.5098939 -2.0438807 -2.0681796 335.62
-32.052502 -14.526171 -0.81701994 335.62
-4.8123341 -2.1809464 -2.0631278 335.62
-5.1747603 -2.3451977 -2.0678537 335.62
-5.5898547 -2.5333183 -2.0737178 335.62
-6.0359354 -2.7354815 -2.0678465 335.62
-6.5980988 -2.9902537 -2.077203 335.62
-7.2429318 -3.2824917 -2.081727 335.62
-8.0439548 -3.6455147 -2.0925558 335.62
-8.9003315 -4.0336237 -2.0770378 335.62
-9.9962473 -4.5302925 -2.0677786 335.62
-11.329875 -5.0918479 -2.0407732 335.79999
-12.415984 -5.5799646 -1.9130734 335.79999
-15.100317 -6.7863512 -1.9359999 335.79999
-17.602272 -7.9107752 -1.8004315 335.79999
-18.039642 -8.107337 -1.3829918 335.79999
-4.2396431 -1.9053712 -2.0694761 335.79999
-20.12686 -9.0453691 -1.0290279 335.79999
-4.5045094 -2.0244067 -2.0627837 335.79999
-19.957283 -8.9691582 -0.50799143 335.79999
-4.8242598 -2.1681085 -2.06531 335.79999
-5.1855307 -2.3304701 -2.069222 335.79999
-5.5874162 -2.5110846 -2.0698764 335.79999
-6.042758 -2.715723 -2.0672507 335.79999
-6.6074605 -2.9695103 -2.077203 335.79999
-7.2549729 -3.2605143 -2.0822334 335.79999
-8.0535927 -3.6194282 -2.0920947 335.79999
-8.9111748 -4.0048409 -2.076622 335.79999
-10.00326 -4.4956431 -2.0662973 335.79999
-11.332315 -5.0525837 -2.0385034 335.97
-12.42525 -5.539875 -1.91196 335.97
-15.031485 -6.7018809 -1.9246171 335.97
-17.618391 -7.8552699 -1.7996883 335.97
-19.765568 -8.8126011 -1.513297 335.97
-4.2402716 -1.8905514 -2.0670357 335.97
-20.885307 -9.3118439 -1.0663878 335.97
-4.5155525 -2.0132873 -2.0650961 335.97
-32.067593 -14.297535 -0.81516308 335.97
-4.82897 -2.1530263 -2.0645826 335.97
-5.187273 -2.312778 -2.0671697 335.97
-5.606956 -2.4998963 -2.074358 335.97
-6.0542765 -2.6993368 -2.0684423 335.97
-6.6162419 -2.9498925 -2.077203 335.97
-7.2610812 -3.2373981 -2.0812204 335.97
-8.0625191 -3.5947242 -2.0916336 335.97
-8.9283781 -3.980773 -2.0778694 335.97
-10.01835 -4.4667435 -2.0666678 335.97
-11.340037 -5.0157442 -2.0372064 336.14001
-12.430765 -5.4981775 -1.91029 336.14001
-17.603376 -7.7860446 -1.7957869 336.14001
-19.766083 -8.7426186 -1.5113437 336.14001
-4.250875 -1.8801792 -2.0694761 336.14001
-20.317213 -8.9863853 -1.0360154 336.14001
-4.5248818 -2.0013735 -2.0666378 336.14001
-21.096333 -9.3309927 -0.53556585 336.14001
-4.8370409 -2.1394427 -2.06531 336.14001
-5.1906748 -2.2958565 -2.0658016 336.14001
-5.6126161 -2.4824827 -2.0737178 336.14001
-6.0674973 -2.6836784 -2.0702295 336.14001
-6.6249652 -2.930249 -2.077203 336.14001
-7.2759628 -3.2181878 -2.0827398 336.14001
-8.0802679 -3.5739353 -2.0934782 336.14001
-8.9383612 -3.9534733 -2.0774536 336.14001
-10.029761 -4.436204 -2.0662973 336.14001
-11.341351 -4.9785047 -2.0349367 336.29999
-12.44063 -5.4610548 -1.9094549 336.29999
-15.117127 -6.6359549 -1.9306569 336.29999
-17.646933 -7.7464614 -1.7980163 336.29999
-19.786766 -8.6857834 -1.5110648 336.29999
-4.2477441 -1.8646293 -2.0654087 336.29999
-20.206858 -8.8701906 -1.029121 336.29999
-4.5253835 -1.9865046 -2.0643253 336.29999
-32.107296 -14.094118 -0.81409538 336.29999
-4.8395844 -2.124429 -2.0638552 336.29999
-5.1987867 -2.2821078 -2.0664856 336.29999
-5.6195264 -2.4667997 -2.0737178 336.29999
-6.0697231 -2.664422 -2.0684423 336.29999
-6.6331224 -2.911737 -2.077203 336.29999
-7.2796068 -3.195524 -2.0812204 336.29999
-8.0830889 -3.548228 -2.0916336 336.29999
-8.9439926 -3.9261382 -2.0762062 336.29999
-10.04211 -4.4081783 -2.0662973 336.29999
-11.350558 -4.9377189 -2.0336397 336.48999
-12.451406 -5.4166098 -1.9083415 336.48999
-15.102619 -6.5699401 -1.9260108 336.48999
-17.617741 -7.6640687 -1.7924428 336.48999
-19.835585 -8.6288748 -1.5125993 336.48999
-4.2606058 -1.8534484 -2.0686626 336.48999
-20.725302 -9.0159197 -1.0539966 336.48999
-4.5319462 -1.9714869 -2.0643253 336.48999
-32.135525 -13.979593 -0.81363118 336.48999
-4.8466029 -2.1083689 -2.0638552 336.48999
-5.206326 -2.2648556 -2.0664856 336.48999
-5.627676 -2.4481511 -2.0737178 336.48999
-6.0820265 -2.6458027 -2.0696337 336.48999
-6.6427412 -2.8897247 -2.077203 336.48999
-7.2937117 -3.17291 -2.0822334 336.48999
-8.1019497 -3.5245094 -2.0934782 336.48999
-8.9605503 -3.8980181 -2.0770378 336.48999
-10.049464 -4.371717 -2.0648162 336.48999
-11.353432 -4.90131 -2.0316944 336.64999
-12.451937 -5.3755379 -1.9061148 336.64999
-15.078959 -6.5096316 -1.9206679 336.64999
-17.631762 -7.6116838 -1.7916996 336.64999
-19.85594 -8.5718679 -1.5123204 336.64999
-4.2707973 -1.8437158 -2.0711031 336.64999
-20.057068 -8.6586952 -1.0187795 336.64999
-4.5391283 -1.959555 -2.0650961 336.64999
-32.163422 -13.885044 -0.81335264 336.64999
-4.8541822 -2.0955646 -2.0645826 336.64999
-5.2126303 -2.2503078 -2.0664856 336.64999
-5.627532 -2.4294221 -2.071157 336.64999
-6.0841327 -2.626538 -2.0678465 336.64999
-6.6543155 -2.8726876 -2.0783057 336.64999
-7.3025436 -3.1525297 -2.0822334 336.64999
-8.1063995 -3.4995568 -2.0920947 336.64999
-8.9678087 -3.8714297 -2.0762062 336.64999
-10.067046 -4.3459735 -2.065927 336.64999
-11.349663 -4.8550954 -2.0281277 336.84
-12.453306 -5.3272057 -1.9036096 336.84
-15.074894 -6.4486542 -1.9174157 336.84
-17.62212 -7.5382919 -1.7881697 336.84
-19.897097 -8.5114689 -1.513297 336.84
-4.2701683 -1.8266687 -2.0678492 336.84
-20.866322 -8.9260788 -1.0583755 336.84
-4.5456014 -1.944492 -2.0650961 336.84
-20.16091 -8.624321 -0.50910556 336.84
-4.8593917 -2.0787234 -2.0638552 336.84
-5.2183361 -2.2322707 -2.0658016 336.84
-5.6372995 -2.4114926 -2.0717971 336.84
-6.0998306 -2.6093516 -2.0702295 336.84
-6.6602697 -2.849093 -2.077203 336.84
-7.3111787 -3.1275353 -2.081727 336.84
-8.1215391 -3.4741864 -2.0930169 336.84
-8.9787989 -3.8409007 -2.0757904 336.84
-10.075982 -4.3102474 -2.0648162 336.84
-11.360385 -4.8198571 -2.0274792 337.01001
-12.456295 -5.2848177 -1.9016613 337.01001
-15.04093 -6.3813977 -1.910679 337.01001
-17.682905 -7.502306 -1.7920712 337.01001
-19.957159 -8.4672012 -1.5159477 337.01001
-4.2839794 -1.8175589 -2.0719163 337.01001
-20.879839 -8.8586655 -1.0577233 337.01001
-4.5513511 -1.9309964 -2.0650961 337.01001
-21.088327 -8.9471207 -0.53185213 337.01001
-4.8655381 -2.0642962 -2.0638552 337.01001
-20.93199 -8.8807917 0 337.01001
-5.2283964 -2.2182457 -2.0671697 337.01001
-5.6514068 -2.3977158 -2.074358 337.01001
-6.1040306 -2.5897501 -2.0690379 337.01001
-6.666924 -2.8285682 -2.0766518 337.01001
-7.316864 -3.1043174 -2.080714 337.01001
-8.1228533 -3.4462738 -2.0907114 337.01001
-8.9883547 -3.8134789 -2.0753746 337.01001
-10.083298 -4.2780294 -2.0637052 337.01001
-11.356444 -4.7784753 -2.0242367 337.17999
-12.466444 -5.2455316 -1.9008262 337.17999
-15.078107 -6.3444467 -1.913002 337.17999
-17.706923 -7.4505792 -1.792257 337.17999
-19.95645 -8.3971167 -1.5139945 337.17999
-4.2843008 -1.8027142 -2.0694761 337.17999
-20.795544 -8.750185 -1.0521333 337.17999
-4.5553594 -1.9167681 -2.0643253 337.17999
-20.176716 -8.4897985 -0.50822353 337.17999
-4.8699241 -2.0491283 -2.0631278 337.17999
-20.956404 -8.8178701 0 337.17999
-5.2366877 -2.2034521 -2.0678537 337.17999
-5.6445246 -2.3750584 -2.0692363 337.17999
-6.1099281 -2.5708873 -2.0684423 337.17999
-6.6752872 -2.8087747 -2.0766518 337.17999
-7.3242593 -3.0818439 -2.0802073 337.17999
-8.1366301 -3.4236672 -2.0916336 337.17999
-9.0014334 -3.7875519 -2.0757904 337.17999
-10.097758 -4.2488551 -2.0640755 337.17999
-11.361466 -4.7409587 -2.0226154 337.35001
-12.470986 -5.2039437 -1.8991561 337.35001
-15.0547 -6.2820864 -1.9076591 337.35001
-17.745491 -7.4049106 -1.7939291 337.35001
-19.984959 -8.3394051 -1.5142735 337.35001
-4.2946892 -1.7921054 -2.0719163 337.35001
