# .PCD v0.7 - Point Cloud Data file format
VERSION 0.7
FIELDS x y z intensity
SIZE 4 4 4 4
TYPE F F F F
COUNT 1 1 1 1
WIDTH 1221
HEIGHT 1
VIEWPOINT 0 0 0 1 0 0 0
POINTS 1221
DATA ascii
6.4879956 -1.4847577 -1.5770253 192.89
6.7831879 -1.5523114 -1.4790838 192.89
7.6348276 -1.7472066 -1.4756622 192.89
7.8184671 -1.8150995 -1.3186883 193.07001
11.805452 -2.7406995 -1.4172708 193.07001
12.81991 -2.9762113 -1.2278455 193.07001
9.6938953 -2.2504902 -0.69589061 193.07001
2.5753117 -0.5978725 -1.1770959 193.07001
22.035397 -5.1156363 -1.0549283 193.07001
2.8457148 -0.66064805 -1.2202491 193.07001
7.703012 -1.7882957 -0.18359739 193.07001
3.1485736 -0.7309584 -1.2621744 193.07001
7.6778131 -1.7824458 0 193.07001
3.203723 -0.7437616 -1.1970705 193.07001
4.9094863 -1.1397637 -1.7030224 193.07001
5.1868453 -1.2041541 -1.6615453 193.07001
5.5863223 -1.2968949 -1.6444525 193.07001
5.9763169 -1.3874344 -1.6061207 193.07001
6.434011 -1.4936904 -1.5650363 193.07001
6.7573156 -1.5687474 -1.4745097 193.07001
7.6599331 -1.7782948 -1.4815871 193.07001
7.8542318 -1.8479794 -1.1339824 193.24001
11.746994 -2.763886 -1.411231 193.24001
9.7095499 -2.2845068 -0.9305914 193.24001
12.689656 -2.9856799 -0.91157758 193.24001
2.6926875 -0.63354778 -1.2315985 193.24001
12.634878 -2.9727917 -0.60530508 193.24001
2.8437421 -0.66908854 -1.2202491 193.24001
30.162027 -7.0966587 -0.71939534 193.24001
3.1210022 -0.73432356 -1.2519897 193.24001
7.7328424 -1.8194183 0 193.24001
7.734652 -1.819844 0.1844794 193.24001
4.9116158 -1.1556273 -1.7049431 193.24001
5.2018342 -1.2239112 -1.6675029 193.24001
5.584321 -1.3139044 -1.6450038 193.24001
5.9702907 -1.4047171 -1.6056142 193.24001
6.4219732 -1.510991 -1.5631918 193.24001
6.9125924 -1.6264261 -1.5094389 193.24001
7.6087065 -1.7902111 -1.4726998 193.24001
7.7499666 -1.8477319 -1.308961 193.41
7.8410082 -1.8694379 -1.132869 193.41
11.723283 -2.7950423 -1.4093726 193.41
7.7676067 -1.8519377 -0.74499333 193.41
16.824203 -4.0111938 -1.2094377 193.41
2.5575001 -0.6097542 -1.170588 193.41
12.70568 -3.0292635 -0.6091249 193.41
3.1181996 -0.74343503 -1.3389593 193.41
30.697094 -7.3187413 -0.73267192 193.41
2.9901428 -0.71290404 -1.2003387 193.41
7.7079554 -1.8377157 0 193.41
2.5338085 -0.60410565 -0.94807982 193.41
4.9155378 -1.171953 -1.707504 193.41
5.200037 -1.2397827 -1.6680986 193.41
5.5691776 -1.3277924 -1.6416961 193.41
5.967979 -1.4228739 -1.6061207 193.41
6.4288201 -1.5327467 -1.5659585 193.41
6.9115419 -1.6478364 -1.5102705 193.41
7.536447 -1.7968251 -1.4597391 193.41
7.7230225 -1.866969 -1.3053944 193.59
7.9126081 -1.9127996 -0.95197111 193.59
11.549717 -2.7920368 -1.1085724 193.59
16.65056 -4.0251184 -1.1978582 193.59
2.5733314 -0.62207896 -1.1787227 193.59
22.015247 -5.3219819 -1.0562326 193.59
3.1266115 -0.75582927 -1.3435844 193.59
7.7078428 -1.8632995 -0.18410802 193.59
7.7235279 -1.8670913 0 193.59
2.5446854 -0.61515409 -0.9528681 193.59
4.9099903 -1.1869445 -1.7068638 193.59
5.1868377 -1.2538699 -1.6651198 193.59
5.5668473 -1.3457336 -1.6422473 193.59
5.9653597 -1.4420704 -1.6066272 193.59
6.4485641 -1.5588806 -1.5719531 193.59
6.9329524 -1.6759769 -1.5160921 193.59
7.4963779 -1.8121798 -1.4530736 193.59
7.7442856 -1.8964473 -1.3099338 193.75999
7.8490143 -1.9220935 -0.94500208 193.75999
11.655499 -2.8542387 -1.1195337 193.75999
16.702494 -4.0901642 -1.2024621 193.75999
2.5643756 -0.62797314 -1.1754689 193.75999
19.27491 -4.7201061 -0.92542636 193.75999
2.7604744 -0.67599446 -1.1871027 193.75999
13.175056 -3.2263529 -0.31492406 193.75999
2.5677297 -0.62879449 -1.0322913 193.75999
7.6829877 -1.8814363 0 193.75999
2.5355473 -0.62091351 -0.95013195 193.75999
7.713933 -1.8890144 0.18438655 193.75999
4.9027662 -1.2006062 -1.7055833 193.75999
5.1756768 -1.2674376 -1.6627368 193.75999
5.5590954 -1.3613303 -1.6411449 193.75999
5.9535379 -1.4579228 -1.6046011 193.75999
6.4401298 -1.5770811 -1.5710309 193.75999
6.9165483 -1.6937481 -1.5135971 193.75999
7.5310574 -1.8442312 -1.46085 193.75999
7.788765 -1.93041 -1.318364 193.92
9.304285 -2.3060248 -1.3471956 193.92
7.7720761 -1.9262738 -0.74703693 193.92
9.6652527 -2.395489 -0.69630915 193.92
2.5767996 -0.63864803 -1.1819767 193.92
2.5812387 -0.63974833 -1.1107889 193.92
13.082542 -3.2424488 -0.31292793 193.92
2.5569224 -0.63372159 -1.028654 193.92
7.7068224 -1.9101009 0 193.92
2.5629904 -0.63522553 -0.96107662 193.92
4.8957157 -1.2133809 -1.7043028 193.92
5.1813831 -1.2841823 -1.6657156 193.92
5.557138 -1.3773115 -1.6416961 193.92
5.9531994 -1.4754734 -1.6056142 193.92
6.4300337 -1.5936546 -1.5696474 193.92
6.9022975 -1.710703 -1.511518 193.92
7.5392323 -1.8685644 -1.4634422 193.92
7.8633981 -1.97369 -1.3319821 194.09
7.7740879 -1.9512734 -1.1264671 194.09
7.7450809 -1.9439929 -0.74499333 194.09
15.556299 -3.9045858 -1.1215446 194.09
2.5926144 -0.65073872 -1.1901114 194.09
15.662617 -3.9312713 -0.75306767 194.09
2.5864892 -0.64920127 -1.1138723 194.09
7.7184396 -1.9373059 -0.18475792 194.09
2.5550308 -0.64130533 -1.028654 194.09
7.7340984 -1.9412363 0 194.09
3.2610662 -0.81851816 -1.2237481 194.09
4.8957696 -1.228824 -1.7055833 194.09
2.9943128 -0.75156385 -0.96332693 194.09
5.5437036 -1.3914535 -1.6389397 194.09
5.9431653 -1.4917173 -1.6040946 194.09
6.4347148 -1.6150948 -1.5719531 194.09
6.7434988 -1.6925986 -1.4778363 194.09
7.5508113 -1.8952317 -1.4667749 194.09
7.9049749 -2.0105455 -1.3400881 194.27
7.8830848 -2.0049779 -1.1431679 194.27
11.437439 -2.9089899 -1.3801026 194.27
11.625772 -2.9568903 -1.1191621 194.27
7.7497416 -1.9710636 -0.55916792 194.27
2.6259716 -0.66788769 -1.2063808 194.27
12.561973 -3.1950028 -0.60446656 194.27
2.5737057 -0.65459436 -1.1092472 194.27
13.171007 -3.3499041 -0.31552753 194.27
2.5909195 -0.6589725 -1.043931 194.27
7.6853194 -1.9546784 0 194.27
2.9725194 -0.75602835 -1.1163538 194.27
7.706502 -1.960066 0.18461865 194.27
4.8882127 -1.2432643 -1.7043028 194.27
2.9808352 -0.75814337 -0.95975244 194.27
5.5374417 -1.4083889 -1.6383884 194.27
5.9346995 -1.5094271 -1.6030817 194.27
6.4239511 -1.633863 -1.5705696 194.27
6.9144697 -1.7586211 -1.5165079 194.27
7.46101 -1.8976277 -1.4504815 194.27
7.8607507 -2.0241485 -1.3336034 194.44
7.8814378 -2.0294752 -0.95173883 194.44
11.680587 -3.0077586 -1.1252929 194.44
12.632073 -3.2527673 -0.91213566 194.44
2.593899 -0.66793072 -1.1925519 194.44
12.36477 -3.1839364 -0.59542936 194.44
2.580688 -0.66452885 -1.1131015 194.44
13.081621 -3.368526 -0.31362426 194.44
2.6665311 -0.68663353 -1.0752125 194.44
7.7046642 -1.9839561 0 194.44
2.9575231 -0.76156408 -1.1115655 194.44
2.9835465 -0.76826513 -1.0410204 194.44
2.9841192 -0.76841265 -0.96153969 194.44
5.5183444 -1.4209772 -1.6339782 194.44
5.9283214 -1.5265466 -1.6025752 194.44
6.3663054 -1.6393278 -1.5576583 194.44
6.918694 -1.7815682 -1.518587 194.44
7.5543199 -1.9452423 -1.4697373 194.44
7.9078226 -2.0627816 -1.3426821 194.62
7.8668575 -2.0520954 -1.1426111 194.62
10.369966 -2.7050395 -1.253266 194.62
11.447562 -2.9861341 -1.103742 194.62
9.4422131 -2.4630322 -0.68235785 194.62
2.5829482 -0.67377055 -1.1884844 194.62
15.592718 -4.0674114 -0.75148386 194.62
2.5785875 -0.67263299 -1.1131015 194.62
7.736949 -2.0182085 -0.18563993 194.62
2.6733742 -0.69735843 -1.0788499 194.62
7.7583861 -2.0238004 0 194.62
2.9423862 -0.76753104 -1.1067772 194.62
2.9701176 -0.7747649 -1.037179 194.62
5.2077975 -1.358471 -1.6794178 194.62
5.5250144 -1.4412181 -1.6372859 194.62
5.9234962 -1.5451634 -1.6025752 194.62
6.4044352 -1.6706178 -1.5682641 194.62
6.9073839 -1.8018137 -1.5173395 194.62
7.4568858 -1.9451531 -1.4519627 194.62
8.0138788 -2.1173582 -1.3618124 194.8
7.8527122 -2.0747762 -1.1414977 194.8
10.324925 -2.727963 -1.2488523 194.8
7.7601118 -2.0503099 -0.56126058 194.8
2.5737529 -0.68001485 -1.1852306 194.8
12.321342 -3.255439 -0.59431136 194.8
2.6103625 -0.68968755 -1.1277475 194.8
15.687316 -4.1447678 -0.37671119 194.8
2.8693016 -0.75810218 -1.1588725 194.8
7.6997814 -2.0343699 0 194.8
2.9508626 -0.77965152 -1.1108814 194.8
7.7170382 -2.0389295 0.18531498 194.8
4.8819985 -1.2898797 -1.7062236 194.8
5.1850457 -1.3699481 -1.6734604 194.8
5.5093069 -1.4556217 -1.6339782 194.8
5.9242244 -1.5652477 -1.6040946 194.8
6.3916287 -1.6887412 -1.5664196 194.8
6.8979063 -1.8225055 -1.5165079 194.8
7.509645 -1.9841337 -1.4634422 194.8
7.8721957 -2.1049314 -1.3387913 194.97
11.629179 -3.109504 -1.1230634 194.97
2.5752542 -0.68859226 -1.1868576 194.97
12.037565 -3.2187016 -0.58108169 194.97
2.91852 -0.78037745 -1.2618748 194.97
15.713581 -4.2016244 -0.37763962 194.97
2.904835 -0.7767182 -1.1741495 194.97
7.7014399 -2.0592732 0 194.97
2.9612455 -0.79180175 -1.1156697 194.97
3.1977966 -0.85505271 -1.1184888 194.97
5.1828022 -1.3858196 -1.6740561 194.97
5.4975348 -1.4699752 -1.6317731 194.97
5.9195542 -1.5828183 -1.6040946 194.97
6.3978705 -1.7107143 -1.5691863 194.97
6.8849092 -1.8409426 -1.5148445 194.97
7.4923325 -2.0033605 -1.4612204 194.97
8.1215744 -2.1959317 -1.3822395 195.13
7.8027334 -2.1097226 -0.94523436 195.13
11.670431 -3.1554804 -1.1278939 195.13
2.5944862 -0.70150369 -1.1966192 195.13
15.783468 -4.2675738 -0.76247752 195.13
2.8771362 -0.77792728 -1.2449161 195.13
15.966218 -4.3169861 -0.38399938 195.13
2.8648877 -0.77461553 -1.1588725 195.13
29.888737 -8.0813913 0 195.13
2.9644656 -0.80153966 -1.1177218 195.13
5.1825981 -1.4012839 -1.6752476 195.13
5.4934087 -1.4853215 -1.6317731 195.13
5.8291955 -1.5761125 -1.5807955 195.13
6.3254366 -1.7102875 -1.5525861 195.13
6.8759642 -1.8591405 -1.5140129 195.13
7.5493193 -2.041204 -1.4734404 195.13
8.0023289 -2.1906908 -1.3631094 195.31
8.9724426 -2.4562657 -1.3073921 195.31
15.177141 -4.1548433 -1.1003386 195.31
2.602843 -0.71254563 -1.2015001 195.31
15.604267 -4.2717719 -0.75446516 195.31
2.742959 -0.75090331 -1.1878735 195.31
2.8480649 -0.77967668 -1.1530527 195.31
7.6987295 -2.1075785 0 195.31
3.2283981 -0.88379544 -1.2182758 195.31
7.7024412 -2.1085944 0.18540783 195.31
3.2840421 -0.89902836 -1.1505004 195.31
5.1671219 -1.414534 -1.6716731 195.31
5.4924235 -1.5035875 -1.6328757 195.31
5.904459 -1.6163849 -1.6025752 195.31
6.3857293 -1.7481358 -1.5687252 195.31
6.8719769 -1.8812493 -1.5144287 195.31
7.5466609 -2.0659485 -1.4741809 195.31
7.9353151 -2.1961837 -1.3527336 195.47
7.8565459 -2.1743836 -1.1456729 195.47
9.1799994 -2.5406635 -1.1138852 195.47
2.6589527 -0.73589379 -1.2283447 195.47
7.7345243 -2.1406128 -0.37425125 195.47
2.6697068 -0.73887008 -1.1570396 195.47
16.12146 -4.4617872 -0.388363 195.47
2.6591439 -0.73594671 -1.077395 195.47
7.7140169 -2.1349373 0 195.47
7.7524061 -2.1455619 0.18675405 195.47
5.1631513 -1.4289577 -1.6716731 195.47
5.497468 -1.5214833 -1.635632 195.47
5.8812752 -1.6277062 -1.5975101 195.47
6.3639421 -1.7612895 -1.5645752 195.47
6.8572693 -1.8978231 -1.5123496 195.47
7.406373 -2.0497935 -1.4478893 195.47
7.8428593 -2.1971452 -1.3381428 195.64999
7.7966547 -2.1842012 -0.94686049 195.64999
13.71903 -3.8433306 -0.99626195 195.64999
2.7252426 -0.76346564 -1.2600701 195.64999
2.6673725 -0.74725354 -1.1570396 195.64999
16.026499 -4.4897585 -0.38641331 195.64999
2.6388795 -0.73927134 -1.0701202 195.64999
3.2375743 -0.90699333 -1.2237481 195.64999
4.871449 -1.3647166 -1.7094247 195.64999
5.1715059 -1.4487764 -1.6758434 195.64999
5.4982147 -1.5403025 -1.6372859 195.64999
5.8984895 -1.6524379 -1.6035882 195.64999
6.3583775 -1.7812736 -1.5645752 195.64999
6.8512731 -1.9193563 -1.5123496 195.64999
7.3052692 -2.0465415 -1.4293742 195.64999
7.9103584 -2.2413886 -1.3507881 195.82001
11.462983 -3.2480195 -1.1115448 195.82001
10.361776 -2.9359941 -0.75309092 195.82001
2.7458179 -0.77802348 -1.2706453 195.82001
7.7482142 -2.1954451 -0.37555557 195.82001
3.2315531 -0.91565579 -1.4029396 195.82001
15.782259 -4.47188 -0.38084272 195.82001
2.6528063 -0.75166875 -1.0766674 195.82001
7.6969833 -2.1809289 0 195.82001
3.2457182 -0.91966951 -1.2278523 195.82001
7.7160707 -2.1863372 0.186197 195.82001
4.8655553 -1.3786479 -1.7087845 195.82001
5.1506524 -1.4594297 -1.6704816 195.82001
5.4936204 -1.5566092 -1.6372859 195.82001
5.8991451 -1.6715142 -1.6051077 195.82001
6.3568091 -1.8011925 -1.5654974 195.82001
6.8511949 -1.941276 -1.5135971 195.82001
7.4126234 -2.1003559 -1.4515924 195.82001
7.9734702 -2.2863557 -1.3627851 196
7.7602105 -2.2252045 -0.75316781 196
2.6660824 -0.76448685 -1.2348524 196
14.255399 -4.0876698 -0.69157755 196
3.1985028 -0.91715586 -1.3898351 196
15.866155 -4.5495467 -0.38321021 196
3.202008 -0.91816103 -1.3007307 196
7.7208538 -2.2139192 0 196
4.5345182 -1.3002522 -1.7169411 196
7.6591916 -2.1962378 0.18499003 196
4.8575573 -1.3928822 -1.707504 196
5.1497126 -1.4766563 -1.6716731 196
5.4850068 -1.5728004 -1.6361834 196
5.8882852 -1.6884387 -1.6035882 196
6.3380241 -1.8173991 -1.5622696 196
6.8413014 -1.9617116 -1.5127654 196
7.3852062 -2.1176739 -1.4475191 196
7.8642964 -2.2803247 -1.345276 196.17
9.5489712 -2.7688115 -1.397298 196.17
10.301123 -2.9869046 -1.0006319 196.17
10.341732 -2.9986799 -0.75295138 196.17
2.5444753 -0.73779386 -1.1795362 196.17
13.26846 -3.8473115 -0.64424878 196.17
2.9334414 -0.85057819 -1.2757499 196.17
7.7332969 -2.2423401 -0.18693973 196.17
3.1903234 -0.92506343 -1.2970933 196.17
51.635155 -14.972086 0 196.17
4.5396657 -1.3163176 -1.7203614 196.17
4.8479438 -1.4057057 -1.7055833 196.17
5.1434751 -1.4913976 -1.6710774 196.17
5.4784694 -1.5885323 -1.635632 196.17
5.8888245 -1.7075186 -1.6051077 196.17
6.3157816 -1.8313187 -1.5581195 196.17
6.8316927 -1.9809119 -1.5119338 196.17
7.3883286 -2.1423135 -1.4493706 196.17
7.8499203 -2.3014276 -1.3439791 196.34
9.9246225 -2.9096854 -1.4535239 196.34
10.097291 -2.9603081 -1.2305005 196.34
10.301769 -3.0202568 -1.0015608 196.34
10.281096 -3.0141959 -0.74918455 196.34
2.4931829 -0.73094743 -1.156759 196.34
13.81679 -4.0507851 -0.67145354 196.34
2.8016262 -0.82137644 -1.2194782 196.34
3.1321442 -0.91827714 -1.2745415 196.34
7.7094998 -2.2602592 0 196.34
4.5465612 -1.3329537 -1.7244656 196.34
7.7074227 -2.2596502 0.18647552 196.34
4.8455701 -1.4206167 -1.7062236 196.34
5.1500196 -1.5098748 -1.6746519 196.34
5.4811115 -1.6069438 -1.6378372 196.34
5.8911591 -1.7271608 -1.6071337 196.34
6.3345981 -1.8571676 -1.564114 196.34
6.8182764 -1.9989717 -1.5102705 196.34
7.2555757 -2.1271784 -1.4245602 196.34
7.8104863 -2.3165374 -1.338467 196.52
9.9021416 -2.936908 -1.4515754 196.52
11.049695 -3.2772646 -1.3478127 196.52
7.7721515 -2.3051674 -0.75632614 196.52
13.301405 -3.9451065 -0.97017306 196.52
2.4943774 -0.73981547 -1.158386 196.52
15.66381 -4.6457801 -0.76191854 196.52
16.244019 -4.8178658 -0.39337656 196.52
2.8541846 -0.84653187 -1.1625099 196.52
7.7215352 -2.2901549 0 196.52
4.5477562 -1.3488338 -1.7265177 196.52
7.7252059 -2.2912438 0.187079 196.52
4.8465328 -1.4374489 -1.7081443 196.52
5.1324382 -1.5222464 -1.6704816 196.52
5.4668202 -1.6214219 -1.6350808 196.52
5.8838487 -1.7451097 -1.6066272 196.52
6.3343296 -1.8787193 -1.5654974 196.52
6.8119626 -2.0203819 -1.5102705 196.52
7.3430715 -2.1779053 -1.4430754 196.52
7.7737389 -2.3292758 -1.3332791 196.67999
9.8939009 -2.9645486 -1.4515754 196.67999
10.125216 -3.0338581 -1.2360758 196.67999
7.756146 -2.3240047 -0.7553972 196.67999
7.7804079 -2.3312743 -0.56795722 196.67999
2.5395575 -0.76093763 -1.1803497 196.67999
15.874686 -4.7565947 -0.77281904 196.67999
2.7312932 -0.8183881 -1.190957 196.67999
15.682716 -4.6990743 -0.38009998 196.67999
2.7518713 -0.82455403 -1.1217711 196.67999
52.130157 -15.619964 0 196.67999
3.2873585 -0.98500419 -1.2490575 196.67999
4.8207192 -1.4444511 -1.7004614 196.67999
5.1245093 -1.5354769 -1.6692901 196.67999
5.4641128 -1.6372336 -1.635632 196.67999
5.8789525 -1.7615337 -1.6066272 196.67999
6.3458366 -1.901428 -1.5696474 196.67999
6.806294 -2.0393968 -1.5102705 196.67999
7.3727326 -2.209121 -1.4501112 196.67999
7.7267199 -2.341666 -1.32647 196.86
7.8602462 -2.3821325 -1.1543016 196.86
10.089019 -3.0575864 -1.2328235 196.86
13.331223 -4.0401711 -0.97407937 196.86
2.7067645 -0.82031423 -1.2592566 196.86
13.406627 -4.0630231 -0.65328598 196.86
2.7163455 -0.82321793 -1.1855609 196.86
15.815218 -4.7929726 -0.38367444 196.86
2.7029114 -0.81914651 -1.1028566 196.86
7.7154655 -2.3382552 0 196.86
3.350796 -1.0154949 -1.2743671 196.86
7.7076464 -2.3358855 0.18698616 196.86
4.8433576 -1.4678319 -1.710065 196.86
5.1269689 -1.5537834 -1.6716731 196.86
5.4626222 -1.6555067 -1.6367346 196.86
5.865983 -1.7777497 -1.6046011 196.86
6.349144 -1.9241768 -1.5719531 196.86
6.8129592 -2.0647409 -1.5131813 196.86
7.2999234 -2.2123208 -1.4371506 196.86
7.7725744 -2.3807652 -1.3355488 197.03
7.8342066 -2.3996434 -1.1515182 197.03
10.102695 -3.0944889 -1.2356111 197.03
11.972569 -3.6672378 -1.168209 197.03
10.686626 -3.273349 -0.78155154 197.03
2.6903427 -0.82406092 -1.2527488 197.03
15.522506 -4.7545948 -0.75707388 197.03
2.7085974 -0.82965237 -1.1832484 197.03
15.625042 -4.7860022 -0.37940365 197.03
2.7040317 -0.82825387 -1.1043116 197.03
15.75164 -4.8247795 0 197.03
3.3765199 -1.0342393 -1.2853117 197.03
7.733182 -2.3686993 0.18777533 197.03
4.8371692 -1.4816409 -1.7094247 197.03
5.1296382 -1.5712252 -1.6740561 197.03
5.4650393 -1.6739596 -1.6389397 197.03
5.8643823 -1.7962798 -1.6056142 197.03
6.3415461 -1.9424366 -1.571492 197.03
6.8086734 -2.0855193 -1.5135971 197.03
7.377893 -2.2598729 -1.4538143 197.03
7.7937555 -2.4125702 -1.3404124 197.2
7.8138084 -2.4187777 -1.1495699 197.2
10.197839 -3.1567583 -1.2483877 197.2
9.836772 -3.0449896 -0.96068841 197.2
11.608853 -3.5935404 -0.84977335 197.2
2.6390152 -0.81691164 -1.2299716 197.2
10.910795 -3.3774552 -0.53263491 197.2
2.7061238 -0.83768529 -1.1832484 197.2
15.591673 -4.8264289 -0.37893942 197.2
15.758272 -4.8779998 0 197.2
4.827322 -1.4943057 -1.707504 197.2
5.1322489 -1.5886965 -1.676439 197.2
5.4600482 -1.6901673 -1.6389397 197.2
5.8608751 -1.8142439 -1.6061207 197.2
6.3413324 -1.9629703 -1.5728753 197.2
6.8005867 -2.1051333 -1.5131813 197.2
7.3674002 -2.2805912 -1.4530736 197.2
7.7899046 -2.4382222 -1.3410609 197.38
10.14806 -3.1763194 -1.2435094 197.38
2.582382 -0.80827957 -1.204754 197.38
7.7618389 -2.4294376 -0.37928227 197.38
2.6999564 -0.84508014 -1.1817068 197.38
15.947099 -4.9914055 0 197.38
7.7128439 -2.4141023 0.18763606 197.38
4.8334532 -1.5128597 -1.7113454 197.38
5.1017241 -1.5968279 -1.6680986 197.38
5.4547114 -1.7073121 -1.6389397 197.38
5.8477607 -1.8303357 -1.6040946 197.38
6.3444204 -1.9857891 -1.5751809 197.38
6.8032746 -2.1294093 -1.5152605 197.38
7.3545718 -2.301964 -1.4519627 197.38
7.7807541 -2.4607294 -1.3407366 197.55
9.6702423 -3.0582962 -1.4254109 197.55
10.282535 -3.2519388 -1.2611643 197.55
2.6566224 -0.84017932 -1.2405467 197.55
10.983297 -3.4735608 -0.53720009 197.55
2.6851201 -0.84919196 -1.1763109 197.55
15.53521 -4.9131417 -0.37828952 197.55
7.7323365 -2.4454169 0.18828596 197.55
4.8253298 -1.5260515 -1.710065 197.55
5.1115265 -1.6165636 -1.6728646 197.55
5.4496217 -1.723489 -1.6389397 197.55
5.8570623 -1.8523456 -1.6081467 197.55
6.3273673 -2.0010836 -1.5724142 197.55
6.7745438 -2.1425068 -1.5102705 197.55
7.3289704 -2.3178489 -1.4482597 197.55
7.8241763 -2.5000229 -1.3494911 197.72
10.155523 -3.2449474 -1.2467616 197.72
10.288641 -3.2874818 -1.0076917 197.72
2.9430251 -0.94037116 -1.3755833 197.72
15.671555 -5.0074592 -0.76722902 197.72
15.404384 -4.9220915 -0.37545782 197.72
3.2102735 -1.0257639 -1.3160077 197.72
15.559038 -4.9715075 0 197.72
3.3262258 -1.0628135 -1.2709469 197.72
4.8099518 -1.5369016 -1.7062236 197.72
5.0848842 -1.6247494 -1.6657156 197.72
5.4463153 -1.7402359 -1.639491 197.72
5.8496976 -1.8691268 -1.6076401 197.72
6.3306713 -2.02281 -1.5747198 197.72
6.7812014 -2.1667659 -1.5131813 197.72
7.2846174 -2.32762 -1.4408536 197.72
7.7754054 -2.5098891 -1.3423579 197.89
10.070234 -3.2506561 -1.2374696 197.89
10.199248 -3.2923017 -0.99988878 197.89
9.9850512 -3.2231593 -0.73369861 197.89
3.0410693 -0.9816525 -1.4227648 197.89
10.846517 -3.5012388 -0.53151691 197.89
3.2139328 -1.0374526 -1.410648 197.89
3.2692683 -1.0553148 -1.3414695 197.89
16.018139 -5.1706309 0 197.89
3.3409429 -1.0784513 -1.2777872 197.89
7.7233973 -2.4931009 0.18842523 197.89
4.81078 -1.5529124 -1.7081443 197.89
5.0982099 -1.6456944 -1.6716731 197.89
5.444787 -1.757569 -1.6405935 197.89
5.8496499 -1.888258 -1.6091597 197.89
6.3246417 -2.0415845 -1.5747198 197.89
6.8063917 -2.1970928 -1.5202503 197.89
7.2945127 -2.3546574 -1.4441863 197.89
10.065638 -3.2841251 -1.2381665 198.07001
10.13774 -3.3076501 -0.99487263 198.07001
9.9843597 -3.2576065 -0.73439616 198.07001
3.0466552 -0.99403507 -1.4268322 198.07001
3.1018813 -1.0120537 -1.3628556 198.07001
13.80013 -4.5025811 -0.33702073 198.07001
3.2747922 -1.0684695 -1.3451068 198.07001
4.511394 -1.4719368 -1.7272017 198.07001
7.7440395 -2.5266552 0.18912156 198.07001
4.8022747 -1.5668428 -1.7068638 198.07001
5.1020899 -1.6646637 -1.6746519 198.07001
5.4410667 -1.7752619 -1.6411449 198.07001
5.8473678 -1.9078262 -1.6101727 198.07001
6.3237467 -2.0632548 -1.5761031 198.07001
6.7808576 -2.2123969 -1.5160921 198.07001
7.2852106 -2.3769526 -1.4438161 198.07001
10.197934 -3.3588281 -1.255589 198.23
10.153052 -3.3440456 -0.99728781 198.23
10.149563 -3.3428965 -0.74723136 198.23
3.0126305 -0.99225074 -1.4121896 198.23
10.797086 -3.5561666 -0.53011942 198.23
2.9518034 -0.97221655 -1.2981045 198.23
15.297291 -5.0383701 -0.37392589 198.23
15.850402 -5.2205453 0 198.23
2.875725 -0.94715905 -1.1019889 198.23
4.8104782 -1.5843962 -1.7113454 198.23
5.0883546 -1.6759186 -1.6716731 198.23
5.4433918 -1.792855 -1.6433499 198.23
5.8218026 -1.9174896 -1.6046011 198.23
6.3105669 -2.0784707 -1.5742587 198.23
6.7635045 -2.2276518 -1.5135971 198.23
7.2822781 -2.3985171 -1.4445566 198.23
7.7981195 -2.5971127 -1.1551367 198.42
10.231973 -3.4076917 -1.2611643 198.42
10.160801 -3.3839881 -0.99914563 198.42
2.957319 -0.98491579 -1.3877854 198.42
7.7600608 -2.5844374 -0.38142511 198.42
2.9713254 -0.98958045 -1.3081255 198.42
2.9429746 -0.98013848 -1.2112509 198.42
7.7075934 -2.5669637 0.18861091 198.42
4.8034 -1.599741 -1.7107052 198.42
5.0954485 -1.6970059 -1.6758434 198.42
5.4392409 -1.8115035 -1.6439012 198.42
5.8099051 -1.9349508 -1.6030817 198.42
6.2981005 -2.0975411 -1.5728753 198.42
6.7764969 -2.2568679 -1.5181712 198.42
7.2668257 -2.4201686 -1.4430754 198.42
7.8825841 -2.6512511 -1.3663517 198.59
7.8185372 -2.6297095 -1.1593119 198.59
10.167215 -3.4196706 -1.2544276 198.59
10.593553 -3.563066 -0.78155154 198.59
3.0461671 -1.0245566 -1.4308995 198.59
10.83323 -3.6436799 -0.53300756 198.59
2.9526334 -0.99309725 -1.3011879 198.59
15.223639 -5.1203628 -0.37290463 198.59
2.901206 -0.97580004 -1.1952463 198.59
15.51588 -5.2186561 0 198.59
2.8572478 -0.96101499 -1.0972006 198.59
4.8004284 -1.6145899 -1.7113454 198.59
5.0922008 -1.7127255 -1.676439 198.59
5.4174418 -1.8221182 -1.6389397 198.59
5.818809 -1.9571151 -1.6071337 198.59
6.2678695 -2.1081533 -1.5668807 198.59
6.7549367 -2.271975 -1.5148445 198.59
7.2484355 -2.4379597 -1.4408536 198.59
7.8653398 -2.6714542 -1.3647305 198.75999
7.8238277 -2.6573546 -1.1612604 198.75999
10.070501 -3.4204347 -1.2437416 198.75999
10.319669 -3.5050642 -1.0167952 198.75999
3.1780558 -1.0794232 -1.4943504 198.75999
10.534834 -3.5781448 -0.51884621 198.75999
2.91822 -0.99117023 -1.2873126 198.75999
15.46018 -5.2510333 -0.37907869 198.75999
2.9018261 -0.98560208 -1.1967014 198.75999
16.539995 -5.6177917 0 198.75999
2.9326837 -0.99608284 -1.1272984 198.75999
4.7938223 -1.6282166 -1.7107052 198.75999
5.0690188 -1.7216867 -1.6704816 198.75999
5.4265752 -1.8431304 -1.6433499 198.75999
5.8129764 -1.9743712 -1.6071337 198.75999
6.2873855 -2.1355035 -1.5733364 198.75999
6.7685418 -2.298928 -1.5194186 198.75999
7.2113938 -2.449342 -1.4349288 198.75999
10.010773 -3.4294057 -1.2374696 198.91
10.199308 -3.4939928 -1.0058339 198.91
11.449264 -3.9221916 -0.84628552 198.91
2.9349601 -1.0054338 -1.3812777 198.91
11.780393 -4.0356269 -0.58070898 198.91
2.9662454 -1.0161513 -1.3096672 198.91
15.766051 -5.4010005 -0.38692394 198.91
2.8886611 -0.98957306 -1.1923364 198.91
15.853551 -5.430975 0 198.91
7.7004914 -2.637969 0.18898229 198.91
4.7787886 -1.6370769 -1.7068638 198.91
5.0608816 -1.733714 -1.6692901 198.91
5.4180937 -1.8560846 -1.6422473 198.91
5.8041267 -1.9883287 -1.6061207 198.91
6.2725677 -2.148803 -1.5710309 198.91
6.7717538 -2.3198102 -1.5214977 198.91
7.1770668 -2.4586587 -1.4293742 198.91
7.9509416 -2.7548144 -0.9840287 199.11
7.7839088 -2.6969416 -0.57604897 199.11
2.9745927 -1.0306265 -1.4016144 199.11
15.63986 -5.4188442 -0.77188736 199.11
2.8528223 -0.98843598 -1.2611039 199.11
15.499608 -5.3702502 -0.38084272 199.11
2.893991 -1.0026999 -1.1959739 199.11
15.757015 -5.4594359 0 199.11
4.4839344 -1.553578 -1.7272017 199.11
4.7802062 -1.6562293 -1.7094247 199.11
5.056603 -1.7519943 -1.6698859 199.11
5.400682 -1.8712095 -1.6389397 199.11
5.7916665 -2.0066764 -1.6046011 199.11
6.2576733 -2.1681368 -1.5691863 199.11
6.7617664 -2.3427932 -1.5210819 199.11
7.188869 -2.4907744 -1.4334475 199.11
11.675343 -4.0817852 -1.1539036 199.27
15.773653 -5.5145845 -0.77924758 199.27
2.8483088 -0.99578965 -1.2603331 199.27
15.35998 -5.3699613 -0.37777889 199.27
2.9140418 -1.0187703 -1.2054311 199.27
7.7368097 -2.7048454 0 199.27
4.77914 -1.6708223 -1.7107052 199.27
2.9719009 -1.0389982 -0.98239088 199.27
5.393621 -1.8856493 -1.6383884 199.27
5.7896929 -2.0241191 -1.6056142 199.27
6.244246 -2.1830339 -1.5673418 199.27
6.7681246 -2.3661859 -1.5239927 199.27
7.1763196 -2.5088937 -1.4323366 199.27
7.7283869 -2.7291777 -1.346573 199.45
8.2322769 -2.9071198 -1.0209646 199.45
2.8237073 -0.99715495 -1.3332827 199.45
12.258001 -4.3287511 -0.6062367 199.45
2.8329854 -1.0004313 -1.2549372 199.45
13.844175 -4.8888874 -0.34087372 199.45
2.9125834 -1.0285404 -1.2061585 199.45
15.516896 -5.4795866 0 199.45
7.703568 -2.7204132 0.18967861 199.45
2.9568675 -1.0441787 -1.0595872 199.45
2.961421 -1.0457867 -0.98000789 199.45
5.3949218 -1.9051452 -1.6405935 199.45
5.7778325 -2.0403652 -1.6040946 199.45
6.2446971 -2.2052321 -1.5691863 199.45
6.747745 -2.3828769 -1.5210819 199.45
7.1702552 -2.5320809 -1.432707 199.45
7.8355107 -2.7931821 -1.366676 199.62
10.098958 -3.6000497 -1.0002604 199.62
11.546368 -4.1160183 -0.85716754 199.62
3.1838696 -1.1349775 -1.5049256 199.62
15.353895 -5.4733162 -0.76014835 199.62
15.368324 -5.4784598 -0.37880015 199.62
2.920048 -1.040931 -1.2105235 199.62
15.656932 -5.5813417 0 199.62
2.9555411 -1.0535835 -1.0602275 199.62
5.0551949 -1.8020625 -1.6746519 199.62
5.3928671 -1.9224349 -1.6416961 199.62
5.7808652 -2.0607476 -1.6066272 199.62
6.247292 -2.2270181 -1.571492 199.62
6.7830276 -2.4179957 -1.5306458 199.62
7.1497517 -2.5487247 -1.4301147 199.62
7.7324824 -2.7823405 -1.3501396 199.78999
8.2653475 -2.9740789 -1.0272368 199.78999
12.001323 -4.3183761 -1.1899457 199.78999
10.206856 -3.672682 -0.75853187 199.78999
2.9329257 -1.0553401 -1.3877854 199.78999
10.154879 -3.6539793 -0.50328732 199.78999
3.1274109 -1.1253207 -1.3882935 199.78999
15.592817 -5.6106858 -0.38474214 199.78999
2.8906519 -1.0401288 -1.1996113 199.78999
7.7213526 -2.7783358 0 199.78999
2.9213779 -1.0511848 -1.1300346 199.78999
2.9506192 -1.0617067 -1.0595872 199.78999
5.0264721 -1.8086504 -1.6669071 199.78999
5.7783666 -2.0792007 -1.6076401 199.78999
6.2534752 -2.2501569 -1.5747198 199.78999
6.7887087 -2.4427471 -1.5335566 199.78999
7.1070204 -2.5572839 -1.423079 199.78999
7.7710605 -2.8207572 -1.3582457 199.95
8.2028599 -2.9774928 -1.0205001 199.95
10.473017 -3.8015194 -1.0394608 199.95
11.663124 -4.2335076 -0.86763102 199.95
2.9007707 -1.0529283 -1.3739563 199.95
10.210362 -3.7061808 -0.50654817 199.95
16.246181 -5.8970761 -0.40126821 199.95
2.8667216 -1.0405692 -1.1908815 199.95
16.228001 -5.8904762 0 199.95
2.9078314 -1.0554912 -1.1259303 199.95
7.7133656 -2.7998149 0.19051421 199.95
2.952986 -1.0718817 -1.0615079 199.95
5.0339642 -1.8272398 -1.6710774 199.95
5.3997765 -1.9600233 -1.6472088 199.95
5.7779942 -2.0973094 -1.6091597 199.95
6.2489967 -2.268275 -1.5751809 199.95
6.7597942 -2.4536855 -1.5285667 199.95
7.2254801 -2.6227212 -1.4482597 199.95
7.8116913 -2.8648586 -1.3670002 200.14
8.2582159 -3.0286171 -1.0286306 200.14
10.039999 -3.6820679 -0.74778938 200.14
3.0156236 -1.1059494 -1.430086 200.14
10.378081 -3.806056 -0.5154922 200.14
2.8484545 -1.0446417 -1.2672707 200.14
15.772254 -5.7843142 -0.3900342 200.14
2.8090336 -1.0301846 -1.1683297 200.14
7.6986036 -2.8233848 0 200.14
2.9096086 -1.0670694 -1.1279824 200.14
4.7567773 -1.7444998 -1.7119857 200.14
5.024292 -1.8426082 -1.6698859 200.14
5.3950524 -1.9785807 -1.6477602 200.14
5.7746401 -2.1177907 -1.6101727 200.14
6.2450948 -2.2903252 -1.5761031 200.14
6.7406001 -2.4720469 -1.5260718 200.14
7.1355524 -2.6168914 -1.4319663 200.14
10.120236 -3.7455971 -1.0067627 200.31
2.4400208 -0.90307522 -1.158386 200.31
13.085366 -4.8430204 -0.65067732 200.31
2.8886111 -1.0691029 -1.2865418 200.31
15.338738 -5.6770153 -0.37972859 200.31
2.8112061 -1.0404545 -1.1705122 200.31
7.7089491 -2.8531566 0 200.31
2.9222927 -1.0815687 -1.1341388 200.31
7.7256241 -2.859328 0.19125694 200.31
4.7604651 -1.7618941 -1.7151868 200.31
5.00806 -1.8535314 -1.6663113 200.31
5.3855519 -1.9932448 -1.6466576 200.31
5.7792182 -2.1389446 -1.6132118 200.31
6.2309709 -2.3061426 -1.5742587 200.31
6.7112198 -2.4838872 -1.5210819 200.31
7.1922693 -2.6619284 -1.444927 200.31
7.7169037 -2.8821621 -1.3533821 200.48
8.0392542 -3.0025556 -1.2060741 200.48
8.2512646 -3.0817387 -1.0300244 200.48
10.373978 -3.8745444 -1.0331441 200.48
10.087127 -3.7674093 -0.75295138 200.48
2.4287724 -0.90711462 -1.1543186 200.48
10.317882 -3.8535933 -0.51362884 200.48
2.9355624 -1.0963941 -1.3088963 200.48
15.617774 -5.8330336 -0.38706321 200.48
2.8779166 -1.074864 -1.1996113 200.48
36.915318 -13.787387 0 200.48
2.9437191 -1.0994405 -1.1437154 200.48
7.6890097 -2.8717442 0.19056062 200.48
4.7498913 -1.7740221 -1.7132661 200.48
4.9953842 -1.8657104 -1.6639283 200.48
5.3778133 -2.0085425 -1.6461062 200.48
5.7710338 -2.1554055 -1.6127052 200.48
6.2222781 -2.3239391 -1.5737975 200.48
6.7606325 -2.5250075 -1.5339725 200.48
7.1861811 -2.6839442 -1.4452972 200.48
7.7336636 -2.9161396 -1.3579215 200.66
10.080842 -3.8011923 -0.75336993 200.66
2.4823272 -0.9360134 -1.1811632 200.66
12.99011 -4.8981929 -0.64741647 200.66
3.2619219 -1.2299758 -1.4561279 200.66
15.659241 -5.904644 -0.3885487 200.66
2.8919575 -1.0904731 -1.2068861 200.66
7.7362895 -2.9171298 0 200.66
4.7496133 -1.7909411 -1.7151868 200.66
5.0091491 -1.8888043 -1.6704816 200.66
5.2941246 -1.9962603 -1.6224015 200.66
5.7515616 -2.1687465 -1.6091597 200.66
6.2240515 -2.3469086 -1.5761031 200.66
6.76548 -2.5510657 -1.5368832 200.66
7.2034597 -2.7162151 -1.4504815 200.66
7.6184993 -2.8970399 -1.3391155 200.82001
10.035736 -3.8162277 -1.255589 200.82001
9.9171152 -3.7711203 -0.98985648 200.82001
12.134576 -4.6143408 -0.90781075 200.82001
12.931564 -4.9174066 -0.64518046 200.82001
3.2757242 -1.2456396 -1.4638363 200.82001
15.822104 -6.0165744 -0.39300516 200.82001
2.8645222 -1.0892743 -1.1967014 200.82001
37.115135 -14.113544 0 200.82001
4.4408479 -1.6886939 -1.7292539 200.82001
7.6923909 -2.9251382 0.19107126 200.82001
4.7445936 -1.8041975 -1.7151868 200.82001
5.0056396 -1.9034637 -1.6710774 200.82001
5.2705593 -2.0042033 -1.6168888 200.82001
5.7400575 -2.1827364 -1.6076401 200.82001
6.2138352 -2.3628969 -1.5751809 200.82001
6.7473583 -2.5657763 -1.5343883 200.82001
7.1829872 -2.7314303 -1.4478893 200.82001
7.6056752 -2.9195452 -1.338467 201
10.038534 -3.8534322 -1.2574475 201
9.899642 -3.8001163 -0.98929912 201
3.1880212 -1.2237667 -1.5203816 201
12.916052 -4.9580078 -0.64518046 201
3.9885228 -1.5310504 -1.7845082 201
15.640726 -6.003912 -0.3889665 201
2.8454328 -1.0922593 -1.1901541 201
7.7804594 -2.9866385 0 201
4.4513116 -1.7086985 -1.7354102 201
7.6999636 -2.955739 0.19148906 201
4.7371335 -1.8184152 -1.7145466 201
4.9925051 -1.9164432 -1.6686944 201
5.2642369 -2.0207512 -1.6168888 201
5.6880145 -2.1834242 -1.5949776 201
6.1900296 -2.3761296 -1.5710309 201
6.7721386 -2.5995805 -1.5418731 201
7.1780405 -2.7553916 -1.44863 201
7.6705937 -2.9706075 -1.3514366 201.17
7.7070127 -2.9847116 -1.1615387 201.17
9.9198914 -3.8416979 -0.99245745 201.17
15.616894 -6.0479884 -1.1710716 201.17
3.2848995 -1.2721503 -1.5683765 201.17
12.765285 -4.9436402 -0.63837928 201.17
2.8774018 -1.1143377 -1.2888544 201.17
15.607927 -6.0445161 -0.38859513 201.17
2.9099331 -1.1269361 -1.2185256 201.17
7.7379932 -2.9967096 0 201.17
4.4479752 -1.722577 -1.7360942 201.17
4.7317171 -1.8324624 -1.7145466 201.17
4.9921384 -1.9333162 -1.6704816 201.17
5.3586135 -2.075242 -1.6477602 201.17
5.5967126 -2.1674511 -1.571172 201.17
6.1775079 -2.3923769 -1.5696474 201.17
6.7899356 -2.6295533 -1.5476947 201.17
7.1771646 -2.7795162 -1.4501112 201.17
7.7003489 -3.0084352 -1.3582457 201.34
12.79465 -4.9987183 -0.96054667 201.34
3.3236561 -1.2985132 -1.5887133 201.34
12.7487 -4.9807668 -0.63828611 201.34
2.8603313 -1.1174977 -1.2826875 201.34
7.7567835 -3.0304835 -0.19334592 201.34
2.9152529 -1.1389549 -1.2221631 201.34
42.071163 -16.436707 0 201.34
4.4463453 -1.7371346 -1.7374623 201.34
7.7102242 -3.0122933 0.19218537 201.34
4.7262592 -1.8464936 -1.7145466 201.34
4.9774885 -1.9446459 -1.6675029 201.34
5.7200112 -2.2347407 -1.6076401 201.34
6.1758204 -2.4128201 -1.5710309 201.34
6.7930369 -2.6539593 -1.5501896 201.34
7.15241 -2.7943621 -1.4467784 201.34
7.6908593 -3.0326116 -1.3582457 201.52
7.7697048 -3.0637016 -1.1737859 201.52
9.7259502 -3.8350761 -1.2226022 201.52
10.987381 -4.3324757 -1.1018841 201.52
14.562544 -5.7422113 -1.0946186 201.52
3.2549708 -1.2834798 -1.5578014 201.52
20.243427 -7.9822621 -1.0147734 201.52
2.8619571 -1.128509 -1.2850001 201.52
25.875544 -10.203083 -0.64577073 201.52
4.1803122 -1.6483546 -1.7546771 201.52
7.7381487 -3.0512586 0 201.52
2.9127886 -1.1485527 -1.1396111 201.52
7.717463 -3.043102 0.19260317 201.52
4.7098589 -1.8571622 -1.7107052 201.52
4.9553695 -1.9539704 -1.6621411 201.52
5.3458371 -2.1079371 -1.6477602 201.52
5.7093625 -2.2512803 -1.6066272 201.52
6.1374321 -2.420074 -1.5631918 201.52
6.7919455 -2.6781576 -1.5518528 201.52
7.12714 -2.8103294 -1.4434457 201.52
7.7368422 -3.0772994 -1.3679729 201.69
10.027095 -3.9882386 -1.0067627 201.69
14.534319 -5.7809696 -1.0937815 201.69
3.3750825 -1.3424261 -1.6171849 201.69
3.9577923 -1.5741967 -1.7791123 201.69
25.783846 -10.255426 -0.64423883 201.69
4.1771345 -1.6614392 -1.7554045 201.69
7.7067609 -3.0653346 0 201.69
2.9006364 -1.153717 -1.1361909 201.69
4.7060885 -1.8718288 -1.7113454 201.69
4.9921269 -1.9855994 -1.676439 201.69
5.343132 -2.1252103 -1.6488627 201.69
5.7026577 -2.2682104 -1.6066272 201.69
6.1537328 -2.4476237 -1.5691863 201.69
6.7876048 -2.6997437 -1.5526845 201.69
7.0475464 -2.8031347 -1.4290038 201.69
7.6740222 -3.0802708 -1.3585699 201.87
8.5246429 -3.4217007 -1.2909697 201.87
11.243461 -4.5130053 -1.1303091 201.87
13.040407 -5.2342806 -0.98258966 201.87
3.258939 -1.3081033 -1.5634956 201.87
20.120129 -8.076005 -1.0110466 201.87
3.9631033 -1.5907474 -1.7837374 201.87
7.7339859 -3.1043394 -0.19348519 201.87
4.1839967 -1.6794116 -1.7604969 201.87
36.196938 -14.529065 0 201.87
2.9440889 -1.181726 -1.15466 201.87
7.7061524 -3.0931673 0.19278885 201.87
4.7019434 -1.8873099 -1.7119857 201.87
4.9911799 -2.0034063 -1.6782264 201.87
5.338213 -2.1427019 -1.6494139 201.87
5.6901174 -2.2839525 -1.6051077 201.87
6.1062799 -2.4509957 -1.5590417 201.87
6.7772741 -2.7203257 -1.5522686 201.87
7.1061921 -2.8523498 -1.4427052 201.87
7.7586503 -3.1394248 -1.1762911 202.03
7.7137365 -3.1212511 -0.97311056 202.03
10.741635 -4.346446 -1.0810764 202.03
14.231586 -5.758604 -1.0735521 202.03
10.626561 -4.2998829 -0.53459138 202.03
3.9654887 -1.6045772 -1.7868208 202.03
10.681581 -4.3221459 -0.26752761 202.03
4.1810174 -1.6917877 -1.7612243 202.03
7.7570319 -3.1387699 0 202.03
57.196407 -23.143692 1.4325238 202.03
4.7054367 -1.9039863 -1.7151868 202.03
4.9537091 -2.0044463 -1.6675029 202.03
5.3322086 -2.1576006 -1.6494139 202.03
5.68013 -2.2983818 -1.6040946 202.03
6.1607485 -2.492857 -1.5747198 202.03
6.7623973 -2.7363055 -1.5506054 202.03
7.1273499 -2.8839784 -1.44863 202.03
7.7542729 -3.166039 -1.376079 202.21001
7.6900744 -3.139827 -1.167384 202.21001
10.863427 -4.4354944 -1.3722043 202.21001
10.757425 -4.3922143 -1.0840489 202.21001
3.5166893 -1.4358504 -1.691211 202.21001
11.80969 -4.8218503 -0.59487039 202.21001
3.9484682 -1.612144 -1.7814249 202.21001
7.8227925 -3.1940153 -0.19617763 202.21001
4.1739573 -1.7042103 -1.7604969 202.21001
42.07597 -17.179453 0 202.21001
7.7598548 -3.168318 0.1945993 202.21001
4.6941695 -1.9166108 -1.7132661 202.21001
4.9756684 -2.0315459 -1.6770349 202.21001
5.3254042 -2.1743414 -1.6494139 202.21001
5.6728816 -2.316215 -1.6040946 202.21001
6.1186538 -2.4982221 -1.5659585 202.21001
6.7646346 -2.7619736 -1.5531003 202.21001
7.1783009 -2.930872 -1.46085 202.21001
7.7211213 -3.1792641 -1.3718638 202.38
7.9939313 -3.2915967 -1.0109757 202.38
7.7963257 -3.2102301 -0.78660893 202.38
3.5293083 -1.4532348 -1.6993457 202.38
7.8032079 -3.213064 -0.39353678 202.38
3.9590259 -1.6301762 -1.7883625 202.38
7.7910953 -3.2080765 -0.19562058 202.38
4.1671596 -1.7158778 -1.7597693 202.38
32.287941 -13.294946 0 202.38
7.7134428 -3.1761024 0.19367087 202.38
4.6989741 -1.9348588 -1.7171075 202.38
4.9766803 -2.0492077 -1.6794178 202.38
5.3224845 -2.1915967 -1.6505165 202.38
5.662406 -2.3315632 -1.6030817 202.38
6.1346083 -2.5259984 -1.5719531 202.38
6.7744994 -2.7894812 -1.5572586 202.38
7.1786604 -2.9558992 -1.4627016 202.38
7.6928701 -3.1959333 -1.3686213 202.56
10.474371 -4.3514829 -0.79313111 202.56
3.5399108 -1.470624 -1.7066669 202.56
10.490395 -4.3581395 -0.52974671 202.56
3.9453635 -1.6390656 -1.7845082 202.56
7.7791319 -3.23177 -0.19557415 202.56
4.1651893 -1.7303903 -1.7612243 202.56
7.7424421 -3.2165275 0 202.56
4.680624 -1.944523 -1.7126259 202.56
4.9614024 -2.0611699 -1.676439 202.56
5.3191242 -2.2097821 -1.6516191 202.56
5.6461196 -2.3456292 -1.6005492 202.56
6.1625862 -2.5601909 -1.5811754 202.56
6.7512498 -2.8047457 -1.553932 202.56
7.105813 -2.9520457 -1.4497409 202.56
7.4587307 -3.1215842 -1.3284155 202.71001
7.8034244 -3.2658434 -0.7892099 202.71001
3.2292991 -1.3515073 -1.5586149 202.71001
3.9529757 -1.6543763 -1.7899042 202.71001
4.1709561 -1.7456043 -1.7655891 202.71001
38.249325 -16.007885 0 202.71001
3.5852458 -1.5004761 -1.4145954 202.71001
7.7097778 -3.226651 0.19404224 202.71001
4.6772652 -1.9575016 -1.7132661 202.71001
4.9436612 -2.0689921 -1.6722689 202.71001
5.315094 -2.2244422 -1.6521703 202.71001
5.6381745 -2.3596559 -1.6000427 202.71001
6.1504769 -2.5740616 -1.579792 202.71001
6.7547116 -2.8269424 -1.5564269 202.71001
7.1669559 -2.9994724 -1.4638125 202.71001
7.6246839 -3.2207925 -1.3598669 202.89999
7.8301458 -3.3075831 -0.99401766 202.89999
7.8402457 -3.3118496 -0.79404026 202.89999
7.8165159 -3.3018255 -0.59334856 202.89999
7.8270969 -3.3062952 -0.39623863 202.89999
3.9457679 -1.6667577 -1.7891333 202.89999
10.743653 -4.5382972 -0.27077714 202.89999
4.1565638 -1.7558013 -1.7619518 202.89999
38.026535 -16.063036 0 202.89999
3.5767877 -1.5108943 -1.4132272 202.89999
7.7137704 -3.258424 0.19441362 202.89999
4.6829662 -1.9781624 -1.7177478 202.89999
4.9613953 -2.0957754 -1.6806093 202.89999
5.2811236 -2.230834 -1.6439012 202.89999
5.6499238 -2.3866212 -1.6056142 202.89999
6.1508708 -2.5982296 -1.5820976 202.89999
6.7471023 -2.8500874 -1.5568427 202.89999
7.1497278 -3.0201633 -1.4623313 202.89999
7.6223569 -3.2464945 -1.3611639 203.07001
7.855022 -3.3455908 -0.99843138 203.07001
11.190452 -4.7662086 -1.1347679 203.07001
7.8544097 -3.34533 -0.59697592 203.07001
3.4056506 -1.4505259 -1.6480969 203.07001
10.714028 -4.5632915 -0.5430696 203.07001
3.9425032 -1.6791807 -1.7899042 203.07001
12.705826 -5.411633 -0.32063392 203.07001
7.7337451 -3.293937 0 203.07001
3.57056 -1.5207638 -1.4125432 203.07001
4.6840491 -1.9950181 -1.7203087 203.07001
4.9744768 -2.1187162 -1.6871625 203.07001
5.3116255 -2.2623138 -1.655478 203.07001
5.6321373 -2.3988254 -1.6025752 203.07001
6.1449251 -2.6172307 -1.5825588 203.07001
6.7332163 -2.8677943 -1.5555953 203.07001
7.1371188 -3.0398233 -1.4615906 203.07001
7.5836763 -3.2566366 -1.355976 203.24001
10.638308 -4.5683784 -1.0801474 203.24001
10.887633 -4.6754456 -0.82856739 203.24001
10.41774 -4.4736609 -0.52872187 203.24001
3.9307206 -1.6879582 -1.7868208 203.24001
7.7622762 -3.3333323 -0.19613121 203.24001
3.5092678 -1.5069751 -1.4913299 203.24001
3.2396495 -1.3911935 -1.2832596 203.24001
7.7181826 -3.3143973 0.1950171 203.24001
2.9666908 -1.2739776 -1.0909587 203.24001
4.9716773 -2.1349733 -1.688354 203.24001
5.3101892 -2.2803395 -1.6571318 203.24001
5.6445513 -2.4239237 -1.6081467 203.24001
6.1335564 -2.6339157 -1.5816365 203.24001
6.7408562 -2.8947067 -1.5593377 203.24001
7.1334858 -3.0633125 -1.4627016 203.24001
7.7418265 -3.3533964 -1.3861305 203.42
8.2026463 -3.5530021 -1.0453563 203.42
7.698401 -3.3345866 -0.78270745 203.42
7.8096004 -3.3827529 -0.39689079 203.42
3.9304786 -1.7024992 -1.7891333 203.42
10.665329 -4.6197205 -0.2698487 203.42
3.4976783 -1.5150303 -1.48842 203.42
7.7501841 -3.3570166 0 203.42
7.7370877 -3.3513439 0.19575985 203.42
2.9713671 -1.287057 -1.0941598 203.42
3.3111315 -1.434227 -1.1259665 203.42
5.3100557 -2.3000672 -1.6593369 203.42
5.6369085 -2.4416447 -1.6081467 203.42
6.1341805 -2.6570394 -1.5839422 203.42
6.7353191 -2.9174244 -1.5601693 203.42
7.0859532 -3.069303 -1.4549252 203.42
7.6414118 -3.3368626 -1.3699183 203.59
7.7970285 -3.4048176 -0.9949469 203.59
8.1875772 -3.5753629 -0.62473899 203.59
2.2788661 -0.99513853 -1.1071371 203.59
19.771624 -8.6339006 -1.0061089 203.59
3.9271011 -1.7148921 -1.7899042 203.59
10.666234 -4.6577463 -0.27022007 203.59
3.2541435 -1.421024 -1.3865731 203.59
7.7310252 -3.3759952 0 203.59
7.7289424 -3.3750856 0.19580626 203.59
4.6865873 -2.0465455 -1.7279915 203.59
3.2981133 -1.4402248 -1.1229877 203.59
5.299684 -2.3142736 -1.6582344 203.59
5.6172271 -2.4529388 -1.6046011 203.59
6.1369705 -2.6799011 -1.5867088 203.59
6.7194619 -2.9342642 -1.558506 203.59
7.1236458 -3.1107638 -1.4645531 203.59
7.772366 -3.4215422 -1.3952092 203.75999
8.7515621 -3.8526027 -1.3438555 203.75999
9.1431894 -4.0250044 -1.1682438 203.75999
2.2759035 -1.0018957 -1.1071371 203.75999
10.312713 -4.5398507 -0.52546108 203.75999
3.9287519 -1.7295108 -1.7929876 203.75999
10.672497 -4.6982346 -0.2707307 203.75999
3.1919396 -1.4051521 -1.3618388 203.75999
37.340008 -16.437777 0 203.75999
2.939635 -1.2940829 -1.1690248 203.75999
7.7573242 -3.4149206 0.19678111 203.75999
4.6735578 -2.0573883 -1.7254306 203.75999
3.2938254 -1.4500041 -1.1229877 203.75999
5.2822371 -2.3253403 -1.6549267 203.75999
5.6170077 -2.4727128 -1.6066272 203.75999
6.1325545 -2.6996663 -1.5876311 203.75999
6.7160978 -2.956553 -1.5597535 203.75999
7.1035919 -3.1271353 -1.4623313 203.75999
7.6846123 -3.4101663 -1.3812668 203.92999
7.8621006 -3.4889297 -1.2088575 203.92999
10.402324 -4.6161933 -1.0617548 203.92999
2.2946312 -1.0182784 -1.1177123 203.92999
3.1240382 -1.3863406 -1.4276066 203.92999
10.663993 -4.7323127 -0.27086997 203.92999
3.1111276 -1.3806113 -1.3291024 203.92999
7.7218242 -3.4266798 0 203.92999
2.9478073 -1.3081354 -1.1738131 203.92999
7.7252269 -3.4281895 0.19622406 203.92999
4.6553097 -2.0658662 -1.7209489 203.92999
3.3017244 -1.4651916 -1.127158 203.92999
5.2788286 -2.3425624 -1.6560292 203.92999
5.6290998 -2.4980006 -1.6121987 203.92999
6.1351905 -2.7225864 -1.5903978 203.92999
6.7162366 -2.9804344 -1.5618327 203.92999
7.0745211 -3.1394289 -1.4582579 203.92999
7.7573299 -3.4700215 -1.3961818 204.10001
7.8679585 -3.5195079 -1.0079558 204.10001
10.377675 -4.642158 -1.0606401 204.10001
8.0516186 -3.6016631 -0.61678672 204.10001
8.5421476 -3.8210871 -0.43639353 204.10001
3.0879035 -1.3812859 -1.4129605 204.10001
7.7606506 -3.4715068 -0.1973846 204.10001
2.9624655 -1.3251749 -1.2672668 204.10001
12.104181 -5.4144621 0 204.10001
3.0965986 -1.3851755 -1.2346927 204.10001
7.7241468 -3.455178 0.19645616 204.10001
3.3095622 -1.4804387 -1.1313282 204.10001
5.2701001 -2.3574297 -1.655478 204.10001
5.6304941 -2.5186417 -1.6147312 204.10001
6.1182032 -2.7368045 -1.5880922 204.10001
6.7002206 -2.9971535 -1.5601693 204.10001
7.0795279 -3.1668258 -1.4612204 204.10001
7.8099694 -3.5214145 -1.4075303 204.27
7.9784765 -3.5973921 -1.2300118 204.27
8.5321636 -3.8470426 -0.8731842 204.27
12.03861 -5.4280543 -0.92343622 204.27
10.282823 -4.6363921 -0.52602005 204.27
2.9508839 -1.3305155 -1.3520637 204.27
12.070225 -5.4423084 -0.30740377 204.27
2.8583183 -1.2887789 -1.2243456 204.27
12.117234 -5.4635053 0 204.27
3.1027548 -1.3989922 -1.2387969 204.27
7.7448478 -3.4920521 0.19724533 204.27
3.2894907 -1.483189 -1.1259665 204.27
5.2648349 -2.3738463 -1.6560292 204.27
5.6212325 -2.5345414 -1.6142248 204.27
6.0923147 -2.7469463 -1.583481 204.27
6.7002153 -3.0210409 -1.5622485 204.27
7.0951843 -3.1991272 -1.4664046 204.27
7.7599592 -3.526608 -1.4003971 204.44
8.0398903 -3.653826 -1.2411457 204.44
8.0386324 -3.6532543 -1.0325797 204.44
8.0493526 -3.6581264 -0.82488036 204.44
2.857877 -1.298797 -1.3112088 204.44
11.091085 -5.0404787 -0.28284675 204.44
2.8476975 -1.2941707 -1.2214355 204.44
12.044526 -5.4737816 0 204.44
2.9993532 -1.3630925 -1.1991227 204.44
7.7217107 -3.5092254 0.19692038 204.44
3.2815993 -1.4913628 -1.1247751 204.44
5.2560182 -2.3886614 -1.655478 204.44
5.627779 -2.5576127 -1.6182767 204.44
6.1231155 -2.7827244 -1.5936257 204.44
6.6840982 -3.0376699 -1.5605851 204.44
7.0874505 -3.2209783 -1.4667749 204.44
7.793695 -3.5715234 -1.4085031 204.62
8.3720379 -3.8365538 -1.0769492 204.62
10.710209 -4.9080391 -0.82382393 204.62
2.8087366 -1.2871261 -1.3755833 204.62
8.3363934 -3.8202193 -0.42763585 204.62
2.8235838 -1.2939301 -1.2973336 204.62
2.9367678 -1.3457974 -1.261447 204.62
7.7615433 -3.5567896 0.19822018 204.62
3.2451997 -1.4871389 -1.2062008 204.62
5.2554789 -2.4083655 -1.657683 204.62
5.6038861 -2.5680258 -1.6137183 204.62
6.0754209 -2.7841105 -1.583481 204.62
6.6140552 -3.0309439 -1.5464472 204.62
7.0987377 -3.2530537 -1.4712186 204.62
8.0045872 -3.6986384 -1.4487089 204.8
7.7848468 -3.5971043 -1.2052391 204.8
8.2607641 -3.817009 -1.0641727 204.8
8.745676 -4.0410695 -0.89882237 204.8
2.7715073 -1.2806162 -1.3593138 204.8
2.8295567 -1.3074387 -1.3019587 204.8
10.293239 -4.756144 -0.26325682 204.8
3.0170848 -1.394089 -1.2978208 204.8
12.142431 -5.6105909 0 204.8
3.0077901 -1.3897941 -1.205963 204.8
7.7412558 -3.5769622 0.19798808 204.8
3.2645919 -1.5084532 -1.2151641 204.8
4.894381 -2.2615216 -1.6823965 204.8
5.2531223 -2.4272833 -1.6593369 204.8
5.5993037 -2.5872414 -1.6147312 204.8
6.1072774 -2.8219583 -1.5940868 204.8
6.6417937 -3.0689397 -1.5551795 204.8
7.092051 -3.2769876 -1.4719591 204.8
7.6983805 -3.5849078 -1.3952092 204.97
7.8477516 -3.6544654 -1.2166512 204.97
8.0008936 -3.7257793 -1.0321151 204.97
8.9364967 -4.1614618 -0.6893335 204.97
2.7941964 -1.3011744 -1.3723295 204.97
2.827338 -1.3166075 -1.3027296 204.97
12.037273 -5.6054015 -0.30828577 204.97
2.952136 -1.3747222 -1.2716316 204.97
7.765327 -3.6160827 0 204.97
3.1825435 -1.4820162 -1.2777872 204.97
7.7269835 -3.5982273 0.19789523 204.97
3.2326195 -1.5053351 -1.2049203 204.97
4.9032264 -2.283287 -1.6877583 204.97
5.2458978 -2.4428589 -1.6593369 204.97
5.5793247 -2.5981262 -1.6111857 204.97
6.0618291 -2.8228142 -1.5844033 204.97
6.6610341 -3.1018462 -1.5618327 204.97
7.094769 -3.3038235 -1.4745513 204.97
7.802052 -3.6613925 -1.4159606 205.14
7.8729401 -3.6946592 -0.60813695 205.14
2.7291248 -1.2807395 -1.3422309 205.14
2.8568323 -1.3406709 -1.3181465 205.14
10.174331 -4.7746692 -0.26093575 205.14
2.9716556 -1.3945558 -1.2818162 205.14
11.956839 -5.6111746 0 205.14
3.1883404 -1.496243 -1.2818915 205.14
7.7633348 -3.643223 0.19910219 205.14
3.2538679 -1.5269941 -1.2145239 205.14
4.89643 -2.2978253 -1.6877583 205.14
5.2386265 -2.4584131 -1.6593369 205.14
5.5610824 -2.6097372 -1.6081467 205.14
6.0851388 -2.8556693 -1.5927033 205.14
6.6518011 -3.1215961 -1.5618327 205.14
7.0867143 -3.3256946 -1.4749216 205.14
7.7655358 -3.6740689 -1.4114212 205.32001
8.4876823 -4.0157347 -1.3196393 205.32001
