# .PCD v0.7 - Point Cloud Data file format
VERSION 0.7
FIELDS x y z intensity
SIZE 4 4 4 4
TYPE F F F F
COUNT 1 1 1 1
WIDTH 1223
HEIGHT 1
VIEWPOINT 0 0 0 1 0 0 0
POINTS 1223
DATA ascii
7.2365284 -2.8447101 -1.0927871 201.46001
7.2785211 -2.8612175 -0.91457057 201.46001
7.5906487 -2.983916 -0.57032895 201.46001
4.036808 -1.5868863 -1.9311856 201.46001
7.7106237 -3.0310788 -0.38636294 201.46001
4.2698016 -1.678477 -1.9163229 201.46001
17.512411 -6.8842034 -0.43687358 201.46001
4.5322733 -1.7816558 -1.9016275 201.46001
8.7129622 -3.4251025 0 201.46001
4.8152542 -1.8928969 -1.8831629 201.46001
53.216446 -20.919609 1.3275646 201.46001
5.2831426 -2.0768256 -1.918141 201.46001
31.415167 -12.349436 1.5741471 201.46001
5.632616 -2.2142053 -1.8885258 201.46001
6.0440559 -2.3759441 -1.862206 201.46001
6.5490274 -2.5744505 -1.842151 201.46001
31.770737 -12.489211 3.9920995 201.46001
7.1687241 -2.8180556 -1.8251071 201.46001
16.148556 -6.3480654 2.438591 201.46001
7.7724466 -3.0553818 -1.7751501 201.46001
7.3440914 -2.8869934 -1.4867713 201.46001
7.2790785 -2.887871 -1.2865884 201.64
7.2625337 -2.8813071 -1.0980757 201.64
7.3304296 -2.9082439 -0.92223656 201.64
7.5793824 -3.0070124 -0.57018942 201.64
4.0385957 -1.6022556 -1.9344394 201.64
7.7549171 -3.0766532 -0.38906479 201.64
4.266223 -1.6925633 -1.9170938 201.64
4.5283852 -1.7965726 -1.9023551 201.64
4.8092837 -1.9080151 -1.8831629 201.64
5.2748308 -2.0927141 -1.9175007 201.64
31.576775 -12.527637 1.5842092 201.64
5.6291814 -2.2332978 -1.8897173 201.64
31.791864 -12.612971 2.3916705 201.64
6.0294142 -2.3920844 -1.8600008 201.64
6.5373106 -2.593585 -1.841138 201.64
31.698107 -12.575774 3.9879181 201.64
7.1652622 -2.842716 -1.8264905 201.64
7.7628098 -3.0797846 -1.7751501 201.64
7.4007535 -2.9361439 -1.5001023 201.64
7.3181176 -2.9285197 -1.2950187 201.81
7.2686629 -2.9087296 -1.1003026 201.81
7.3420553 -2.9380991 -0.92479187 201.81
7.4525666 -2.9823229 -0.74889475 201.81
7.6297011 -3.0532076 -0.5746538 201.81
4.0270391 -1.611516 -1.9311856 201.81
7.7809958 -3.1137516 -0.39083496 201.81
4.2646089 -1.7065853 -1.9186355 201.81
4.5230346 -1.8100005 -1.9023551 201.81
4.8018565 -1.9215779 -1.8824788 201.81
5.2721167 -2.1097636 -1.9187813 201.81
31.309467 -12.529232 1.5726565 201.81
5.6189852 -2.2485714 -1.8885258 201.81
31.746893 -12.704279 2.3911123 201.81
6.0329995 -2.4142492 -1.8633085 201.81
6.5367718 -2.6158457 -1.8431641 201.81
31.741802 -12.702242 3.9981394 201.81
7.149569 -2.8610711 -1.824646 201.81
16.164639 -6.468667 2.4469414 201.81
7.7572703 -3.1042573 -1.7759817 201.81
16.081902 -6.4355578 2.8458636 201.81
7.4193807 -2.9690428 -1.5056568 201.81
7.3441677 -2.9642549 -1.3011793 201.98
7.3316274 -2.9591932 -1.111158 201.98
7.394094 -2.984406 -0.9324578 201.98
7.4547648 -3.008894 -0.75000948 201.98
8.3569527 -3.3730354 -0.63018 201.98
4.0239339 -1.6241412 -1.9319991 201.98
7.8050699 -3.1502843 -0.39251196 201.98
4.2595267 -1.7192311 -1.9186355 201.98
4.5176444 -1.8234128 -1.9023551 201.98
4.8013625 -1.937927 -1.884531 201.98
53.161602 -21.457098 1.3309999 201.98
5.2640762 -2.1246877 -1.918141 201.98
31.17767 -12.583939 1.5679049 201.98
5.612289 -2.2652335 -1.8885258 201.98
31.660955 -12.779002 2.387485 201.98
6.0204616 -2.42998 -1.8616548 201.98
16.383125 -6.6125607 1.6482745 201.98
6.5307755 -2.6359532 -1.8436706 201.98
31.630291 -12.766625 3.9888473 201.98
7.1446576 -2.8837285 -1.8255682 201.98
16.205982 -6.5410624 2.4561269 201.98
7.7443972 -3.1257954 -1.7751501 201.98
16.057247 -6.4810295 2.8448908 201.98
7.450635 -3.0072269 -1.5138035 201.98
7.3687658 -2.9981399 -1.3070155 202.14
7.3783703 -3.0020475 -1.1195084 202.14
7.4022913 -3.0117803 -0.9345485 202.14
7.5385594 -3.067224 -0.75929868 202.14
8.3234768 -3.3865843 -0.62836629 202.14
4.019383 -1.6353718 -1.9319991 202.14
7.8406549 -3.1901379 -0.39474797 202.14
4.2529993 -1.7304237 -1.9178646 202.14
4.5125351 -1.8360212 -1.9023551 202.14
4.7941914 -1.9506191 -1.883847 202.14
56.268448 -22.89402 1.4103807 202.14
5.2686529 -2.1436641 -1.9219824 202.14
31.086893 -12.648366 1.56511 202.14
5.6130152 -2.2837751 -1.8909088 202.14
31.567858 -12.844057 2.3831601 202.14
6.0136523 -2.4467828 -1.8616548 202.14
16.418085 -6.6800489 1.6536622 202.14
6.5215969 -2.653451 -1.8431641 202.14
31.417877 -12.783034 3.9665463 202.14
7.1347742 -2.9029355 -1.8251071 202.14
7.7356381 -3.1474097 -1.7751501 202.14
16.046398 -6.5288196 2.8461878 202.14
7.4713359 -3.0398726 -1.5197284 202.14
7.4018316 -3.0372217 -1.3144732 202.31
7.4152374 -3.0427225 -1.1264671 202.31
7.3988357 -3.0359924 -0.93524539 202.31
8.319767 -3.4138813 -0.83899999 202.31
8.2967796 -3.4044492 -0.62711072 202.31
4.014513 -1.6472903 -1.9319991 202.31
7.8570309 -3.2240055 -0.3960523 202.31
4.2512612 -1.7444361 -1.9194063 202.31
4.5070677 -1.8494021 -1.9023551 202.31
4.7901211 -1.9655486 -1.884531 202.31
57.783691 -23.710602 1.4501176 202.31
5.2605166 -2.1585677 -1.9213421 202.31
32.067627 -13.158432 1.6164449 202.31
5.6079807 -2.3011439 -1.8915046 202.31
31.489002 -12.921001 2.380091 202.31
6.0117016 -2.4668043 -1.8633085 202.31
16.475571 -6.7604833 1.6614652 202.31
6.5101156 -2.6713204 -1.842151 202.31
16.354258 -6.7107043 2.06725 202.31
7.1261296 -2.9240918 -1.8251071 202.31
31.187239 -12.797178 4.7377305 202.31
7.7335052 -3.1733184 -1.7768133 202.31
7.5150142 -3.0836644 -1.5304673 202.31
7.4245386 -3.0753446 -1.3203095 202.5
7.4380426 -3.0809381 -1.1314774 202.5
7.4291029 -3.0772352 -0.94035608 202.5
8.2605658 -3.4216385 -0.83416957 202.5
8.2633257 -3.4227815 -0.62543654 202.5
4.0090284 -1.6605939 -1.9319991 202.5
7.8998237 -3.2722139 -0.39875412 202.5
4.242043 -1.7571118 -1.9178646 202.5
4.5060735 -1.8664768 -1.9045374 202.5
4.7818408 -1.9807032 -1.883847 202.5
30.766136 -12.743751 0.77315158 202.5
5.2463274 -2.1731 -1.9187813 202.5
29.777536 -12.334259 1.5030608 202.5
5.6056104 -2.3219199 -1.8932918 202.5
30.957518 -12.823024 2.3431199 202.5
6.0088172 -2.4889336 -1.8649623 202.5
6.5047965 -2.6943748 -1.8431641 202.5
16.85129 -6.9800329 2.1329913 202.5
7.1127982 -2.9462175 -1.8241849 202.5
17.701262 -7.3321023 2.6927211 202.5
7.7283616 -3.2011921 -1.7780608 202.5
7.5755639 -3.1379013 -1.5449091 202.5
7.4463396 -3.110291 -1.3258215 202.67
7.4233861 -3.1007037 -1.1306423 202.67
7.4657645 -3.1184049 -0.94616359 202.67
8.2457695 -3.4442084 -0.62487847 202.67
4.0074553 -1.67389 -1.9336261 202.67
7.928793 -3.3118091 -0.40071064 202.67
4.2436228 -1.7725356 -1.920948 202.67
4.4953585 -1.8776841 -1.9023551 202.67
4.7759428 -1.9948825 -1.883847 202.67
30.956968 -12.930539 0.77890784 202.67
5.2398567 -2.1886566 -1.9187813 202.67
17.066906 -7.1287441 0.86253875 202.67
5.6004581 -2.3392777 -1.8938876 202.67
30.946951 -12.926354 2.3452127 202.67
6.0049539 -2.5082331 -1.8660649 202.67
31.292635 -13.070745 3.1638994 202.67
6.4896321 -2.7106802 -1.841138 202.67
7.1112084 -2.9703088 -1.8260293 202.67
7.7224398 -3.2256165 -1.7788924 202.67
17.702583 -7.3942628 3.151947 202.67
7.5152864 -3.1653111 -1.3397639 202.84
7.4908137 -3.1550035 -1.1423328 202.84
7.4985857 -3.158277 -0.9515065 202.84
7.6601882 -3.2263412 -0.77546185 202.84
8.2299986 -3.4663355 -0.62445998 202.84
3.9991035 -1.6843545 -1.9319991 202.84
7.9318199 -3.3407478 -0.40136281 202.84
4.2366438 -1.7844025 -1.9201771 202.84
4.4914842 -1.891737 -1.9030825 202.84
4.7717347 -2.0097737 -1.884531 202.84
30.888983 -13.009915 0.7781651 202.84
5.2385783 -2.2064002 -1.920702 202.84
16.924162 -7.1281695 0.8563897 202.84
5.5952525 -2.3566253 -1.8944833 202.84
16.463675 -6.9342198 1.2491989 202.84
5.9939418 -2.5245464 -1.8649623 202.84
16.959225 -7.1429372 1.7168287 202.84
6.4815607 -2.7299232 -1.841138 202.84
17.027428 -7.1716638 2.1606352 202.84
7.1005702 -2.9906397 -1.8255682 202.84
17.706722 -7.4577703 2.7002366 202.84
7.7164412 -3.2500341 -1.7797241 202.84
7.5343676 -3.2012537 -1.3449517 203.02
7.5100303 -3.190913 -1.1467863 203.02
7.5379901 -3.2027929 -0.95777863 203.02
7.6610112 -3.2550628 -0.77657658 203.02
8.2319212 -3.4976351 -0.62543654 203.02
3.9954739 -1.6976242 -1.9328126 203.02
7.945189 -3.3758063 -0.40257397 203.02
4.2327156 -1.7984252 -1.920948 203.02
4.4786606 -1.9029239 -1.9001726 203.02
4.7636676 -2.0240197 -1.883847 203.02
30.892124 -13.125657 0.77927923 203.02
5.2281332 -2.221365 -1.9194214 203.02
16.969717 -7.2102098 0.85983688 203.02
5.5807924 -2.3712053 -1.8921003 203.02
31.017984 -13.179132 2.3566527 203.02
5.9895201 -2.5448682 -1.8660649 203.02
16.846893 -7.1580234 1.7077253 203.02
6.4818559 -2.7540553 -1.8436706 203.02
16.339321 -6.9423623 2.0760775 203.02
7.0965133 -3.0152152 -1.8269516 203.02
17.324108 -7.360786 2.6454022 203.02
7.7115941 -3.2765548 -1.7809715 203.02
8.4530373 -3.5915844 -1.7304314 203.02
7.5580549 -3.236264 -1.3507881 203.17999
7.5593514 -3.236819 -1.1556934 203.17999
7.5874519 -3.2488515 -0.96521229 203.17999
7.6793504 -3.2882013 -0.77936333 203.17999
8.2624722 -3.5378864 -0.62850583 203.17999
3.9907176 -1.708775 -1.9328126 203.17999
8.0000105 -3.4255037 -0.40583482 203.17999
4.2276769 -1.8102381 -1.920948 203.17999
4.4801798 -1.9183565 -1.9030825 203.17999
4.757997 -2.0373144 -1.883847 203.17999
30.888435 -13.226039 0.78011483 203.17999
5.2201676 -2.2352102 -1.9187813 203.17999
16.918295 -7.2442012 0.85825306 203.17999
5.5741491 -2.3867805 -1.8921003 203.17999
31.986128 -13.696057 2.4331057 203.17999
5.9841571 -2.5623407 -1.8666161 203.17999
16.731647 -7.1642814 1.6980646 203.17999
6.4670258 -2.769099 -1.8416445 203.17999
16.356392 -7.0036011 2.0807235 203.17999
7.0701756 -3.0273602 -1.8223404 203.17999
30.918329 -13.238839 4.7268753 203.17999
7.702414 -3.2980769 -1.7809715 203.17999
8.4483957 -3.6174965 -1.7315423 203.17999
18.033241 -7.7216067 3.6960061 203.17999
7.6233702 -3.2941887 -1.3644062 203.37
7.5849371 -3.2775812 -1.1612604 203.37
7.6167536 -3.2913299 -0.97032291 203.37
7.6556082 -3.3081195 -0.77806282 203.37
8.2415371 -3.5613093 -0.62780827 203.37
3.9867065 -1.7227242 -1.9336261 203.37
8.061964 -3.4837129 -0.40956149 203.37
4.2216506 -1.8242476 -1.920948 203.37
4.4755034 -1.9339418 -1.90381 203.37
52.736942 -22.788536 0 203.37
4.7563906 -2.0553179 -1.8858991 203.37
30.681053 -13.257809 0.77598327 203.37
5.2144661 -2.2532601 -1.9194214 203.37
31.365736 -13.553672 1.5934327 203.37
5.5591931 -2.4022226 -1.8897173 203.37
31.911232 -13.78939 2.4308736 203.37
5.9738626 -2.5814083 -1.8660649 203.37
16.799198 -7.2592211 1.7073537 203.37
6.4631357 -2.7928317 -1.8431641 203.37
16.345842 -7.0633183 2.0823498 203.37
7.0726027 -3.0561929 -1.8255682 203.37
30.726995 -13.277661 4.704329 203.37
7.6932311 -3.3243768 -1.7813873 203.37
8.4309406 -3.6431537 -1.7304314 203.37
7.657568 -3.334374 -1.3721881 203.53
7.6592841 -3.3351212 -1.1740643 203.53
7.6257458 -3.3205175 -0.97264594 203.53
7.7138944 -3.3589003 -0.78493685 203.53
3.9869056 -1.7360387 -1.9360664 203.53
8.1144829 -3.5333307 -0.41272917 203.53
4.2233081 -1.8389766 -1.9240314 203.53
31.082047 -13.534215 -0.78707802 203.53
4.4683776 -1.9456885 -1.9030825 203.53
31.121595 -13.551435 0 203.53
4.7506323 -2.0685921 -1.8858991 203.53
30.7924 -13.408092 0.77974343 203.53
5.2168393 -2.271595 -1.9226227 203.53
16.862738 -7.342628 0.85769403 203.53
5.5437112 -2.4139264 -1.8867387 203.53
17.130791 -7.4593477 1.3065387 203.53
5.9701557 -2.5996156 -1.8671675 203.53
30.71134 -13.372796 3.1250706 203.53
6.458859 -2.8124142 -1.844177 203.53
16.386156 -7.1351075 2.0900156 203.53
7.0569034 -3.0728235 -1.8237238 203.53
7.6857109 -3.3466284 -1.7818031 203.53
8.2981977 -3.6133268 -1.7052507 203.53
7.6886148 -3.3766665 -1.3796456 203.71001
7.6542091 -3.3615563 -1.1748993 203.71001
7.635283 -3.3532445 -0.97520125 203.71001
7.765295 -3.4103427 -0.79125351 203.71001
8.0284529 -3.5259156 -0.61315942 203.71001
3.9797592 -1.7478206 -1.9352529 203.71001
8.178339 -3.5917425 -0.416549 203.71001
4.2141304 -1.8507513 -1.9224896 203.71001
30.94784 -13.591595 -0.78475696 203.71001
4.460537 -1.9589676 -1.9023551 203.71001
30.998297 -13.613754 0 203.71001
4.745831 -2.0842621 -1.8865831 203.71001
30.960655 -13.597222 0.78508192 203.71001
5.1749806 -2.2727351 -1.9098179 203.71001
16.841415 -7.3963709 0.85778719 203.71001
5.5361004 -2.4313307 -1.8867387 203.71001
17.02507 -7.4770274 1.3002607 203.71001
5.9637198 -2.6191316 -1.8677187 203.71001
30.707466 -13.486028 3.1289721 203.71001
6.4535351 -2.8342474 -1.84519 203.71001
16.927485 -7.4341702 2.162029 203.71001
7.0525608 -3.0973258 -1.8251071 203.71001
30.411926 -13.356234 4.6681442 203.71001
7.6751595 -3.3707573 -1.7818031 203.71001
17.738926 -7.7905374 3.1830742 203.71001
8.0816593 -3.549283 -1.6630361 203.71001
7.7206645 -3.4164925 -1.3871031 203.87
7.7190485 -3.4157772 -1.1863115 203.87
7.7149005 -3.4139416 -0.98658401 203.87
7.7393517 -3.4247618 -0.78958142 203.87
3.9715211 -1.7574487 -1.9336261 203.87
8.1828928 -3.6210344 -0.41729432 203.87
4.1971326 -1.8572845 -1.9170938 203.87
4.465271 -1.9759394 -1.9067199 203.87
4.7434292 -2.0990279 -1.8879511 203.87
30.458139 -13.478115 0.77329081 203.87
5.1322274 -2.271076 -1.896373 203.87
5.5240512 -2.444463 -1.8849514 203.87
17.06798 -7.5527983 1.3051436 203.87
5.9581404 -2.636553 -1.86827 203.87
30.589561 -13.53627 3.1207974 203.87
6.452672 -2.8553896 -1.8472161 203.87
16.837629 -7.4508653 2.1532016 203.87
7.0403247 -3.1154332 -1.8241849 203.87
15.497864 -6.8580022 2.3818085 203.87
7.6639276 -3.3913856 -1.7813873 203.87
15.950265 -7.0581951 2.8656423 203.87
8.0537434 -3.563884 -1.6593331 203.87
17.672943 -7.8205028 3.641201 203.87
7.7567511 -3.461642 -1.3955334 204.05
7.7534943 -3.4601889 -1.1932702 204.05
7.7458596 -3.4567816 -0.99192697 204.05
7.7303729 -3.4498703 -0.78976721 204.05
8.0529366 -3.5938222 -0.61664724 204.05
3.9709859 -1.7721508 -1.9360664 204.05
30.854212 -13.769456 -1.5756378 204.05
4.2047591 -1.8764778 -1.9232606 204.05
4.4522367 -1.9869207 -1.90381 204.05
4.7350955 -2.1131535 -1.8872671 204.05
31.343199 -13.987678 0.79687297 204.05
5.1129556 -2.2817829 -1.8918914 204.05
16.651278 -7.4310446 0.85033387 204.05
5.5198317 -2.4633615 -1.8861428 204.05
5.9550953 -2.6576085 -1.8699238 204.05
30.426865 -13.578741 3.1085358 204.05
6.445437 -2.8764358 -1.8477225 204.05
16.647249 -7.4292469 2.13183 204.05
7.0162849 -3.1311908 -1.820496 204.05
15.497946 -6.9163418 2.3851485 204.05
7.6568084 -3.4170401 -1.7822191 204.05
15.949639 -7.1179209 2.8695331 204.05
8.0227652 -3.5803573 -1.6552597 204.05
17.709311 -7.9032183 3.6537914 204.05
7.818439 -3.5170267 -1.4085031 204.22
7.7359691 -3.4799285 -1.1921568 204.22
7.75912 -3.4903429 -0.9949469 204.22
7.8236189 -3.5193567 -0.80035692 204.22
8.038599 -3.6160629 -0.61636817 204.22
3.9657104 -1.7839251 -1.9360664 204.22
30.809578 -13.859303 -1.5754515 204.22
4.1974902 -1.8881882 -1.9224896 204.22
4.4480205 -2.0008862 -1.9045374 204.22
4.7339468 -2.1295066 -1.8893193 204.22
31.299734 -14.079793 0.7968266 204.22
5.0664196 -2.2790651 -1.877166 204.22
5.5020514 -2.4750288 -1.8825684 204.22
16.224579 -7.2984233 1.2440369 204.22
5.9489369 -2.6760547 -1.8704751 204.22
17.238113 -7.7543488 1.7634605 204.22
6.4351091 -2.8947532 -1.8472161 204.22
6.9945402 -3.1464062 -1.8172681 204.22
7.6537724 -3.4429536 -1.7838823 204.22
15.892453 -7.1490207 2.8630483 204.22
7.9995594 -3.5985014 -1.6526676 204.22
17.701916 -7.9629846 3.6571243 204.22
7.9205794 -3.5929341 -1.4289302 204.39999
7.8223948 -3.5483956 -1.2071875 204.39999
7.7842975 -3.5311139 -0.9995929 204.39999
7.8633018 -3.5669518 -0.80555886 204.39999
3.9567585 -1.7948653 -1.9344394 204.39999
4.1848149 -1.8983161 -1.9194063 204.39999
4.445106 -2.0163894 -1.9059924 204.39999
4.7255216 -2.1435916 -1.8886353 204.39999
30.572519 -13.86831 0.77941847 204.39999
5.0368028 -2.284795 -1.868843 204.39999
16.651058 -7.5532546 0.85266304 204.39999
5.4855552 -2.4883583 -1.8795897 204.39999
16.288782 -7.3889194 1.2507336 204.39999
5.9334974 -2.6915538 -1.86827 204.39999
29.349556 -13.313549 3.0067263 204.39999
6.4154115 -2.9101598 -1.844177 204.39999
16.693817 -7.5726514 2.1436772 204.39999
6.9793038 -3.1659527 -1.8158847 204.39999
29.929634 -13.576684 4.6188769 204.39999
7.6375737 -3.4645572 -1.7826349 204.39999
7.9810557 -3.6203673 -1.6511863 204.39999
7.9314222 -3.6262665 -1.4328212 204.57001
7.828043 -3.5790012 -1.2096926 204.57001
7.8279839 -3.5789742 -1.006562 204.57001
7.8979597 -3.6109674 -0.81020343 204.57001
8.1959934 -3.7472289 -0.63018 204.57001
3.9547391 -1.8081168 -1.9360664 204.57001
4.1909127 -1.916096 -1.9248022 204.57001
4.4391036 -2.0295694 -1.9059924 204.57001
4.7088857 -2.1529145 -1.884531 204.57001
30.582151 -13.982238 0.78071827 204.57001
4.9938145 -2.2831845 -1.8553981 204.57001
16.615854 -7.5968113 0.85201085 204.57001
5.4885659 -2.5093863 -1.8831642 204.57001
16.335737 -7.4687409 1.2560351 204.57001
5.9237366 -2.7083476 -1.8677187 204.57001
29.463863 -13.470953 3.0225177 204.57001
6.4120274 -2.9315953 -1.8456966 204.57001
15.838434 -7.2413726 2.0365863 204.57001
6.9787292 -3.1906927 -1.8181903 204.57001
16.21266 -7.4124689 2.5053942 204.57001
7.621923 -3.4847627 -1.7813873 204.57001
15.812589 -7.2295561 2.8565636 204.57001
7.9792161 -3.6481178 -1.6530379 204.57001
16.037081 -7.3321939 3.3223691 204.57001
7.9475141 -3.6621723 -1.4376848 204.74001
7.9217172 -3.6502855 -1.2258366 204.74001
7.8858876 -3.6337752 -1.0153894 204.74001
7.9432769 -3.6602199 -0.81596273 204.74001
8.1667185 -3.7631807 -0.62878484 204.74001
3.9576538 -1.8236659 -1.9401338 204.74001
4.1734762 -1.9231158 -1.9194063 204.74001
47.703011 -21.981295 -1.2194487 204.74001
4.438138 -2.0450706 -1.9081749 204.74001
4.7144251 -2.1723821 -1.8893193 204.74001
30.87648 -14.227718 0.78930628 204.74001
4.9801345 -2.2948196 -1.8528371 204.74001
16.58054 -7.6402254 0.85135871 204.74001
5.4915004 -2.5304542 -1.8867387 204.74001
16.347933 -7.5330415 1.2586858 204.74001
5.9278975 -2.7315438 -1.8715776 204.74001
29.34057 -13.519979 3.0139718 204.74001
6.3910007 -2.9449391 -1.842151 204.74001
6.967464 -3.2105706 -1.8177292 204.74001
16.019712 -7.3817987 2.4789512 204.74001
7.6186571 -3.5106368 -1.7830507 204.74001
15.753428 -7.2590961 2.8497543 204.74001
7.998702 -3.6857595 -1.6593331 204.74001
8.0064211 -3.7181556 -1.4503301 204.91
7.9719257 -3.702136 -1.2353004 204.91
7.9111047 -3.6738908 -1.0200354 204.91
7.9378004 -3.6862884 -0.81652009 204.91
8.1754217 -3.796639 -0.63031948 204.91
3.9422827 -1.8307831 -1.9352529 204.91
4.1811423 -1.9417087 -1.9255731 204.91
4.4269819 -2.0558758 -1.9059924 204.91
4.7113681 -2.1879437 -1.8906873 204.91
30.395275 -14.115465 0.77807224 204.91
4.9733038 -2.3095858 -1.8528371 204.91
16.554174 -7.6877041 0.85117239 204.91
5.4839683 -2.5467367 -1.8867387 204.91
16.855701 -7.8277321 1.2995631 204.91
5.9197664 -2.74912 -1.8715776 204.91
30.542921 -14.184032 3.1417911 204.91
6.3769703 -2.9614439 -1.8406315 204.91
15.679878 -7.2816834 2.021719 204.91
6.9596725 -3.232049 -1.8181903 204.91
16.003128 -7.4318004 2.4797864 204.91
7.5975614 -3.5282824 -1.7805557 204.91
15.726451 -7.3033118 2.8487816 204.91
8.0483389 -3.737622 -1.6719234 204.91
16.159067 -7.5042176 3.3568075 204.91
8.040041 -3.7628083 -1.4584361 205.08
8.0021639 -3.7450817 -1.2417024 205.08
7.9469476 -3.7192402 -1.0260752 205.08
8.2201385 -3.847096 -0.63464439 205.08
3.9467623 -1.8471189 -1.9401338 205.08
4.17202 -1.9525414 -1.9240314 205.08
4.4208622 -2.0690017 -1.9059924 205.08
4.6946421 -2.1971331 -1.8865831 205.08
4.9612808 -2.3219223 -1.8509164 205.08
16.505959 -7.7249317 0.84986806 205.08
5.478117 -2.5638061 -1.8873343 205.08
5.9133248 -2.767487 -1.872129 205.08
30.482666 -14.266151 3.1399331 205.08
6.3681555 -2.9803517 -1.8406315 205.08
15.71038 -7.3525934 2.0284557 205.08
6.9482894 -3.2518594 -1.8177292 205.08
7.5888314 -3.5516386 -1.7809715 205.08
16.292789 -7.6251664 2.955457 205.08
8.0834961 -3.7831461 -1.6815513 205.08
16.184793 -7.5746236 3.3668058 205.08
8.0752506 -3.8085353 -1.4668664 205.25
8.0895386 -3.815274 -1.2570114 205.25
7.9915743 -3.7690711 -1.0332766 205.25
8.0454645 -3.7944872 -0.82989657 205.25
8.3169584 -3.9225323 -0.64301515 205.25
3.9396119 -1.8580416 -1.9393203 205.25
4.1678772 -1.9656986 -1.9248022 205.25
4.416389 -2.0829043 -1.9067199 205.25
4.6966019 -2.2150612 -1.8900033 205.25
4.9577975 -2.338249 -1.8521969 205.25
16.466703 -7.7662015 0.84902954 205.25
5.4722123 -2.580863 -1.8879302 205.25
16.722338 -7.8867664 1.2928665 205.25
5.9050875 -2.7850201 -1.872129 205.25
6.3645344 -3.0017092 -1.842151 205.25
15.817855 -7.4601846 2.0451815 205.25
6.9350901 -3.2708008 -1.816807 205.25
16.068016 -7.5781684 2.4967654 205.25
7.5729518 -3.571636 -1.7797241 205.25
17.335728 -8.1760597 3.1490288 205.25
8.107789 -3.8238814 -1.6889575 205.25
15.849385 -7.4750552 3.3016322 205.25
8.1220627 -3.8618517 -1.4775664 205.42999
8.1168623 -3.8593793 -1.2631351 205.42999
7.9976339 -3.8026888 -1.0355996 205.42999
8.3874779 -3.9880507 -0.64943278 205.42999
3.9370553 -1.8719782 -1.9409473 205.42999
4.1666813 -1.98116 -1.9271147 205.42999
48.223946 -22.929365 -1.239735 205.42999
4.4098239 -2.0967686 -1.9067199 205.42999
48.20985 -22.922661 0 205.42999
4.6828303 -2.226577 -1.8872671 205.42999
48.272701 -22.952545 1.2409884 205.42999
4.9504271 -2.3538129 -1.8521969 205.42999
16.433203 -7.8136058 0.84856373 205.42999
5.4623532 -2.5972219 -1.8873343 205.42999
5.8945727 -2.8027322 -1.8715776 205.42999
16.129951 -7.6694169 1.6662955 205.42999
6.3585672 -3.0233507 -1.8431641 205.42999
16.467089 -7.8297172 2.1322944 205.42999
6.9247804 -3.2925718 -1.816807 205.42999
17.122681 -8.1414366 2.6646082 205.42999
7.5687609 -3.5987697 -1.7813873 205.42999
16.395622 -7.7957368 2.9826932 205.42999
15.859548 -7.5408459 3.3086679 205.42999
8.1332731 -3.8985572 -1.2675886 205.61
8.0429697 -3.8552716 -1.0430332 205.61
8.4558687 -4.0531878 -0.65571088 205.61
3.9229171 -1.8803889 -1.9368799 205.61
4.1554441 -1.9918472 -1.9248022 205.61
4.4032149 -2.1106119 -1.9067199 205.61
48.262039 -23.133654 0 205.61
4.6893706 -2.2477763 -1.8927394 205.61
4.9447165 -2.3701725 -1.8528371 205.61
16.401369 -7.8617392 0.84819102 205.61
5.459332 -2.6168451 -1.8891217 205.61
15.79988 -7.5734248 1.2252027 205.61
5.8857388 -2.8212366 -1.8715776 205.61
16.531363 -7.9240499 1.7103263 205.61
6.3525276 -3.0449846 -1.844177 205.61
16.573175 -7.9440918 2.1492524 205.61
6.9161572 -3.3151517 -1.8172681 205.61
7.5574174 -3.6225297 -1.7813873 205.61
8.2038612 -3.9606035 -1.4966966 205.77
8.1455412 -3.9324481 -1.2712071 205.77
8.1090956 -3.9148531 -1.0530223 205.77
8.5109949 -4.1088791 -0.66087282 205.77
3.9258776 -1.895308 -1.9409473 205.77
4.1498656 -2.0034435 -1.9248022 205.77
4.4006591 -2.1245198 -1.9081749 205.77
4.68646 -2.2624969 -1.8941076 205.77
4.9363723 -2.3831477 -1.8521969 205.77
16.262407 -7.8510523 0.84213519 205.77
5.4485645 -2.6304202 -1.8879302 205.77
15.832571 -7.643539 1.2293881 205.77
5.8847628 -2.8410051 -1.8737828 205.77
15.877927 -7.6654358 1.6449304 205.77
6.3527112 -3.0669181 -1.8467096 205.77
15.334473 -7.4030709 1.9912876 205.77
6.9051199 -3.3336062 -1.816807 205.77
15.943287 -7.69699 2.4881368 205.77
7.5490341 -3.6444705 -1.7818031 205.77
8.2833748 -3.9989905 -1.7330236 205.77
16.083553 -7.7647066 3.3649542 205.77
8.214448 -3.9975839 -1.5009117 205.95
8.2916422 -4.035151 -1.2959799 205.95
8.1753483 -3.9785562 -1.0632435 205.95
8.5536575 -4.1626616 -0.66519773 205.95
3.9100468 -1.9028351 -1.9360664 205.95
4.1435513 -2.0164709 -1.9248022 205.95
4.3939629 -2.1383343 -1.9081749 205.95
4.6776395 -2.2763863 -1.8934236 205.95
4.9305644 -2.399473 -1.8528371 205.95
16.329279 -7.9466887 0.84688669 205.95
5.443707 -2.6491952 -1.8891217 205.95
15.831801 -7.7045903 1.2312018 205.95
5.8758082 -2.8594785 -1.8737828 205.95
16.475098 -8.0176516 1.7093974 205.95
6.3413053 -3.0860138 -1.8462031 205.95
15.011062 -7.3051748 1.952261 205.95
6.8946133 -3.3552828 -1.816807 205.95
7.5393062 -3.6690245 -1.7822191 205.95
15.619695 -7.6013684 2.8539696 205.95
8.2831421 -4.031014 -1.7356157 205.95
15.960114 -7.7670341 3.3442171 205.95
8.2742987 -4.0571194 -1.2951449 206.12
8.2134485 -4.0272827 -1.0697479 206.12
8.6075497 -4.2205215 -0.67035973 206.12
3.9093051 -1.9168413 -1.9385068 206.12
4.1342363 -2.0271311 -1.9232606 206.12
4.387599 -2.1513622 -1.9081749 206.12
4.6708646 -2.2902551 -1.8934236 206.12
4.9200211 -2.4124234 -1.8515567 206.12
16.101135 -7.894835 0.83626568 206.12
5.435823 -2.6653354 -1.8891217 206.12
16.084743 -7.8867979 1.2526867 206.12
5.8672981 -2.8768997 -1.8737828 206.12
15.882657 -7.7877092 1.6503181 206.12
6.333858 -3.1056671 -1.8467096 206.12
15.19265 -7.4493794 1.9787433 206.12
6.8916168 -3.3791518 -1.8186514 206.12
15.275354 -7.4899321 2.3909938 206.12
7.5283871 -3.6913779 -1.7822191 206.12
16.39624 -8.0395336 3.0002022 206.12
8.2693806 -4.0547075 -1.7352455 206.12
15.776411 -7.7356138 3.3105195 206.12
8.3627167 -4.133112 -1.3110106 206.3
8.3200722 -4.1120358 -1.0853121 206.3
8.6640043 -4.2820172 -0.67580074 206.3
3.9065399 -1.9307323 -1.9401338 206.3
4.1361194 -2.0441976 -1.9271147 206.3
4.3824887 -2.165961 -1.9089023 206.3
4.6636462 -2.3049176 -1.8934236 206.3
4.9158154 -2.4295473 -1.8528371 206.3
16.083418 -7.9489198 0.83663833 206.3
5.4239993 -2.6807075 -1.8879302 206.3
5.8599548 -2.8961701 -1.874334 206.3
6.3275394 -3.1272647 -1.8477225 206.3
15.236844 -7.5305176 1.9875708 206.3
6.8739882 -3.3973367 -1.816807 206.3
15.88206 -7.8494029 2.4898069 206.3
7.5167527 -3.7150106 -1.7822191 206.3
14.9785 -7.4028363 2.7450247 206.3
8.263649 -4.0841498 -1.7367266 206.3
9.2191877 -4.5884838 -1.6918896 206.46001
8.4504347 -4.2058678 -1.326598 206.46001
8.3636856 -4.1626921 -1.0925134 206.46001
22.707067 -11.30154 -1.7736281 206.46001
3.9011331 -1.9416338 -1.9401338 206.46001
4.1188297 -2.0499837 -1.9217188 206.46001
4.3797588 -2.1798508 -1.9103574 206.46001
4.658874 -2.3187695 -1.8941076 206.46001
4.910708 -2.4441094 -1.8534774 206.46001
16.275784 -8.1006241 0.84781837 206.46001
5.4164925 -2.6958437 -1.8879302 206.46001
15.489317 -7.7091918 1.2098563 206.46001
5.8518443 -2.9125228 -1.874334 206.46001
16.169538 -8.0477448 1.6850597 206.46001
6.3135853 -3.1423359 -1.8462031 206.46001
15.292226 -7.6110973 1.9975597 206.46001
6.8697014 -3.4191206 -1.8181903 206.46001
15.861852 -7.8946061 2.4900851 206.46001
7.5045981 -3.7351153 -1.7818031 206.46001
14.957769 -7.4446349 2.7450247 206.46001
8.2645292 -4.1133404 -1.7393187 206.46001
15.84108 -7.8842678 3.3338487 206.46001
9.1976709 -4.6138844 -1.6905928 206.64
8.4464493 -4.2370443 -1.1050577 206.64
22.648268 -11.361191 -1.7718145 206.64
3.895014 -1.95388 -1.9401338 206.64
4.1272154 -2.0703607 -1.9286565 206.64
4.3712239 -2.1927643 -1.9096298 206.64
4.6498866 -2.3325515 -1.8934236 206.64
4.9030051 -2.4595249 -1.8534774 206.64
5.4148226 -2.7162709 -1.8903131 206.64
15.491772 -7.7712336 1.211949 206.64
5.8443842 -2.9317546 -1.8748853 206.64
16.119257 -8.0860023 1.6824588 206.64
6.3088703 -3.1647577 -1.8477225 206.64
6.8606653 -3.4415581 -1.8186514 206.64
15.872377 -7.9621592 2.495652 206.64
7.5033183 -3.7639363 -1.7842982 206.64
15.02251 -7.5358348 2.7612367 206.64
8.2568359 -4.1419277 -1.7404296 206.64
15.178524 -7.6140971 3.1994283 206.64
9.1813688 -4.6418667 -1.6902685 206.82001
10.831159 -5.4759579 -1.7057055 206.82001
8.6227827 -4.3594599 -1.129914 206.82001
22.592878 -11.422384 -1.7702798 206.82001
3.8921175 -1.9677557 -1.9417608 206.82001
4.1173968 -2.0816512 -1.9271147 206.82001
28.514326 -14.416119 -0.741817 206.82001
4.3659763 -2.2073264 -1.9103574 206.82001
16.122612 -8.1511822 0 206.82001
4.6442132 -2.347996 -1.8941076 206.82001
16.166445 -8.1733437 0.42057958 206.82001
4.8986359 -2.4766257 -1.8547578 206.82001
5.399447 -2.7298231 -1.8879302 206.82001
5.8282819 -2.946631 -1.8726802 206.82001
16.070671 -8.1249228 1.6800436 206.82001
6.3006234 -3.1854351 -1.8482291 206.82001
15.68375 -7.9293051 2.0551705 206.82001
6.8376622 -3.456948 -1.8154236 206.82001
15.796028 -7.9860702 2.4875801 206.82001
7.4879651 -3.7857246 -1.7834665 206.82001
8.2472906 -4.1696205 -1.7411703 206.82001
15.215919 -7.6927814 3.2123888 206.82001
9.1429358 -4.6565485 -1.6857291 206.99001
10.823688 -5.5125647 -1.7070973 206.99001
15.682728 -7.9873018 -1.6419579 206.99001
15.957804 -8.1273994 -1.2522682 206.99001
3.8846338 -1.9784659 -1.9409473 206.99001
15.986526 -8.1420279 -0.83663833 206.99001
4.1128469 -2.094696 -1.9278857 206.99001
4.3594079 -2.2202709 -1.9103574 206.99001
4.6405754 -2.3634713 -1.8954756 206.99001
4.8929543 -2.4920092 -1.8553981 206.99001
16.055956 -8.1773882 0.84027183 206.99001
5.3930249 -2.7466981 -1.8885258 206.99001
5.8229399 -2.965656 -1.8737828 206.99001
6.2963166 -3.2067494 -1.8497486 206.99001
15.566339 -7.9280238 2.0428584 206.99001
6.8239069 -3.4754541 -1.8145014 206.99001
7.4732132 -3.8061495 -1.7826349 206.99001
15.30857 -7.796741 2.8225181 206.99001
8.2313805 -4.1922884 -1.7404296 206.99001
17.383974 -8.853756 3.6756394 206.99001
9.1571741 -4.6980696 -1.690917 207.16
10.814332 -5.5482712 -1.7082106 207.16
12.881003 -6.608573 -1.6930126 207.16
15.680222 -8.0447063 -1.6441872 207.16
3.8852491 -1.9933192 -1.9442011 207.16
4.1049719 -2.1060474 -1.9271147 207.16
4.3577738 -2.2357471 -1.9125397 207.16
16.06328 -8.2412338 0 207.16
4.6368866 -2.3789454 -1.8968437 207.16
4.8889108 -2.5082457 -1.8566785 207.16
15.972963 -8.1948967 0.83719736 207.16
5.3882489 -2.7644303 -1.8897173 207.16
5.805562 -2.9785318 -1.8710264 207.16
16.000914 -8.2092361 1.6778141 207.16
6.2919388 -3.2280664 -1.8512681 207.16
6.8204908 -3.4992392 -1.8163458 207.16
15.727214 -8.0688152 2.4842398 207.16
7.4653683 -3.8300922 -1.7834665 207.16
15.429356 -7.9159999 2.8491058 207.16
8.2136593 -4.2140012 -1.7393187 207.16
15.093058 -7.743463 3.1960955 207.16
9.155467 -4.7315617 -1.6931866 207.33
10.803101 -5.5830612 -1.7090456 207.33
12.863104 -6.6476746 -1.6932449 207.33
15.83496 -8.1835346 -1.6629515 207.33
15.893343 -8.213707 -1.2510126 207.33
3.8793178 -2.0048382 -1.9442011 207.33
15.936154 -8.2358322 -0.83654517 207.33
4.0987048 -2.1182179 -1.9271147 207.33
16.006016 -8.2719374 -0.41830495 207.33
4.3527761 -2.2495222 -1.9132673 207.33
4.6281381 -2.39183 -1.8961596 207.33
4.8915467 -2.5279598 -1.8605199 207.33
15.881135 -8.2073984 0.83365703 207.33
5.3766313 -2.7786524 -1.8885258 207.33
16.063496 -8.3016424 1.2644058 207.33
5.796699 -2.9957442 -1.8710264 207.33
16.086168 -8.3133602 1.6893327 207.33
6.2857709 -3.2484975 -1.8522811 207.33
16.140203 -8.3412857 2.1246285 207.33
6.8100786 -3.5194604 -1.8163458 207.33
15.828126 -8.1800032 2.5040023 207.33
7.4504957 -3.8504291 -1.7826349 207.33
16.05801 -8.2988071 2.9697237 207.33
8.2115965 -4.2437673 -1.7415406 207.33
15.888906 -8.2114143 3.3697681 207.33
9.1544733 -4.7634869 -1.6954564 207.49001
10.798009 -5.6186929 -1.7107158 207.49001
12.855062 -6.6890707 -1.6946387 207.49001
15.827944 -8.2359953 -1.6646235 207.49001
3.8704624 -2.0139768 -1.9425743 207.49001
15.943222 -8.2959795 -0.83812904 207.49001
4.0960479 -2.1313591 -1.9286565 207.49001
4.346477 -2.2616687 -1.9132673 207.49001
4.6264424 -2.4073474 -1.8982118 207.49001
4.8861489 -2.5424843 -1.8611602 207.49001
15.959172 -8.3042793 0.8389675 207.49001
5.3790126 -2.7989435 -1.8921003 207.49001
17.112785 -8.9045572 1.3489507 207.49001
5.7951326 -3.0154698 -1.8732314 207.49001
6.2783914 -3.2669311 -1.8527876 207.49001
16.085129 -8.3698196 2.1204472 207.49001
6.8071294 -3.5420573 -1.8181903 207.49001
7.4327726 -3.8676078 -1.7809715 207.49001
16.635267 -8.6560812 3.0809383 207.49001
8.201457 -4.2675891 -1.7419109 207.49001
9.1402998 -4.7906275 -1.6954564 207.66
10.776029 -5.6479483 -1.7098807 207.66
12.835159 -6.7271829 -1.6946387 207.66
15.97276 -8.3716669 -1.6824588 207.66
22.34701 -11.712548 -1.7642807 207.66
3.8612332 -2.0237553 -1.9409473 207.66
4.0864367 -2.1417894 -1.9271147 207.66
28.2096 -14.785258 -0.7394495 207.66
4.344698 -2.2771494 -1.9154496 207.66
4.620944 -2.421936 -1.8988959 207.66
4.8869748 -2.5613687 -1.8643613 207.66
5.372375 -2.8157773 -1.8926961 207.66
16.547319 -8.6728058 1.3063992 207.66
5.7810516 -3.0299735 -1.8715776 207.66
17.422585 -9.1315508 1.835173 207.66
6.2703843 -3.2864432 -1.8532941 207.66
15.616843 -8.1851234 2.0619073 207.66
6.7914186 -3.5595286 -1.816807 207.66
16.11054 -8.4438801 2.5563316 207.66
7.4108682 -3.8841953 -1.7784766 207.66
16.165518 -8.4726954 2.9985812 207.66
8.1939812 -4.2946415 -1.7430218 207.66
15.964946 -8.3675709 3.3960598 207.66
9.1261082 -4.8218336 -1.6957806 207.85001
10.758991 -5.684577 -1.7101591 207.85001
12.819806 -6.7734208 -1.6955678 207.85001
16.133307 -8.524128 -1.7023376 207.85001
22.293934 -11.779133 -1.7631646 207.85001
3.854501 -2.0365486 -1.9409473 207.85001
4.0776801 -2.1544666 -1.9263439 207.85001
28.181629 -14.889932 -0.74000657 207.85001
4.3354754 -2.2906742 -1.9147222 207.85001
4.6112256 -2.4363685 -1.8982118 207.85001
4.8868308 -2.5819862 -1.8675625 207.85001
15.562227 -8.2223949 0.82080001 207.85001
5.354568 -2.8291178 -1.8897173 207.85001
15.781099 -8.3380375 1.2480829 207.85001
5.7811713 -3.0545161 -1.8748853 207.85001
15.564599 -8.223649 1.6423295 207.85001
6.2543192 -3.3045068 -1.8517746 207.85001
6.7795777 -3.5820301 -1.816807 207.85001
16.203278 -8.5610991 2.5755374 207.85001
7.3962169 -3.9078352 -1.7780608 207.85001
16.043104 -8.47647 2.9810719 207.85001
8.1866455 -4.3254628 -1.744503 207.85001
16.955444 -8.9585104 3.6130581 207.85001
9.1187305 -4.8525987 -1.6970775 208.02
10.735084 -5.7127528 -1.7090456 208.02
12.811928 -6.8179603 -1.697194 208.02
16.146618 -8.5925398 -1.7064248 208.02
22.260647 -11.846165 -1.7633041 208.02
3.8532803 -2.0505512 -1.9433876 208.02
28.154919 -14.982844 -1.4873157 208.02
4.0761576 -2.1691568 -1.9286565 208.02
28.151447 -14.980997 -0.7403779 208.02
4.3270149 -2.3026526 -1.9139947 208.02
4.6039762 -2.4500394 -1.8982118 208.02
4.8841662 -2.5991445 -1.8694832 208.02
15.65769 -8.3323536 0.82713532 208.02
5.3596334 -2.8521678 -1.8944833 208.02
5.7737799 -3.0725589 -1.8754365 208.02
6.2342391 -3.3175955 -1.8487356 208.02
15.714165 -8.3624067 2.0816529 208.02
6.7723556 -3.6039584 -1.8177292 208.02
7.3863168 -3.9306822 -1.7784766 208.02
16.07015 -8.5518475 2.9907992 208.02
8.1755104 -4.3506575 -1.7448733 208.02
16.210484 -8.6265259 3.4597521 208.02
9.1069193 -4.8830872 -1.697726 208.2
10.669956 -5.7211804 -1.7015303 208.2
12.795697 -6.8609929 -1.6978909 208.2
16.149378 -8.6592207 -1.7095832 208.2
22.214531 -11.911326 -1.7626066 208.2
3.8564806 -2.0678267 -1.9482685 208.2
28.128838 -15.082551 -1.4884336 208.2
4.0693226 -2.1819518 -1.9286565 208.2
28.197638 -15.11944 -0.74283826 208.2
4.3181181 -2.3153546 -1.9132673 208.2
41.766735 -22.395126 0 208.2
4.5995693 -2.4662673 -1.8995799 208.2
43.237434 -23.183708 1.1390465 208.2
4.8809862 -2.617162 -1.8714039 208.2
15.599744 -8.3645096 0.82545835 208.2
5.354012 -2.870796 -1.8956748 208.2
16.378689 -8.782176 1.2995631 208.2
5.7522383 -3.0843232 -1.8715776 208.2
15.38947 -8.2517614 1.6291387 208.2
6.2067342 -3.3280218 -1.8436706 208.2
15.10484 -8.099144 2.0042965 208.2
7.3739319 -3.9538674 -1.7784766 208.2
8.1618023 -4.3763199 -1.7448733 208.2
14.782008 -7.926043 3.160176 208.2
9.0976 -4.9128995 -1.6986988 208.37
10.686045 -5.7706938 -1.7068189 208.37
12.789268 -6.9064794 -1.6997494 208.37
16.050024 -8.6673574 -1.7017802 208.37
22.17909 -11.977186 -1.7626066 208.37
3.8390746 -2.0731828 -1.9425743 208.37
28.119122 -15.18493 -1.490297 208.37
4.0612068 -2.1931391 -1.9278857 208.37
28.207191 -15.23249 -0.74427736 208.37
4.3112292 -2.3281565 -1.9132673 208.37
42.861565 -23.146168 0 208.37
4.5922313 -2.4799037 -1.8995799 208.37
42.901039 -23.167484 1.1319904 208.37
4.8798685 -2.6352339 -1.8739649 208.37
15.638141 -8.444932 0.8288123 208.37
5.335391 -2.8812258 -1.8921003 208.37
23.948643 -12.932782 1.9032357 208.37
5.7413702 -3.1004634 -1.8710264 208.37
23.884047 -12.897899 2.5324199 208.37
6.1764035 -3.3353906 -1.8375925 208.37
6.4094501 -3.4612408 -1.7259666 208.37
7.3759384 -3.9831655 -1.7818031 208.37
24.118452 -13.024482 4.5033836 208.37
8.1574287 -4.4051867 -1.7467248 208.37
16.024323 -8.6534786 3.4312387 208.37
9.0838451 -4.9382858 -1.6986988 208.53
10.661188 -5.795783 -1.7054272 208.53
12.773421 -6.9440641 -1.7002139 208.53
15.982018 -8.6883659 -1.6971357 208.53
22.12277 -12.026687 -1.7607929 208.53
3.8412964 -2.0882587 -1.9466416 208.53
28.125753 -15.290112 -1.4929056 208.53
4.0599308 -2.2071159 -1.9301981 208.53
4.3079844 -2.3419662 -1.9147222 208.53
57.034821 -31.00606 0 208.53
4.5852885 -2.492718 -1.8995799 208.53
4.8808136 -2.6533756 -1.877166 208.53
23.779812 -12.927511 1.2622246 208.53
5.335711 -2.9006732 -1.8950791 208.53
23.803757 -12.940528 1.8945858 208.53
5.7259336 -3.1128113 -1.8688213 208.53
23.896923 -12.991177 2.537622 208.53
6.1568661 -3.3470807 -1.8345535 208.53
15.48029 -8.4156103 2.0605135 208.53
6.4476337 -3.5051517 -1.7388779 208.53
15.644646 -8.5049591 2.5026107 208.53
7.3802552 -4.0121565 -1.7855456 208.53
15.497501 -8.4249659 2.8980663 208.53
8.1347342 -4.422317 -1.744503 208.53
14.782735 -8.0363951 3.1701741 208.53
9.065691 -4.9633207 -1.6980503 208.7
10.630047 -5.8197808 -1.7032005 208.7
12.770185 -6.9914727 -1.7025369 208.7
15.910755 -8.7108841 -1.6923053 208.7
22.072989 -12.084609 -1.7596768 208.7
3.8318782 -2.097892 -1.9450146 208.7
28.136339 -15.404196 -1.495887 208.7
4.050127 -2.2173798 -1.9286565 208.7
4.304285 -2.3565271 -1.9161772 208.7
56.62505 -31.001308 0 208.7
4.5762239 -2.5054092 -1.8988959 208.7
4.8745813 -2.6687553 -1.8778063 208.7
15.862615 -8.6845284 0.84334636 208.7
5.3187079 -2.9119077 -1.8921003 208.7
23.662006 -12.95457 1.8863546 208.7
5.7116132 -3.127017 -1.8671675 208.7
23.688843 -12.969262 2.5196009 208.7
6.1536965 -3.3690503 -1.8365796 208.7
15.253132 -8.3508463 2.0335665 208.7
6.4696388 -3.5420237 -1.7476392 208.7
14.877549 -8.1452208 2.3837569 208.7
7.3734665 -4.0368552 -1.7867931 208.7
24.261152 -13.282593 4.5442381 208.7
8.1146812 -4.4426584 -1.7430218 208.7
15.525988 -8.5002298 3.3349595 208.7
9.0552378 -4.9946365 -1.699023 208.88
10.587432 -5.8397555 -1.6993035 208.88
12.749898 -7.032516 -1.7027693 208.88
15.756021 -8.6906166 -1.678743 208.88
22.013952 -12.14233 -1.7580026 208.88
3.8268685 -2.1108024 -1.9458281 208.88
28.136789 -15.51953 -1.4984957 208.88
4.0463729 -2.2318752 -1.9301981 208.88
4.2968607 -2.3700378 -1.9161772 208.88
56.276943 -31.040916 0 208.88
4.5699759 -2.5206811 -1.8995799 208.88
4.8728099 -2.6877167 -1.8803672 208.88
15.81601 -8.7237053 0.84232152 208.88
5.3028464 -2.9249139 -1.8897173 208.88
16.185959 -8.9277582 1.2925874 208.88
5.703445 -3.1458735 -1.8677187 208.88
23.679367 -13.06093 2.5229449 208.88
6.1566353 -3.3958418 -1.8406315 208.88
15.065057 -8.3094978 2.0119624 208.88
6.4635916 -3.565151 -1.7490226 208.88
23.479647 -12.95077 3.7685292 208.88
7.3641739 -4.0618892 -1.7876247 208.88
14.894484 -8.215414 2.7946334 208.88
8.0938005 -4.4643326 -1.7415406 208.88
9.0360518 -5.0211425 -1.6983745 209.06
10.553453 -5.8643303 -1.6967984 209.06
12.739897 -7.0792904 -1.7043953 209.06
15.488429 -8.6065922 -1.6531049 209.06
21.975697 -12.211429 -1.7580026 209.06
3.8234124 -2.1245892 -1.947455 209.06
28.213631 -15.677716 -1.5052037 209.06
4.0457935 -2.2481618 -1.9332815 209.06
4.2959075 -2.3871448 -1.9190871 209.06
55.95013 -31.090302 0 209.06
4.5620341 -2.5350258 -1.8995799 209.06
4.8659983 -2.703932 -1.8810074 209.06
15.495144 -8.610323 0.82666951 209.06
5.2869563 -2.9378495 -1.8873343 209.06
23.430162 -13.019645 1.8743565 209.06
5.698575 -3.1665773 -1.8693726 209.06
15.422284 -8.5698366 1.6460451 209.06
6.1273332 -3.404829 -1.83506 209.06
14.981576 -8.3249445 2.0042965 209.06
6.5221052 -3.6241958 -1.7679284 209.06
15.052867 -8.3645592 2.4202201 209.06
7.3633471 -4.0916557 -1.7905354 209.06
14.822022 -8.2362843 2.7858789 209.06
8.0780172 -4.4887834 -1.7411703 209.06
9.0357742 -5.0540633 -1.7009685 209.22
10.492094 -5.8686404 -1.6895615 209.22
12.725279 -7.1177483 -1.7050922 209.22
15.608585 -8.7304945 -1.668525 209.22
21.948475 -12.276645 -1.7585607 209.22
3.8190591 -2.1361499 -1.9482685 209.22
4.0378895 -2.2585502 -1.9325106 209.22
4.2875986 -2.3982224 -1.9183595 209.22
55.540176 -31.065802 0 209.22
4.5565777 -2.5486729 -1.9002639 209.22
4.8617358 -2.7193599 -1.8822879 209.22
15.762221 -8.8164301 0.84222835 209.22
5.2704 -2.947942 -1.8843557 209.22
16.547113 -9.2554502 1.3257916 209.22
23.610136 -13.206077 2.5238738 209.22
6.1194897 -3.4228711 -1.8355665 209.22
23.914509 -13.376325 3.2043655 209.22
6.3879704 -3.5730429 -1.7342668 209.22
7.3467703 -4.1093373 -1.789288 209.22
14.819634 -8.2892036 2.7897699 209.22
8.063736 -4.5103641 -1.7408 209.22
9.0189648 -5.0839996 -1.7009685 209.41
10.450147 -5.890758 -1.6859429 209.41
12.706797 -7.1628342 -1.7057892 209.41
15.487608 -8.7303801 -1.6586784 209.41
21.895477 -12.342503 -1.7575841 209.41
3.8087711 -2.1470082 -1.9466416 209.41
28.214794 -15.904709 -1.510421 209.41
4.0303774 -2.2719278 -1.9325106 209.41
4.2731304 -2.4087679 -1.9154496 209.41
55.196419 -31.114277 0 209.41
4.5513754 -2.5656147 -1.901632 209.41
4.8510408 -2.7345366 -1.8816477 209.41
15.802513 -8.9078922 0.84595501 209.41
5.253943 -2.961653 -1.8819727 209.41
23.928951 -13.488774 1.9208143 209.41
5.5451441 -3.1258035 -1.8252705 209.41
23.859381 -13.449557 2.5552714 209.41
6.092936 -3.4345944 -1.831008 209.41
23.916742 -13.481892 3.2106376 209.41
6.362524 -3.5865614 -1.7305778 209.41
23.027588 -12.980675 3.7150867 209.41
7.3399196 -4.1375198 -1.7909513 209.41
14.597794 -8.2287912 2.7531307 209.41
8.0487347 -4.5370798 -1.7408 209.41
14.217547 -8.0144463 3.075006 209.41
9.0064487 -5.1101394 -1.7012926 209.57001
10.428488 -5.9169855 -1.6851079 209.57001
12.704022 -7.2080932 -1.7081121 209.57001
16.639185 -9.4408522 -1.7848257 209.57001
21.829691 -12.385876 -1.7550728 209.57001
3.8027608 -2.1576359 -1.9466416 209.57001
28.210236 -16.006113 -1.5125638 209.57001
4.0208073 -2.2813525 -1.930969 209.57001
4.2631469 -2.4188528 -1.9139947 209.57001
54.970158 -31.189335 0 209.57001
4.5507312 -2.5820243 -1.9043682 209.57001
24.46479 -13.880997 0.65305889 209.57001
4.8466816 -2.7499425 -1.8829281 209.57001
15.688957 -8.9017057 0.84120351 209.57001
5.2506337 -2.9791396 -1.8837599 209.57001
23.853014 -13.533883 1.917745 209.57001
5.6534424 -3.2076879 -1.8638598 209.57001
15.283041 -8.6713943 1.6393569 209.57001
6.0866871 -3.4535053 -1.832021 209.57001
15.285255 -8.6726503 2.0551705 209.57001
6.2881637 -3.5678203 -1.7130553 209.57001
23.346102 -13.246267 3.7724261 209.57001
6.1968427 -3.5160062 -1.5144287 209.57001
8.0479994 -4.5663276 -1.7433921 209.57001
14.795122 -8.3945551 3.2049828 209.57001
8.9937773 -5.140367 -1.7019411 209.75
10.392653 -5.9398904 -1.6823244 209.75
12.688213 -7.2519112 -1.7090414 209.75
16.605986 -9.4911032 -1.7844541 209.75
21.801065 -12.460335 -1.7559099 209.75
3.7991362 -2.1713853 -1.9482685 209.75
28.215317 -16.126383 -1.5155452 209.75
4.0200291 -2.297636 -1.9340523 209.75
4.2603788 -2.4350071 -1.9161772 209.75
57.089283 -32.629211 0 209.75
4.5409656 -2.5953755 -1.9036841 209.75
24.520008 -14.014339 0.65570492 209.75
4.8380184 -2.7651553 -1.8829281 209.75
15.67826 -8.9608631 0.84213519 209.75
5.2379332 -2.9937255 -1.8825684 209.75
5.6533518 -3.2311568 -1.8671675 209.75
15.26091 -8.7223291 1.6399143 209.75
6.0254135 -3.4438076 -1.8168259 209.75
14.626715 -8.3598557 1.9701481 209.75
6.3157849 -3.6097686 -1.7236611 209.75
23.443106 -13.398838 4.4362659 209.75
8.0336142 -4.5915885 -1.7433921 209.75
14.212399 -8.1230545 3.0842636 209.75
8.9793873 -5.1654625 -1.7019411 209.91
10.345123 -5.9511127 -1.6773142 209.91
12.681687 -7.2952394 -1.7108998 209.91
16.569061 -9.5314808 -1.7833394 209.91
21.766184 -12.521167 -1.7559099 209.91
3.7946415 -2.1828971 -1.949082 209.91
28.272346 -16.263887 -1.5210421 209.91
4.0135975 -2.3088529 -1.9340523 209.91
4.2567921 -2.4487529 -1.9176321 209.91
4.5320711 -2.6071091 -1.9030001 209.91
24.385454 -14.027923 0.65315175 209.91
4.8319201 -2.7795997 -1.8835684 209.91
23.634752 -13.596075 1.2715412 209.91
5.2196231 -3.0026288 -1.8789939 209.91
5.6326413 -3.2402208 -1.8633085 209.91
25.113373 -14.446663 2.7029696 209.91
6.0224814 -3.4644794 -1.8188519 209.91
16.016981 -9.213892 2.1608677 209.91
6.1555448 -3.5410249 -1.6826215 209.91
15.062747 -8.6649618 2.4422095 209.91
6.2589607 -3.6005156 -1.5348041 209.91
23.48942 -13.512472 4.4521537 209.91
8.0224638 -4.614985 -1.7437624 209.91
14.855784 -8.5459051 3.2290525 209.91
8.9597006 -5.1916676 -1.7012926 210.09
10.30924 -5.9736538 -1.6745307 210.09
12.665582 -7.3390279 -1.7118289 210.09
16.540758 -9.5844851 -1.7835251 210.09
21.693941 -12.570479 -1.7532592 210.09
3.7909267 -2.1966395 -1.950709 210.09
28.253956 -16.371656 -1.5228122 210.09
4.0079207 -2.322376 -1.9348232 210.09
4.2523022 -2.4639819 -1.9190871 210.09
57.088467 -33.079716 0 210.09
4.5254846 -2.6222763 -1.9036841 210.09
24.121553 -13.977151 0.6472562 210.09
4.8280821 -2.7976158 -1.8854891 210.09
23.638596 -13.697303 1.2740567 210.09
5.200253 -3.0132687 -1.8754194 210.09
5.6057997 -3.2482615 -1.8577958 210.09
23.145 -13.411291 2.4956348 210.09
5.9529757 -3.4494312 -1.8011243 210.09
23.435366 -13.579542 3.1674294 210.09
5.991159 -3.4715567 -1.6406597 210.09
15.134842 -8.7698326 2.4583538 210.09
14.926003 -8.6488218 2.8341908 210.09
8.0164289 -4.6450925 -1.7456139 210.09
8.9672089 -5.233717 -1.705832 210.27
10.251081 -5.9830499 -1.6681287 210.27
12.642463 -7.3787818 -1.7118289 210.27
16.503687 -9.6323872 -1.782782 210.27
21.661236 -12.642593 -1.7538173 210.27
3.7776952 -2.2048542 -1.947455 210.27
28.283478 -16.507671 -1.527191 210.27
3.9974174 -2.3330953 -1.9332815 210.27
4.2493672 -2.4801459 -1.9212694 210.27
57.053352 -33.299225 0 210.27
4.5172238 -2.6364806 -1.9036841 210.27
24.148325 -14.094185 0.64915949 210.27
4.8192692 -2.8127697 -1.8854891 210.27
15.558329 -9.0806284 0.84008551 210.27
5.1660271 -3.0151551 -1.8664831 210.27
22.789873 -13.301324 1.8451983 210.27
5.5856051 -3.260042 -1.8544881 210.27
24.026314 -14.022973 2.5954006 210.27
5.8886371 -3.4369068 -1.7849162 210.27
16.617573 -9.6988573 2.2500713 210.27
5.9650965 -3.4815323 -1.6365097 210.27
6.379828 -3.7235909 -1.5701491 210.27
14.92603 -8.711587 2.8393786 210.27
7.9984016 -4.668272 -1.7448733 210.27
14.825561 -8.6529474 3.2342367 210.27
8.9559612 -5.2607369 -1.7064805 210.42999
10.208717 -5.9966063 -1.6639535 210.42999
12.628659 -7.4180818 -1.7127582 210.42999
16.468138 -9.6733932 -1.7818531 210.42999
21.594881 -12.684845 -1.7513061 210.42999
3.7730987 -2.2163203 -1.9482685 210.42999
28.261387 -16.600754 -1.5284954 210.42999
3.9924779 -2.3451836 -1.9340523 210.42999
4.2408185 -2.4910593 -1.920542 210.42999
57.084305 -33.531353 0 210.42999
4.5082235 -2.648133 -1.9030001 210.42999
24.172661 -14.199035 0.65087712 210.42999
4.8064947 -2.8233376 -1.8835684 210.42999
22.728315 -13.350625 1.2292435 210.42999
5.1279554 -3.0121639 -1.8557596 210.42999
22.818012 -13.403313 1.8504997 210.42999
5.5234332 -3.2444677 -1.8368473 210.42999
16.325624 -9.5896807 1.766433 210.42999
5.7689104 -3.3886611 -1.751487 210.42999
16.622967 -9.7643404 2.2544851 210.42999
5.7724447 -3.3907373 -1.5862477 210.42999
15.096196 -8.8675137 2.4605803 210.42999
6.3204875 -3.7126579 -1.5580902 210.42999
23.09355 -13.565165 4.4002752 210.42999
7.9768605 -4.6856127 -1.7430218 210.42999
14.696269 -8.632596 3.211278 210.42999
8.9325962 -5.2848272 -1.7051836 210.61
10.157441 -6.0094872 -1.6586651 210.61
12.615551 -7.463788 -1.714152 210.61
16.442808 -9.7281237 -1.7824105 210.61
21.549772 -12.749577 -1.7508875 210.61
3.7708349 -2.2309539 -1.950709 210.61
23.63883 -13.985534 -1.2808579 210.61
3.9898555 -2.360534 -1.9363649 210.61
4.2297649 -2.5024726 -1.9190871 210.61
4.5047345 -2.6651537 -1.9050522 210.61
24.377457 -14.422531 0.65760821 210.61
4.8073854 -2.8442125 -1.8874098 210.61
5.1086078 -3.0224259 -1.8521851 210.61
16.525499 -9.7770462 1.3426726 210.61
5.3626423 -3.1727214 -1.7866813 210.61
23.627325 -13.978728 2.5612164 210.61
5.7682271 -3.412679 -1.754526 210.61
5.5540724 -3.2859778 -1.5290691 210.61
15.066559 -8.913888 2.4603021 210.61
14.831609 -8.7748833 2.8312726 210.61
7.962101 -4.7106495 -1.7430218 210.61
14.366289 -8.4995842 3.1449935 210.61
8.9355278 -5.3224168 -1.7087502 210.78
10.107237 -6.0203414 -1.6533765 210.78
12.607002 -7.5093188 -1.7160105 210.78
16.400187 -9.7687149 -1.7809242 210.78
