# .PCD v0.7 - Point Cloud Data file format
VERSION 0.7
FIELDS x y z intensity
SIZE 4 4 4 4
TYPE F F F F
COUNT 1 1 1 1
WIDTH 1148
HEIGHT 1
VIEWPOINT 0 0 0 1 0 0 0
POINTS 1148
DATA ascii
-1.9495084 -9.9184008 -2.1485593 281.12
-2.2258384 -11.324268 -2.1744263 281.12
-2.6277223 -13.174397 -2.2071087 281.28
-3.1177988 -15.631454 -2.2401302 281.28
-3.8595648 -19.350386 -2.3074498 281.28
-4.95893 -24.862185 -2.3652143 281.28
-1.0567899 -5.2983413 -2.1096864 281.28
-20.282553 -101.68898 0 281.28
-1.1337246 -5.6840625 -2.1095803 281.28
-1.2252748 -6.1430607 -2.1166136 281.28
-1.3276104 -6.6561322 -2.1178894 281.28
-20.254999 -101.55084 7.2410011 281.28
-1.4511883 -7.2757044 -2.1273692 281.28
-1.5944288 -7.9938574 -2.1338968 281.28
-1.7708669 -8.8784513 -2.1451235 281.28
-1.9764329 -9.9090805 -2.1477277 281.28
-2.2589908 -11.325718 -2.1759074 281.28
-2.6721807 -13.169479 -2.2077572 281.47
-3.1684361 -15.615207 -2.2392952 281.47
-3.9252918 -19.345266 -2.3083789 281.47
-5.0476847 -24.876829 -2.368187 281.47
-1.0750949 -5.2984591 -2.1111412 281.47
-20.637154 -101.70741 0 281.47
-1.1521935 -5.6784296 -2.1088963 281.47
-1.2456392 -6.1389637 -2.1166136 281.47
-1.349296 -6.6498218 -2.1172936 281.47
-20.60037 -101.52613 7.2440701 281.47
-1.4753075 -7.2708521 -2.1273692 281.47
-1.6220828 -7.9942145 -2.1354163 281.47
-1.8006861 -8.8744373 -2.1455846 281.47
-2.0104487 -9.9082241 -2.1489751 281.47
-2.2973175 -11.322017 -2.1766481 281.47
-2.7108452 -13.15956 -2.207433 281.64001
-3.2163517 -15.613496 -2.2404087 281.64001
-3.9858792 -19.3491 -2.3102374 281.64001
-5.1303124 -24.904652 -2.3722742 281.64001
-20.942471 -101.66338 -2.409884 281.64001
-1.0900593 -5.2915964 -2.1096864 281.64001
-20.958607 -101.74171 0 281.64001
-1.1709327 -5.6841898 -2.1123164 281.64001
-1.2646129 -6.1389523 -2.1178939 281.64001
-1.3709464 -6.655139 -2.1202724 281.64001
-20.920835 -101.55836 7.2507668 281.64001
-1.4976498 -7.2702088 -2.1284716 281.64001
-1.645795 -7.9893665 -2.1354163 281.64001
-1.8266165 -8.8671494 -2.1451235 281.64001
-2.0406277 -9.9060469 -2.149807 281.64001
-2.3320901 -11.320926 -2.1777589 281.64001
-2.7514942 -13.159185 -2.20873 281.81
-3.2646904 -15.613577 -2.2418003 281.81
-4.0444913 -19.343021 -2.3109343 281.81
-5.2082591 -24.908812 -2.3741322 281.81
-1.1057549 -5.2883391 -2.1096864 281.81
-21.285767 -101.80045 0 281.81
-1.1862543 -5.6733322 -2.1095803 281.81
-1.2820464 -6.131464 -2.1166136 281.81
-1.3899051 -6.6473045 -2.119081 281.81
-21.243715 -101.59934 7.2581611 281.81
-1.5188208 -7.2638516 -2.1279204 281.81
-1.6690966 -7.9825544 -2.1349096 281.81
-1.8533161 -8.863595 -2.1455846 281.81
-2.0700104 -9.8999491 -2.149807 281.81
-2.3664742 -11.317804 -2.1784995 281.81
-2.7936413 -13.154338 -2.2093785 281.98999
-3.3137257 -15.603244 -2.2418003 281.98999
-4.1073022 -19.339935 -2.3120959 281.98999
-5.304275 -24.976086 -2.3821208 281.98999
-1.1223632 -5.2848392 -2.1096864 281.98999
-21.621679 -101.80938 0 281.98999
-1.2060238 -5.6787691 -2.1130004 281.98999
-1.3016962 -6.1292591 -2.1172538 281.98999
-1.4095914 -6.6373024 -2.1172936 281.98999
-21.580202 -101.61407 7.2640204 281.98999
-1.5420327 -7.2609248 -2.1284716 281.98999
-1.6949701 -7.9810567 -2.1359227 281.98999
-1.881557 -8.8596325 -2.1460457 281.98999
-2.1011016 -9.8933973 -2.149807 281.98999
-2.4016101 -11.308392 -2.1781292 281.98999
-2.8334901 -13.149849 -2.210027 282.16
-3.3612583 -15.599152 -2.2426353 282.16
-4.1684327 -19.34514 -2.3141866 282.16
-5.3875856 -25.003065 -2.3862081 282.16
-7.9096856 -36.707798 -2.6257732 282.16
-1.1368614 -5.276022 -2.1075039 282.16
-21.942196 -101.8308 0 282.16
-1.2220759 -5.6714916 -2.1116323 282.16
-1.3198763 -6.12537 -2.1172538 282.16
-1.4288763 -6.6312246 -2.116698 282.16
-21.902615 -101.64711 7.2709961 282.16
-1.5639745 -7.2581968 -2.1290228 282.16
-1.7166052 -7.9665356 -2.1333902 282.16
-1.9086556 -8.8578157 -2.1469679 282.16
-2.1312709 -9.8909445 -2.1506386 282.16
-2.4368081 -11.308901 -2.1796105 282.16
-2.8723059 -13.151526 -2.211648 282.32001
-3.4026933 -15.580029 -2.2412436 282.32001
-4.2211666 -19.327602 -2.3134897 282.32001
-5.4637594 -25.017105 -2.3889947 282.32001
-1.1527829 -5.2782869 -2.1096864 282.32001
-22.24824 -101.86878 0 282.32001
-1.2371069 -5.6643844 -2.1102643 282.32001
-1.3357636 -6.116107 -2.1153331 282.32001
-1.4482033 -6.630939 -2.1178894 282.32001
-22.201706 -101.65572 7.2760186 282.32001
-1.5846473 -7.2556791 -2.1295743 282.32001
-1.7413222 -7.9730525 -2.1364293 282.32001
-1.933799 -8.854353 -2.147429 282.32001
-2.1588833 -9.8849535 -2.1506386 282.32001
-2.4696372 -11.307813 -2.1807213 282.32001
-2.9113145 -13.142946 -2.211648 282.48999
-3.4523318 -15.585335 -2.2434704 282.48999
-4.2776351 -19.311115 -2.313025 282.48999
-5.554328 -25.074665 -2.3960545 282.48999
-1.1680359 -5.2730246 -2.1089587 282.48999
-22.566828 -101.87653 0 282.48999
-1.2535015 -5.658854 -2.1095803 282.48999
-1.3539045 -6.1121168 -2.1153331 282.48999
-1.4678713 -6.6266127 -2.1178894 282.48999
-22.530842 -101.71407 7.2849474 282.48999
-1.6074157 -7.2565765 -2.131228 282.48999
-1.7645526 -7.9659615 -2.1359227 282.48999
-1.9613246 -8.8542767 -2.1488123 282.48999
-2.1890492 -9.8823252 -2.1514702 282.48999
-2.5027521 -11.298516 -2.180351 282.48999
-2.9534554 -13.137586 -2.2122965 282.67001
-3.5021462 -15.578277 -2.2440271 282.67001
-4.34656 -19.334404 -2.3174388 282.67001
-5.6396265 -25.086235 -2.3988414 282.67001
-8.2623672 -36.752731 -2.6341441 282.67001
-1.1850045 -5.2711468 -2.1096864 282.67001
-1.2704488 -5.6512208 -2.1082122 282.67001
-1.3747619 -6.1152277 -2.1178939 282.67001
-1.4907759 -6.6312823 -2.1208682 282.67001
-22.854212 -101.6603 7.2862034 282.67001
-1.6302049 -7.2514911 -2.131228 282.67001
-1.789994 -7.9622664 -2.1364293 282.67001
-1.9887046 -8.8461723 -2.1483512 282.67001
-2.2209427 -9.8792162 -2.1523018 282.67001
-2.538666 -11.292516 -2.1807213 282.67001
-2.9964695 -13.135939 -2.2135935 282.85001
-3.5519505 -15.571059 -2.2445838 282.85001
-4.4130225 -19.345831 -2.3204587 282.85001
-5.7321382 -25.128578 -2.4046006 282.85001
-23.239811 -101.87881 -2.426085 282.85001
-1.201144 -5.2655816 -2.1089587 282.85001
-1.2886143 -5.649034 -2.1088963 282.85001
-1.3939667 -6.1108785 -2.1178939 282.85001
-1.5111767 -6.6247048 -2.1202724 282.85001
-1.6525505 -7.2444596 -2.1306767 282.85001
-1.8167205 -7.964149 -2.1384552 282.85001
-2.0169187 -8.8417788 -2.1488123 282.85001
-2.2532735 -9.8779125 -2.1535492 282.85001
-2.5750041 -11.288317 -2.181462 282.85001
-3.035876 -13.128913 -2.2139177 283.01999
-3.6003659 -15.5701 -2.2459755 283.01999
-4.4690604 -19.326847 -2.3197618 283.01999
-5.8205786 -25.171606 -2.4103599 283.01999
-23.557755 -101.87759 -2.4277098 283.01999
-1.2176014 -5.265625 -2.1104138 283.01999
-1.305793 -5.647017 -2.1095803 283.01999
-1.4125187 -6.108562 -2.1185343 283.01999
-1.5295355 -6.6146116 -2.1184852 283.01999
-23.550303 -101.84536 7.3096414 283.01999
-1.6740379 -7.2395244 -2.1306767 283.01999
-1.8403426 -7.958724 -2.1384552 283.01999
-2.0431437 -8.8357553 -2.1488123 283.01999
-2.2830126 -9.8730888 -2.1539652 283.01999
-2.6080432 -11.278712 -2.1810918 283.01999
-3.0757174 -13.123691 -2.2145662 283.19
-3.6479032 -15.565133 -2.2468104 283.19
-4.5300107 -19.328974 -2.3216202 283.19
-5.9052353 -25.196878 -2.4144471 283.19
-1.2336446 -5.263803 -2.1111412 283.19
-1.3233999 -5.6467772 -2.1109483 283.19
-1.4302046 -6.102499 -2.1178939 283.19
-1.5495905 -6.6119032 -2.119081 283.19
-23.870134 -101.85079 7.3150826 283.19
-1.6959493 -7.2363973 -2.131228 283.19
-1.862624 -7.947577 -2.1369357 283.19
-2.0702391 -8.8334436 -2.1497345 283.19
-2.3122966 -9.866272 -2.1539652 283.19
-2.6423931 -11.274752 -2.1818323 283.19
-3.1141865 -13.112587 -2.214242 283.35999
-3.6940696 -15.554241 -2.2468104 283.35999
-4.5914721 -19.332842 -2.3237109 283.35999
-5.9887123 -25.216059 -2.4179771 283.35999
-1.2492572 -5.2601194 -2.1111412 283.35999
-1.3392799 -5.6391687 -2.1095803 283.35999
-1.4474292 -6.094542 -2.1166136 283.35999
-1.5705249 -6.6128488 -2.1208682 283.35999
-1.7169684 -7.2294631 -2.1306767 283.35999
-1.8866438 -7.9438982 -2.1374424 283.35999
-2.0977883 -8.832943 -2.1511178 283.35999
-2.3424642 -9.8631744 -2.1547968 283.35999
-2.6776509 -11.27451 -2.1833136 283.35999
-3.1544638 -13.109046 -2.2152147 283.53
-3.7420571 -15.550915 -2.2479239 283.53
-4.6562495 -19.350035 -2.3274276 283.53
-6.0788774 -25.26207 -2.424108 283.53
-1.2644229 -5.2545781 -2.1104138 283.53
-1.3568851 -5.6388249 -2.1109483 283.53
-1.4659489 -6.0920625 -2.1172538 283.53
-1.5896921 -6.6063037 -2.1202724 283.53
-1.7402102 -7.2318134 -2.1328819 283.53
-1.9093002 -7.9345031 -2.1364293 283.53
-2.1226211 -8.821003 -2.1497345 283.53
-2.3698878 -9.8485727 -2.1531334 283.53
-2.7106314 -11.264606 -2.1829431 283.53
-3.1942799 -13.103463 -2.2158632 283.70001
-3.7891192 -15.543591 -2.2484806 283.70001
-4.717876 -19.353504 -2.3295183 283.70001
-6.1674819 -25.300028 -2.4294956 283.70001
-1.2791255 -5.2471833 -2.1089587 283.70001
-1.3740549 -5.6366 -2.1116323 283.70001
-1.484018 -6.0876861 -2.1172538 283.70001
-1.6101906 -6.6052675 -2.121464 283.70001
-1.760749 -7.2228827 -2.1317792 283.70001
-1.9332922 -7.9306831 -2.1369357 283.70001
-2.1506276 -8.8222294 -2.1515791 283.70001
-2.3972452 -9.8338957 -2.1514702 283.70001
-2.7459042 -11.264152 -2.1844244 283.70001
-3.2363768 -13.097196 -2.2165117 283.88
-3.8384073 -15.533534 -2.248759 283.88
-4.7834187 -19.357872 -2.3318415 283.88
-6.250278 -25.29406 -2.4307961 283.88
-1.2960505 -5.2449479 -2.1096864 283.88
-1.3908544 -5.6286063 -2.1102643 283.88
-1.5044992 -6.0885124 -2.1191745 283.88
-1.6309338 -6.6001763 -2.121464 283.88
-1.7838929 -7.219182 -2.1323307 283.88
-1.9577334 -7.9226918 -2.1364293 283.88
-2.1783328 -8.8154297 -2.1515791 283.88
-2.4318819 -9.8415089 -2.1547968 283.88
-2.7808063 -11.253561 -2.1840541 283.88
-3.2779863 -13.088878 -2.216836 284.06
-3.8881505 -15.525241 -2.2493157 284.06
-4.8475876 -19.356237 -2.3334675 284.06
-6.344224 -25.332251 -2.4363697 284.06
-9.2915487 -37.100807 -2.6744633 284.06
-1.1509538 -4.5957155 -2.1093361 284.06
-1.3116164 -5.237236 -2.1082313 284.06
-1.4080737 -5.622386 -2.1095803 284.06
-1.523159 -6.0819178 -2.1185343 284.06
-1.6516608 -6.5950203 -2.121464 284.06
-1.8065637 -7.213542 -2.1323307 284.06
-1.9844936 -7.9240098 -2.1384552 284.06
-2.2069621 -8.8123178 -2.1525013 284.06
-2.4646888 -9.8414116 -2.15646 284.06
-2.8171017 -11.248583 -2.1847947 284.06
-3.3159788 -13.085412 -2.2178087 284.22
-3.9324629 -15.518163 -2.2498724 284.22
-4.9094286 -19.373434 -2.3371844 284.22
-6.4301043 -25.374275 -2.4421289 284.22
-1.1624365 -4.5871701 -2.1068959 284.22
-1.3276093 -5.2389703 -2.1104138 284.22
-1.4233072 -5.6166101 -2.1088963 284.22
-1.5401371 -6.0776405 -2.1185343 284.22
-1.670071 -6.5903821 -2.121464 284.22
-1.8276452 -7.2121964 -2.1334331 284.22
-2.0061386 -7.9165616 -2.1379488 284.22
-2.2315621 -8.8061209 -2.1525013 284.22
-2.4907198 -9.8288012 -2.1552126 284.22
-2.8509166 -11.250198 -2.1866462 284.22
-3.3575623 -13.076841 -2.218133 284.39999
-3.9861207 -15.524915 -2.2526557 284.39999
-4.9766903 -19.382929 -2.3402042 284.39999
-6.5315781 -25.438816 -2.4503036 284.39999
-1.3431349 -5.2311649 -2.1089587 284.39999
-12.893079 -50.215225 0 284.39999
-1.4428147 -5.6193924 -2.1116323 284.39999
-1.5587517 -6.0709367 -2.1178939 284.39999
-1.6893426 -6.5795555 -2.1196766 284.39999
-1.8498158 -7.2045569 -2.1328819 284.39999
-2.0319617 -7.9139681 -2.1389618 284.39999
-2.2601843 -8.8028364 -2.1534235 284.39999
-2.5225587 -9.8247175 -2.1560442 284.39999
-2.8872235 -11.244993 -2.1873868 284.39999
-3.3978367 -13.072552 -2.2191057 284.57001
-4.0346575 -15.522604 -2.2540476 284.57001
-5.0381761 -19.383457 -2.3420627 284.57001
-6.6135397 -25.44438 -2.4527187 284.57001
-1.1881379 -4.5711422 -2.1028285 284.57001
-1.3595874 -5.230763 -2.1104138 284.57001
-1.4585359 -5.6114488 -2.1102643 284.57001
-1.5781876 -6.0717869 -2.1198146 284.57001
-1.7117388 -6.5856009 -2.1232512 284.57001
-1.8726349 -7.2046189 -2.1345358 284.57001
-2.0559206 -7.9097767 -2.1394682 284.57001
-2.2862928 -8.796092 -2.1534235 284.57001
-2.5521901 -9.8190832 -2.15646 284.57001
-2.9190922 -11.230671 -2.186276 284.57001
-3.4371107 -13.064322 -2.21943 284.73999
-4.0812001 -15.51248 -2.2543259 284.73999
-5.1057744 -19.406845 -2.3467088 284.73999
-6.7001524 -25.467012 -2.4568059 284.73999
-9.835268 -37.383465 -2.7030632 284.73999
-1.2040198 -4.5764318 -2.1068959 284.73999
-1.3755754 -5.2285075 -2.1111412 284.73999
-1.475179 -5.6070967 -2.1102643 284.73999
-1.5957139 -6.0652452 -2.1191745 284.73999
-1.7298138 -6.574954 -2.121464 284.73999
-1.8940032 -7.1990309 -2.1345358 284.73999
-2.0788879 -7.9017711 -2.1389618 284.73999
-2.3133717 -8.7930336 -2.1543458 284.73999
-2.5778284 -9.7982235 -2.1535492 284.73999
-2.9529014 -11.223861 -2.1866462 284.73999
-3.4801691 -13.061088 -2.2207267 284.92001
-4.1268544 -15.488099 -2.2526557 284.92001
-5.1728549 -19.413744 -2.3494964 284.92001
-6.7914057 -25.488171 -2.4608932 284.92001
-9.958827 -37.375515 -2.7047374 284.92001
-1.2150981 -4.5602679 -2.1012015 284.92001
-1.3919945 -5.2241602 -2.1111412 284.92001
-13.385871 -50.237225 0 284.92001
-1.4947224 -5.6096988 -2.1130004 284.92001
-1.6157361 -6.0638638 -2.120455 284.92001
-1.7514442 -6.5731769 -2.1226554 284.92001
-1.9180951 -7.1986184 -2.1361895 284.92001
-2.1056945 -7.902679 -2.1409879 284.92001
-2.339982 -8.7819614 -2.1534235 284.92001
-2.6146419 -9.8127613 -2.1585391 284.92001
-2.9896655 -11.220226 -2.1877573 284.92001
-3.5166287 -13.051318 -2.2207267 285.07999
-4.1773028 -15.503287 -2.2565527 285.07999
-5.2353168 -19.429911 -2.3532131 285.07999
-6.8791342 -25.530636 -2.4668381 285.07999
-10.099495 -37.48241 -2.7145035 285.07999
-1.2273527 -4.5550928 -2.1003881 285.07999
-1.407547 -5.2238503 -2.1125963 285.07999
-13.540677 -50.253719 0 285.07999
-1.5108707 -5.6073174 -2.1136844 285.07999
-1.6326634 -6.0593281 -2.120455 285.07999
-1.7697932 -6.5682602 -2.1226554 285.07999
-1.9371897 -7.1895213 -2.135087 285.07999
-2.1277547 -7.8967681 -2.1409879 285.07999
-2.3655095 -8.779151 -2.1543458 285.07999
-2.6374536 -9.7884207 -2.1547968 285.07999
-3.0204754 -11.209936 -2.1873868 285.07999
-3.5553374 -13.040827 -2.2207267 285.25
-4.2253671 -15.498467 -2.2576661 285.25
-5.303916 -19.454538 -2.3580916 285.25
-6.959569 -25.527403 -2.4685104 285.25
-10.210663 -37.452278 -2.7145035 285.25
-1.4215702 -5.2142591 -2.1104138 285.25
-1.5260183 -5.5973701 -2.1116323 285.25
-1.6506345 -6.0544572 -2.120455 285.25
-1.7917846 -6.5721903 -2.1256342 285.25
-1.9569957 -7.1781774 -2.1334331 285.25
-2.1511755 -7.8904204 -2.1409879 285.25
-2.3920591 -8.7739716 -2.1548069 285.25
-2.6669991 -9.7824402 -2.1552126 285.25
-3.0521717 -11.195236 -2.186276 285.25
-3.597512 -13.02516 -2.2200782 285.44
-4.2735753 -15.472917 -2.255996 285.44
-5.3678718 -19.434929 -2.3578591 285.44
-7.0685697 -25.592482 -2.4770563 285.44
-10.340646 -37.439369 -2.716038 285.44
-1.4388534 -5.209516 -2.1104138 285.44
-1.5455722 -5.595902 -2.1130004 285.44
-1.6712072 -6.0507765 -2.1210952 285.44
-1.8125525 -6.5625315 -2.1244426 285.44
-1.9813006 -7.1735015 -2.1339843 285.44
-2.1783595 -7.8869734 -2.1420007 285.44
-2.4216597 -8.7678671 -2.155268 285.44
-2.6999452 -9.7754278 -2.1556284 285.44
-3.0913727 -11.192631 -2.1877573 285.44
-3.6382666 -13.022032 -2.2213752 285.60999
-4.3226628 -15.471613 -2.2576661 285.60999
-5.4367375 -19.459093 -2.3627374 285.60999
-7.1610842 -25.63085 -2.4828157 285.60999
-1.4522988 -5.1980472 -2.1075039 285.60999
-1.5626744 -5.5931015 -2.1136844 285.60999
-1.6881331 -6.0421419 -2.1198146 285.60999
-1.8309884 -6.5534472 -2.1232512 285.60999
-2.0046453 -7.1749978 -2.1361895 285.60999
-2.2012303 -7.8786116 -2.1414943 285.60999
-2.4492347 -8.7662659 -2.1566513 285.60999
-2.7331488 -9.7824469 -2.1589551 285.60999
-3.125097 -11.185303 -2.1881275 285.60999
-3.6734178 -13.016261 -2.2220237 285.76001
-4.3696079 -15.483116 -2.2610061 285.76001
-5.4973745 -19.479206 -2.366919 285.76001
-7.2341108 -25.633097 -2.4848592 285.76001
-10.618405 -37.624886 -2.7337563 285.76001
-1.4699503 -5.208571 -2.1133237 285.76001
-1.5762908 -5.5853739 -2.1123164 285.76001
-1.7049749 -6.0413485 -2.1210952 285.76001
-1.849176 -6.5523062 -2.1244426 285.76001
-2.0229003 -7.1678748 -2.1356382 285.76001
-2.2223744 -7.8746839 -2.1420007 285.76001
-2.4742908 -8.7673159 -2.1584959 285.76001
-2.756093 -9.7658443 -2.1568758 285.76001
-3.1570385 -11.186541 -2.1899791 285.76001
-3.7160187 -13.00211 -2.2216995 285.95001
-4.4263701 -15.487584 -2.2637897 285.95001
-5.5706735 -19.491428 -2.3706357 285.95001
-7.3426037 -25.691298 -2.4928479 285.95001
-10.757918 -37.641262 -2.7375231 285.95001
-1.4861906 -5.2000852 -2.1118686 285.95001
-1.5958368 -5.5837302 -2.1136844 285.95001
-1.7249993 -6.0356612 -2.1210952 285.95001
-1.8703694 -6.5443025 -2.123847 285.95001
-2.0477154 -7.164824 -2.1367407 285.95001
-2.2511339 -7.8765726 -2.1445332 285.95001
-2.5012114 -8.7515774 -2.1566513 285.95001
-2.7890003 -9.7585316 -2.1572917 285.95001
-3.1941171 -11.17601 -2.1899791 285.95001
-3.7539558 -12.997371 -2.2226722 286.10999
-4.4718008 -15.482774 -2.2649031 286.10999
-5.630043 -19.492971 -2.3727264 286.10999
-7.4325533 -25.733828 -2.4989789 286.10999
-10.832541 -37.505653 -2.7298498 286.10999
-1.5007061 -5.1959147 -2.1118686 286.10999
-1.6114233 -5.5792518 -2.1136844 286.10999
-1.7428988 -6.0344615 -2.1223757 286.10999
-1.8896968 -6.5427222 -2.1250384 286.10999
-2.0687823 -7.1627722 -2.1378434 286.10999
-2.272047 -7.866538 -2.1435204 286.10999
-2.5283408 -8.7539072 -2.158957 286.10999
-2.8178687 -9.7563438 -2.1585391 286.10999
-3.2258592 -11.168935 -2.1903493 286.10999
-3.7970359 -12.984851 -2.2226722 286.29999
-4.5203395 -15.458355 -2.2635114 286.29999
-5.7013435 -19.497074 -2.375514 286.29999
-7.5284681 -25.745354 -2.5025086 286.29999
-10.919337 -37.341225 -2.7205024 286.29999
-1.5189739 -5.1944857 -2.1133237 286.29999
-1.6293885 -5.5720739 -2.1130004 286.29999
-1.763432 -6.030467 -2.1230159 286.29999
-1.9108471 -6.5345874 -2.1244426 286.29999
-2.0930631 -7.1577177 -2.1383946 286.29999
-2.2986639 -7.8608174 -2.1440268 286.29999
-2.5584483 -8.7492104 -2.1598792 286.29999
-2.8513045 -9.750701 -2.1593709 286.29999
-3.2634306 -11.160063 -2.1907196 286.29999
-3.8366652 -12.977312 -2.2233207 286.47
-4.5774155 -15.482861 -2.2690783 286.47
-5.770431 -19.518171 -2.3801601 286.47
-7.6285353 -25.803108 -2.5103116 286.47
-10.992185 -37.180473 -2.7111552 286.47
-1.5354359 -5.1935291 -2.1147785 286.47
-1.6475124 -5.5726218 -2.1150525 286.47
-1.7802426 -6.0215745 -2.1217353 286.47
-1.9307684 -6.5307198 -2.1250384 286.47
-2.1142912 -7.1514759 -2.1383946 286.47
-2.3203316 -7.8483963 -2.1425073 286.47
-2.5849481 -8.7434473 -2.1603403 286.47
-2.8785591 -9.7365704 -2.1581233 286.47
-3.2965288 -11.150331 -2.1907196 286.47
-3.876848 -12.971544 -2.2242935 286.64001
-4.6256022 -15.476801 -2.2701917 286.64001
-5.8322992 -19.514288 -2.3817861 286.64001
-7.7358537 -25.88339 -2.520344 286.64001
-11.082457 -37.080788 -2.7062721 286.64001
-1.4406004 -4.8201041 -2.101326 286.64001
-1.5508387 -5.1889505 -2.1147785 286.64001
-1.6645776 -5.5695095 -2.1157367 286.64001
-1.7997289 -6.0217123 -2.123656 286.64001
-1.9523238 -6.5322795 -2.1274214 286.64001
-2.1355007 -7.1451712 -2.1383946 286.64001
-2.3458242 -7.8488922 -2.1445332 286.64001
-2.6114364 -8.7376041 -2.1608014 286.64001
-2.911917 -9.7429819 -2.1614499 286.64001
-3.3318491 -11.148033 -2.1922009 286.64001
-3.9181514 -12.96119 -2.2246177 286.82001
-4.6827979 -15.49063 -2.2743669 286.82001
-5.9050727 -19.533897 -2.3864322 286.82001
-7.8200116 -25.86849 -2.5212729 286.82001
-11.172915 -36.95985 -2.6999941 286.82001
-1.4605422 -4.8314533 -2.1082635 286.82001
-1.5649762 -5.1769195 -2.1118686 286.82001
-1.6826103 -5.5660515 -2.1164207 286.82001
-1.8175411 -6.0124011 -2.1223757 286.82001
-1.9733883 -6.5279412 -2.1280172 286.82001
-2.1596062 -7.1439476 -2.1400485 286.82001
-2.3704705 -7.8414841 -2.1445332 286.82001
-2.6371839 -8.7237682 -2.1594181 286.82001
-2.9493039 -9.7562571 -2.1664398 286.82001
-3.367424 -11.139392 -2.1925712 286.82001
-3.9549067 -12.952085 -2.224942 286.98001
-4.7283511 -15.48507 -2.2754803 286.98001
-5.9653997 -19.536331 -2.3887553 286.98001
-11.257438 -36.867443 -2.6955297 286.98001
-1.4745674 -4.8291211 -2.1090343 286.98001
-1.5805149 -5.1760926 -2.1133237 286.98001
-1.6975982 -5.5595336 -2.1157367 286.98001
-1.8343239 -6.0073018 -2.1223757 286.98001
-1.9888222 -6.5132751 -2.1250384 286.98001
-2.1767402 -7.1286955 -2.1372921 286.98001
-2.3929238 -7.8366842 -2.1450398 286.98001
-2.6626718 -8.7200918 -2.1603403 286.98001
-2.9742517 -9.7404985 -2.1647766 286.98001
-3.3973699 -11.126185 -2.1918304 286.98001
-3.9962287 -12.949723 -2.2265632 287.14999
-4.7777791 -15.482327 -2.2771504 287.14999
-6.0362253 -19.560305 -2.3938658 287.14999
-7.9859014 -25.878202 -2.5266607 287.14999
-11.357951 -36.805283 -2.6934369 287.14999
-1.4888892 -4.8247247 -2.1090343 287.14999
-1.5953163 -5.1696005 -2.1125963 287.14999
-1.7140862 -5.5544724 -2.1157367 287.14999
-1.8526984 -6.0036435 -2.1230159 287.14999
-2.0098276 -6.5128183 -2.1268256 287.14999
-2.2007165 -7.131391 -2.1400485 287.14999
-2.4167359 -7.8313985 -2.1455462 287.14999
-2.6908283 -8.7195921 -2.1621847 287.14999
-3.0037162 -9.7335005 -2.1651924 287.14999
-3.430367 -11.116056 -2.1918304 287.14999
-4.0346336 -12.937809 -2.2265632 287.32001
-4.8278227 -15.481318 -2.2790987 287.32001
-6.0983748 -19.555582 -2.3954921 287.32001
-8.0703554 -25.879108 -2.5290759 287.32001
-11.439782 -36.683807 -2.6870193 287.32001
-1.5010002 -4.8132386 -2.1059511 287.32001
-1.6139755 -5.1755152 -2.116961 287.32001
-1.7322376 -5.5547447 -2.1177888 287.32001
-1.8699393 -5.9963112 -2.1223757 287.32001
-2.0308478 -6.5122943 -2.128613 287.32001
-2.2230108 -7.1285005 -2.141151 287.32001
-2.4405375 -7.8260407 -2.1460528 287.32001
-2.7178469 -8.7152853 -2.1631069 287.32001
-3.0325828 -9.7245455 -2.1651924 287.32001
-3.4639189 -11.107705 -2.1922009 287.32001
-4.0753756 -12.933311 -2.2278602 287.48999
-4.8796873 -15.485815 -2.281882 287.48999
-6.1611466 -19.552559 -2.3973503 287.48999
-8.1596727 -25.894934 -2.5329773 287.48999
-11.538981 -36.619255 -2.6847873 287.48999
-1.5186026 -4.819325 -2.1105762 287.48999
-1.626525 -5.1618195 -2.1133237 287.48999
-1.7487112 -5.5495806 -2.1177888 287.48999
-1.888292 -5.9925437 -2.1230159 287.48999
-2.0478661 -6.4989562 -2.12623 287.48999
-2.2418404 -7.1145387 -2.1389458 287.48999
-2.4637468 -7.8187647 -2.1460528 287.48999
-2.7442784 -8.7090397 -2.163568 287.48999
-3.0625985 -9.7192364 -2.166024 287.48999
-3.4998143 -11.106751 -2.1940522 287.48999
-4.1143303 -12.923042 -2.2281845 287.66
-4.926815 -15.475043 -2.2824388 287.66
-6.2311859 -19.57205 -2.4019964 287.66
-8.249155 -25.910458 -2.5368788 287.66
-11.620345 -36.49931 -2.678509 287.66
-1.4366957 -4.5126371 -2.1085227 287.66
-1.5323352 -4.8130393 -2.1098051 287.66
-1.6429635 -5.160521 -2.1147785 287.66
-10.995266 -34.535946 0 287.66
-1.7651694 -5.5443678 -2.1177888 287.66
-1.9072134 -5.9905257 -2.1242964 287.66
-2.067719 -6.4946709 -2.1268256 287.66
-2.2646894 -7.1133513 -2.1405997 287.66
-2.4875216 -7.8132639 -2.1465592 287.66
-2.7689259 -8.6971493 -2.1626458 287.66
-3.092016 -9.7119703 -2.1664398 287.66
-3.5345418 -11.101937 -2.1951632 287.66
-4.1589766 -12.914963 -2.229157 287.85001
-4.9829617 -15.473701 -2.2846656 287.85001
-6.3021436 -19.570187 -2.4043195 287.85001
-8.3466291 -25.918974 -2.5404086 287.85001
-11.724194 -36.407398 -2.6746027 287.85001
-1.4522123 -4.5095873 -2.1093361 287.85001
-1.5494188 -4.8114448 -2.111347 287.85001
-1.6594964 -5.1532712 -2.1140511 287.85001
-11.115862 -34.518333 0 287.85001
-1.7823933 -5.5349059 -2.1164207 287.85001
-1.9276491 -5.9859719 -2.1249366 287.85001
-2.0915856 -6.4950476 -2.1292086 287.85001
-2.2864978 -7.1003127 -2.1389458 287.85001
-2.5134177 -7.8049722 -2.1465592 287.85001
-2.7989445 -8.6916246 -2.163568 287.85001
-3.1248047 -9.7035255 -2.1668556 287.85001
-3.5695305 -11.084542 -2.1940522 287.85001
-4.2021618 -12.917581 -2.231751 288.01999
-5.0362034 -15.48145 -2.2880058 288.01999
-6.3706284 -19.583515 -2.4082687 288.01999
-8.4253435 -25.899776 -2.540966 288.01999
-11.804391 -36.287075 -2.6683247 288.01999
-1.4689773 -4.5156832 -2.114217 288.01999
-1.5636878 -4.8068261 -2.111347 288.01999
-1.6765081 -5.1536393 -2.1162336 288.01999
-11.192245 -34.405319 0 288.01999
-1.800552 -5.5349545 -2.1184728 288.01999
-1.9454013 -5.980226 -2.1249366 288.01999
-2.1108477 -6.4888134 -2.1292086 288.01999
-2.3081496 -7.0953255 -2.139497 288.01999
-2.5365646 -7.7974806 -2.1465592 288.01999
-2.8247206 -8.6832819 -2.163568 288.01999
-3.1560028 -9.7016535 -2.168519 288.01999
-3.6042273 -11.07951 -2.1951632 288.01999
-4.2447829 -12.91818 -2.2340207 288.19
-5.0913892 -15.494662 -2.292181 288.19
-6.4404879 -19.600384 -2.4126823 288.19
-8.5232887 -25.938986 -2.5472827 288.19
-11.895812 -36.20261 -2.6646974 288.19
-1.4743841 -4.4870038 -2.1028285 288.19
-1.5756387 -4.7951527 -2.1082635 288.19
-1.6912103 -5.1468725 -2.1155062 288.19
-1.8163799 -5.5278025 -2.1177888 288.19
-1.9631364 -5.9744277 -2.1249366 288.19
-2.131283 -6.4861493 -2.1304002 288.19
-2.330992 -7.093925 -2.141151 288.19
-2.560293 -7.7917581 -2.1470659 288.19
-2.851687 -8.6785603 -2.1644902 288.19
-3.1859956 -9.6959639 -2.1693506 288.19
-3.6376984 -11.070635 -2.1955335 288.19
-4.2774987 -12.888671 -2.2311025 288.35999
-5.1404595 -15.488886 -2.2935727 288.35999
-6.511755 -19.620781 -2.4175606 288.35999
-8.6033497 -25.923033 -2.5482116 288.35999
-11.404902 -34.364479 -2.5318809 288.35999
-1.4911438 -4.4930139 -2.1077092 288.35999
-1.5921843 -4.7974625 -2.111347 288.35999
-28.030657 -84.460083 -2.0660856 288.35999
-1.7058871 -5.1400638 -2.1147785 288.35999
-1.8339572 -5.5259562 -2.1191568 288.35999
-15.8194 -47.665951 1.1660174 288.35999
-1.9808543 -5.9685764 -2.1249366 288.35999
-2.1499171 -6.4779849 -2.1298044 288.35999
-2.3538465 -7.0924516 -2.1428049 288.35999
-2.5840096 -7.7859635 -2.1475723 288.35999
-2.8774242 -8.6700611 -2.1644902 288.35999
-3.2153661 -9.688324 -2.1697664 288.35999
-3.673625 -11.069119 -2.1973851 288.35999
-4.3167133 -12.871427 -2.230454 288.54001
-5.1916127 -15.480171 -2.2946861 288.54001
-6.5822058 -19.626595 -2.4208128 288.54001
-8.6923447 -25.918533 -2.550441 288.54001
-12.019677 -35.839855 -2.6433518 288.54001
-1.5058327 -4.4900398 -2.1085227 288.54001
-1.6054877 -4.7871876 -2.1090343 288.54001
-11.546073 -34.427681 -0.84306246 288.54001
-1.7238038 -5.1399784 -2.116961 288.54001
-11.526291 -34.368694 0 288.54001
-1.8501133 -5.5166035 -2.1177888 288.54001
-1.9983903 -5.9587312 -2.123656 288.54001
-2.1690435 -6.4675784 -2.128613 288.54001
-2.3748939 -7.0813766 -2.1417022 288.54001
-2.6090724 -7.7796416 -2.1480787 288.54001
-2.9027915 -8.6554432 -2.1631069 288.54001
-3.2451649 -9.6763201 -2.1693506 288.54001
-3.7077565 -11.05566 -2.1970148 288.54001
-4.3551712 -12.866799 -2.231751 288.70001
-5.2399011 -15.480621 -2.2969129 288.70001
-6.6369882 -19.608137 -2.4208128 288.70001
-8.7915039 -25.973379 -2.558244 288.70001
-12.103083 -35.757015 -2.6397245 288.70001
-1.5189511 -4.4875479 -2.1093361 288.70001
-1.6188499 -4.7826858 -2.1090343 288.70001
-1.7393451 -5.1386738 -2.1184161 288.70001
-1.8667164 -5.514976 -2.1191568 288.70001
-2.0174525 -5.9603062 -2.1262171 288.70001
-2.1877079 -6.4633045 -2.1292086 288.70001
-2.3952758 -7.0765376 -2.1422536 288.70001
-2.6307869 -7.7723255 -2.1480787 288.70001
-2.9281986 -8.6509895 -2.1640291 288.70001
-3.2721736 -9.6672201 -2.1693506 288.70001
-3.7379851 -11.043402 -2.1966445 288.70001
-4.402597 -12.873594 -2.2353177 288.88
-5.2961998 -15.486571 -2.3002529 288.88
-6.7094836 -19.619143 -2.424762 288.88
-8.8827238 -25.973896 -2.5610306 288.88
-12.188241 -35.63953 -2.6338649 288.88
-1.5318592 -4.4792962 -2.1077092 288.88
-13.720716 -40.120625 -1.9773732 288.88
-1.6362557 -4.7845612 -2.1121178 288.88
-1.7530688 -5.126133 -2.1155062 288.88
-11.763687 -34.398094 0 288.88
-1.884033 -5.5090842 -2.1191568 288.88
-2.0361671 -5.953939 -2.1262171 288.88
-2.2067666 -6.4527869 -2.1280172 288.88
-2.4156294 -7.0635204 -2.1405997 288.88
-2.6551914 -7.7640224 -2.1480787 288.88
-2.9572511 -8.6472721 -2.1654127 288.88
-3.3044269 -9.662446 -2.170598 288.88
-3.7739325 -11.035323 -2.1973851 288.88
-4.4478598 -12.880996 -2.2388842 289.04999
-5.3453579 -15.480149 -2.3016448 289.04999
-6.7773905 -19.627314 -2.4282465 289.04999
-8.9636507 -25.958719 -2.5621452 289.04999
-12.269187 -35.531548 -2.6285634 289.04999
-1.5457391 -4.4764581 -2.1085227 289.04999
-13.723626 -39.743603 -1.9607896 289.04999
-1.6498423 -4.7779408 -2.111347 289.04999
-1.7694867 -5.1244311 -2.116961 289.04999
-11.861127 -34.349808 0 289.04999
-1.899757 -5.5016937 -2.1184728 289.04999
-2.0544424 -5.9496622 -2.1268573 289.04999
-2.2277722 -6.4516249 -2.1298044 289.04999
-2.439714 -7.0654082 -2.1433561 289.04999
-2.6832681 -7.7707405 -2.1521308 289.04999
-2.9809895 -8.6329412 -2.1640291 289.04999
-3.3343585 -9.6562977 -2.1714296 289.04999
-3.8085828 -11.029651 -2.1984959 289.04999
-4.4841099 -12.862151 -2.2379117 289.22
-5.4003925 -15.490403 -2.3055415 289.22
-6.8460588 -19.637131 -2.4319632 289.22
-9.0471878 -25.950813 -2.5640032 289.22
-12.348942 -35.421513 -2.6231225 289.22
-1.5602171 -4.4753027 -2.1101496 289.22
-13.750728 -39.442375 -1.9479326 289.22
-1.6664416 -4.779995 -2.1144302 289.22
-1.7840701 -5.1173992 -2.1162336 289.22
-1.9173099 -5.4995818 -2.1198409 289.22
-2.0720863 -5.9435406 -2.1268573 289.22
-2.2450192 -6.4395781 -2.1280172 289.22
-2.4619324 -7.0617695 -2.1444585 289.22
-2.7031279 -7.7536101 -2.1495984 289.22
-3.0117159 -8.6387596 -2.1677182 289.22
-3.3623507 -9.644515 -2.1710138 289.22
-3.8432326 -11.02387 -2.1996069 289.22
-4.5212173 -12.838693 -2.2362905 289.39999
-5.4569249 -15.495778 -2.3088818 289.39999
-6.922893 -19.658621 -2.4373062 289.39999
-9.1379299 -25.948559 -2.5666041 289.39999
-12.439617 -35.324207 -2.6187975 289.39999
-1.5730553 -4.4669323 -2.1085227 289.39999
-13.810865 -39.218079 -1.9389886 289.39999
-1.677772 -4.7642922 -2.1098051 289.39999
-1.8013756 -5.1152835 -2.1176884 289.39999
-1.9358263 -5.497077 -2.1212089 289.39999
-2.0913775 -5.9387884 -2.1274974 289.39999
-2.2646043 -6.4306927 -2.1274214 289.39999
-2.4841056 -7.0539999 -2.1444585 289.39999
-2.7287586 -7.7487297 -2.1506114 289.39999
-3.0414262 -8.6365976 -2.1695626 289.39999
-3.3945825 -9.6394396 -2.1722612 289.39999
-3.8752348 -11.004326 -2.1981256 289.39999
-4.5705285 -12.856833 -2.2418025 289.57001
-5.5061946 -15.48885 -2.3102734 289.57001
-6.9891753 -19.660454 -2.4400938 289.57001
-9.2235518 -25.945723 -2.5690193 289.57001
-12.530337 -35.247665 -2.6158679 289.57001
-1.587526 -4.4656887 -2.1101496 289.57001
-13.913783 -39.139278 -1.9371252 289.57001
-1.693755 -4.7645097 -2.1121178 289.57001
-1.8159211 -5.108161 -2.116961 289.57001
-1.9502394 -5.4859962 -2.1191568 289.57001
-2.1096237 -5.9343424 -2.1281378 289.57001
-2.2836747 -6.4239454 -2.1274214 289.57001
-2.5024483 -7.0393529 -2.1422536 289.57001
-2.7504413 -7.7369533 -2.1495984 289.57001
-3.0650826 -8.622035 -2.1681793 289.57001
-3.4231684 -9.6293249 -2.1722612 289.57001
-3.9124765 -11.005742 -2.2007177 289.57001
-4.6106553 -12.848789 -2.2427752 289.73999
-5.5614915 -15.498542 -2.3141704 289.73999
-7.0582132 -19.669546 -2.4438107 289.73999
-9.3220158 -25.978222 -2.5749645 289.73999
-12.615995 -35.157749 -2.6119614 289.73999
-1.6007689 -4.4609585 -2.1101496 289.73999
-14.029176 -39.095943 -1.9370321 289.73999
-1.7066376 -4.7559891 -2.1105762 289.73999
-1.8291816 -5.0974898 -2.1147785 289.73999
-1.9671428 -5.4819546 -2.1198409 289.73999
-2.1253021 -5.9227066 -2.1262171 289.73999
-2.3046594 -6.4225321 -2.1292086 289.73999
-2.5265701 -7.0409446 -2.14501 289.73999
-2.7746921 -7.7324004 -2.1506114 289.73999
-3.090651 -8.6129026 -2.1681793 289.73999
-3.4530454 -9.6228085 -2.1730931 289.73999
-3.9457777 -10.995935 -2.2010882 289.73999
-4.6498766 -12.845141 -2.2443964 289.89999
-5.6108174 -15.499712 -2.3166754 289.89999
-7.1232557 -19.677776 -2.4472952 289.89999
-9.3952026 -25.95396 -2.5751503 289.89999
-12.718879 -35.135517 -2.6129379 289.89999
-1.6125981 -4.4547529 -2.1093361 289.89999
-14.140337 -39.062252 -1.9373115 289.89999
-1.7205403 -4.7529402 -2.111347 289.89999
-1.8453116 -5.0976171 -2.116961 289.89999
-1.9824437 -5.47644 -2.1198409 289.89999
-2.1437681 -5.9220934 -2.1281378 289.89999
-2.3219357 -6.4142761 -2.128613 289.89999
-2.5462224 -7.0338616 -2.14501 289.89999
-2.7969327 -7.7264414 -2.1511178 289.89999
-3.1140285 -8.6024084 -2.1677182 289.89999
-3.4825675 -9.6204863 -2.1747563 289.89999
-3.9744618 -10.979329 -2.1999772 289.89999
-4.6949506 -12.843446 -2.2466662 290.07999
-5.6649232 -15.496889 -2.3189023 290.07999
-7.1925421 -19.675823 -2.4498506 290.07999
-9.4978876 -25.982296 -2.5809095 290.07999
-12.831938 -35.102879 -2.6134961 290.07999
-1.6259578 -4.4479489 -2.1085227 290.07999
-14.280819 -39.066422 -1.9397339 290.07999
-1.737998 -4.7544446 -2.1144302 290.07999
-1.8619568 -5.0935445 -2.1176884 290.07999
-2.0022197 -5.4772458 -2.122577 290.07999
-2.1623621 -5.9153295 -2.1281378 290.07999
-2.3420751 -6.40695 -2.128613 290.07999
-2.566987 -7.0222163 -2.1439073 290.07999
-2.8218565 -7.7194338 -2.1516242 290.07999
-3.1423745 -8.5962381 -2.1686404 290.07999
-3.5121021 -9.6076612 -2.1743405 290.07999
-4.0123086 -10.976019 -2.2018287 290.07999
-4.7423015 -12.840765 -2.2489357 290.26999
-5.7190261 -15.48545 -2.3200157 290.26999
-7.2708259 -19.687269 -2.4542642 290.26999
-9.5915842 -25.971205 -2.5829532 290.26999
-12.938596 -35.033932 -2.6115429 290.26999
-1.6425978 -4.4476743 -2.1109631 290.26999
-14.424132 -39.056332 -1.9415972 290.26999
-1.7543942 -4.7503862 -2.1152012 290.26999
-1.8781919 -5.0855947 -2.116961 290.26999
-2.0177674 -5.4635239 -2.1198409 290.26999
-2.1819663 -5.9081264 -2.1281378 290.26999
-2.3659542 -6.406312 -2.130996 290.26999
-2.5922577 -7.0190759 -2.1455612 290.26999
-2.8481097 -7.7118487 -2.1521308 290.26999
-3.1735604 -8.5930729 -2.1704848 290.26999
-3.5452986 -9.5996313 -2.1751721 290.26999
-4.0520887 -10.971872 -2.2036803 290.26999
-4.7795186 -12.831171 -2.2495842 290.42999
-5.7691607 -15.487979 -2.322799 290.42999
-7.3424163 -19.711565 -2.4598396 290.42999
-9.6807547 -25.989105 -2.5874119 290.42999
-13.073289 -35.096756 -2.618937 290.42999
-1.6543738 -4.4413576 -2.1101496 290.42999
-14.55476 -39.073936 -1.9444854 290.42999
-1.7657202 -4.7402802 -2.1128886 290.42999
-1.8936869 -5.0838213 -2.1184161 290.42999
-2.0362966 -5.4666739 -2.123261 290.42999
-2.1984563 -5.90201 -2.1281378 290.42999
-2.3825018 -6.396102 -2.1298044 290.42999
-2.6118486 -7.0118093 -2.1455612 290.42999
-2.8696342 -7.7038651 -2.1521308 290.42999
-3.1955063 -8.5787067 -2.1691015 290.42999
-3.571409 -9.5878611 -2.1747563 290.42999
-4.079968 -10.953146 -2.202199 290.42999
-4.8246684 -12.829023 -2.2518539 290.60999
-5.822669 -15.482755 -2.3247476 290.60999
-7.4126964 -19.710712 -2.4626272 290.60999
-13.17014 -35.020031 -2.6162863 290.60999
-1.6696049 -4.439559 -2.1117766 290.60999
-14.699243 -39.085987 -1.9473736 290.60999
-1.779954 -4.7329826 -2.1121178 290.60999
-1.9083372 -5.0743594 -2.116961 290.60999
-2.0541222 -5.462009 -2.123945 290.60999
-2.2169871 -5.8950744 -2.1281378 290.60999
-2.4012399 -6.3850112 -2.128613 290.60999
-2.6325104 -6.9999704 -2.1444585 290.60999
-2.8931413 -7.6930008 -2.1516242 290.60999
-3.2258666 -8.577733 -2.1714072 290.60999
-3.6049557 -9.5857487 -2.1768353 290.60999
-4.1164336 -10.945794 -2.20331 290.60999
-4.8646741 -12.826571 -2.2537994 290.76999
-5.8736081 -15.486804 -2.3278093 290.76999
-7.4761634 -19.712225 -2.4654148 290.76999
-9.8701143 -26.024298 -2.5967011 290.76999
-13.253025 -34.943939 -2.6133566 290.76999
-1.6794043 -4.4280457 -2.1085227 290.76999
-14.81967 -39.074677 -1.9488642 290.76999
-1.793164 -4.7279935 -2.1121178 290.76999
-1.924482 -5.0742364 -2.1191435 290.76999
-2.0680339 -5.4527369 -2.122577 290.76999
-2.2341125 -5.8906322 -2.128778 290.76999
-2.422446 -6.3872066 -2.1315916 290.76999
-2.654093 -6.9979844 -2.1461124 290.76999
-2.9159851 -7.6885099 -2.1526372 290.76999
-3.2470469 -8.5614128 -2.1695626 290.76999
-3.6303225 -9.5719862 -2.1760037 290.76999
-4.1497722 -10.941607 -2.2047911 290.76999
-4.9105911 -12.82597 -2.2563934 290.95001
-5.9300218 -15.488621 -2.3308711 290.95001
-7.5437365 -19.703482 -2.4672732 290.95001
-9.9447031 -25.974566 -2.5948434 290.95001
-13.367733 -34.915176 -2.6143332 290.95001
-1.6952668 -4.4278669 -2.1109631 290.95001
-14.959496 -39.072704 -1.9511002 290.95001
-1.8113078 -4.7309542 -2.115972 290.95001
-1.9364169 -5.0577264 -2.1147785 290.95001
-2.0851541 -5.4462128 -2.122577 290.95001
-2.25193 -5.881815 -2.1281378 290.95001
-2.4404521 -6.3742156 -2.1298044 290.95001
-2.6760647 -6.9896121 -2.1461124 290.95001
-2.940125 -7.6793108 -2.1526372 290.95001
-3.2753191 -8.5548038 -2.1704848 290.95001
-3.6610754 -9.5623608 -2.1764195 290.95001
-4.1827202 -10.924845 -2.2040505 290.95001
-4.9499426 -12.821413 -2.2580144 291.10999
-5.9789577 -15.486782 -2.3330979 291.10999
-7.6151843 -19.72496 -2.472616 291.10999
-10.034411 -25.991278 -2.5993021 291.10999
-13.450092 -34.838623 -2.6114035 291.10999
-1.7082833 -4.4248199 -2.1117766 291.10999
-15.087258 -39.079235 -1.9535226 291.10999
-1.8251767 -4.7275991 -2.1167428 291.10999
-1.9532171 -5.0592513 -2.1176884 291.10999
-2.1010315 -5.442122 -2.123261 291.10999
-2.269711 -5.8790383 -2.1294181 291.10999
-2.4596181 -6.3709378 -2.130996 291.10999
-2.6948805 -6.9803181 -2.1455612 291.10999
-2.9643455 -7.6782904 -2.1546633 291.10999
-3.2998967 -8.5474396 -2.1709459 291.10999
-3.689878 -9.5575752 -2.1776671 291.10999
-4.2181668 -10.925957 -2.2066426 291.10999
-4.996017 -12.814121 -2.2596357 291.29999
-6.0338778 -15.476096 -2.3344896 291.29999
-7.6827178 -19.705153 -2.4733129 291.29999
-10.137907 -26.002388 -2.603761 291.29999
-13.534384 -34.713898 -2.6054044 291.29999
-1.7229471 -4.4191308 -2.1117766 291.29999
-15.236361 -39.079243 -1.9560381 291.29999
-1.8388329 -4.7163625 -2.1144302 291.29999
-1.971337 -5.0562177 -2.1191435 291.29999
-2.1190667 -5.4351249 -2.123261 291.29999
-2.2871294 -5.8661838 -2.1274974 291.29999
-2.4807312 -6.3627467 -2.130996 291.29999
-2.7194099 -6.9749255 -2.1466637 291.29999
-2.9904943 -7.6702209 -2.1551697 291.29999
-3.3289299 -8.5382633 -2.1714072 291.29999
-3.7215517 -9.5452862 -2.1776671 291.29999
-4.2536612 -10.910077 -2.2062724 291.29999
-5.0369048 -12.806588 -2.2609327 291.47
-6.0855689 -15.47287 -2.3367164 291.47
-7.7484207 -19.700756 -2.475636 291.47
-10.212098 -25.964781 -2.6030178 291.47
-13.657769 -34.725578 -2.6093106 291.47
-1.7367201 -4.4156995 -2.1125901 291.47
-15.369062 -39.076626 -1.9581809 291.47
-1.8501166 -4.7040162 -2.111347 291.47
-1.9863303 -5.0503464 -2.1191435 291.47
-2.1344957 -5.4270644 -2.122577 291.47
-2.3052182 -5.861135 -2.1281378 291.47
-2.5009966 -6.3589115 -2.1321874 291.47
-2.7407966 -6.9686155 -2.1472149 291.47
-3.0132389 -7.661314 -2.1551697 291.47
-3.3556733 -8.531971 -2.1723294 291.47
-3.7505727 -9.5360231 -2.1780829 291.47
-4.2874522 -10.901067 -2.2070129 291.47
-5.0814304 -12.808097 -2.2638509 291.64001
-6.1394849 -15.474997 -2.3397782 291.64001
-7.8258862 -19.725687 -2.4816759 291.64001
-10.312592 -25.993599 -2.6089628 291.64001
-13.703353 -34.540249 -2.5984287 291.64001
-1.7504878 -4.4122252 -2.1134036 291.64001
-15.51367 -39.103279 -1.9618144 291.64001
-1.8667878 -4.7053676 -2.1144302 291.64001
-12.752441 -32.14341 -0.80286139 291.64001
-2.0006192 -5.0426989 -2.1184161 291.64001
-12.774317 -32.198547 0 291.64001
-2.1505888 -5.4207077 -2.122577 291.64001
-2.3246944 -5.8595533 -2.1300585 291.64001
-2.521261 -6.3550124 -2.133379 291.64001
-2.7621698 -6.9622397 -2.1477664 291.64001
-3.0366707 -7.6541386 -2.1556764 291.64001
-3.3809733 -8.5219765 -2.1723294 291.64001
-3.7795715 -9.5266714 -2.1784987 291.64001
-4.3190527 -10.886471 -2.2066426 291.64001
-5.1267781 -12.804894 -2.2661207 291.82001
-6.1939602 -15.470341 -2.342005 291.82001
-7.9003696 -19.732355 -2.485625 291.82001
-10.400863 -25.977711 -2.610635 291.82001
-13.756921 -34.359966 -2.5881047 291.82001
-1.7650197 -4.4084005 -2.114217 291.82001
-15.644608 -39.074749 -1.9628392 291.82001
-1.879503 -4.6943398 -2.1121178 291.82001
-2.0185287 -5.0415773 -2.1205986 291.82001
-12.833035 -32.052425 0 291.82001
-2.1683064 -5.4156694 -2.123261 291.82001
-2.3416829 -5.8487029 -2.128778 291.82001
-2.5383747 -6.3399706 -2.130996 291.82001
-2.7847433 -6.9553127 -2.1483176 291.82001
-3.0621402 -7.6481528 -2.1566894 291.82001
-3.4062824 -8.5077 -2.1714072 291.82001
-3.8131175 -9.5238314 -2.1805778 291.82001
-4.3619986 -10.894743 -2.2110863 291.82001
-5.1654706 -12.797849 -2.2674174 291.98001
-6.2445498 -15.47135 -2.3447883 291.98001
-7.9606466 -19.72311 -2.487251 291.98001
-10.491999 -25.99473 -2.6152794 291.98001
-13.769182 -34.114204 -2.5724792 291.98001
-1.7752718 -4.3983717 -2.1117766 291.98001
-15.782079 -39.101307 -1.9663796 291.98001
-1.8939862 -4.6924958 -2.1136594 291.98001
-2.0325997 -5.0359211 -2.1205986 291.98001
-2.1841247 -5.4113359 -2.123945 291.98001
-2.3594246 -5.845655 -2.1300585 291.98001
-2.5625007 -6.3487911 -2.1363578 291.98001
-2.8048749 -6.9492917 -2.1488688 291.98001
-3.0820377 -7.6359839 -2.1556764 291.98001
-3.430027 -8.4981546 -2.1714072 291.98001
-3.8396981 -9.5131454 -2.1805778 291.98001
-4.390934 -10.878875 -2.2103457 291.98001
-5.207139 -12.797998 -2.2700114 292.14001
-6.2937007 -15.468528 -2.3470151 292.14001
-8.0299168 -19.735764 -2.4916649 292.14001
-10.576557 -25.994843 -2.618252 292.14001
-13.808753 -33.938866 -2.5621552 292.14001
-1.7875475 -4.3933969 -2.1117766 292.14001
-1.9084737 -4.6906071 -2.1152012 292.14001
-26.052103 -64.030319 -1.6049336 292.14001
-2.043144 -5.0215974 -2.116961 292.14001
-26.140528 -64.247643 0 292.14001
-2.1992276 -5.4052157 -2.123945 292.14001
-2.3764536 -5.8407984 -2.1306987 292.14001
-2.5759027 -6.3309999 -2.1327832 292.14001
-2.8235455 -6.939651 -2.1483176 292.14001
-3.1062658 -7.6345158 -2.1577024 292.14001
-3.4574122 -8.4975557 -2.1737127 292.14001
-3.8662488 -9.5023861 -2.1805778 292.14001
-4.4235187 -10.872032 -2.2114565 292.14001
-5.2555485 -12.795264 -2.2726054 292.32999
-6.3524866 -15.465892 -2.3497987 292.32999
-8.1111679 -19.747614 -2.4965432 292.32999
-10.654378 -25.939363 -2.6162086 292.32999
-13.8295 -33.669579 -2.5452743 292.32999
-1.8041892 -4.3925152 -2.114217 292.32999
-1.9240179 -4.6842527 -2.1152012 292.32999
-26.226307 -63.851097 -1.6026125 292.32999
-2.060493 -5.0165176 -2.1176884 292.32999
-26.281248 -63.984856 0 292.32999
-2.2171397 -5.397893 -2.123945 292.32999
-26.366089 -64.191406 1.6111541 292.32999
-2.3958094 -5.8328857 -2.1306987 292.32999
-2.5961576 -6.3206573 -2.1321874 292.32999
-2.8458121 -6.9284716 -2.1477664 292.32999
-3.1293604 -7.618804 -2.1561828 292.32999
-3.4863114 -8.4878445 -2.1741738 292.32999
-3.8992252 -9.4931326 -2.1814094 292.32999
-4.459547 -10.857304 -2.2114565 292.32999
-5.2950339 -12.789656 -2.2742267 292.48999
-6.3979235 -15.453582 -2.3506336 292.48999
-8.1784401 -19.754253 -2.5002599 292.48999
-10.747339 -25.959187 -2.6212246 292.48999
-13.8586 -33.47414 -2.5334156 292.48999
-1.8171473 -4.3891482 -2.1150305 292.48999
-1.9392091 -4.6839771 -2.1175137 292.48999
-26.435869 -63.853352 -1.6045158 292.48999
-2.0744936 -5.0107441 -2.1176884 292.48999
-26.446053 -63.877953 0 292.48999
-2.230767 -5.3882074 -2.122577 292.48999
-26.530708 -64.082428 1.610272 292.48999
-2.4113636 -5.8244219 -2.1300585 292.48999
-2.6152585 -6.3169107 -2.133379 292.48999
-2.8680906 -6.9276028 -2.1499715 292.48999
-3.1535842 -7.6171861 -2.1582088 292.48999
-3.5129781 -8.4852676 -2.1760182 292.48999
-3.9279647 -9.4876289 -2.182657 292.48999
-4.4875937 -10.839359 -2.2103457 292.48999
-5.3359995 -12.781174 -2.2755237 292.66
-6.4544291 -15.460118 -2.3545306 292.66
-8.2385473 -19.733566 -2.5007246 292.66
-10.833521 -25.949236 -2.6234541 292.66
-13.891754 -33.27454 -2.5214176 292.66
-1.8301622 -4.3837371 -2.1150305 292.66
-1.9538091 -4.6799054 -2.1182845 292.66
-26.686834 -63.922245 -1.6082295 292.66
-2.0907872 -5.0080051 -2.1191435 292.66
-26.669369 -63.880409 0 292.66
-2.2481923 -5.3850336 -2.123945 292.66
-2.4308245 -5.8224874 -2.1319792 292.66
-2.6354606 -6.3126469 -2.1345704 292.66
-2.8871512 -6.915514 -2.1488688 292.66
-3.1754258 -7.6060104 -2.1577024 292.66
-3.5388887 -8.4766035 -2.1764793 292.66
-3.9568515 -9.4777384 -2.1830728 292.66
-4.5220065 -10.831438 -2.2114565 292.66
-5.3829522 -12.774321 -2.2774689 292.85001
-6.5102758 -15.44958 -2.3562007 292.85001
-8.3309393 -19.770208 -2.5088551 292.85001
-10.897861 -25.861786 -2.618252 292.85001
-13.933067 -33.064659 -2.5090008 292.85001
-1.8418511 -4.3709092 -2.1117766 292.85001
-1.9671676 -4.6682987 -2.115972 292.85001
-2.1088297 -5.004478 -2.1205986 292.85001
-2.2660375 -5.3775487 -2.123945 292.85001
-2.4523265 -5.8196325 -2.1338999 292.85001
-2.6563797 -6.3038726 -2.1345704 292.85001
-2.9108145 -6.9076738 -2.14942 292.85001
-3.2006307 -7.5954385 -2.1577024 292.85001
-3.5639558 -8.4576473 -2.1746349 292.85001
-3.9890187 -9.4663677 -2.1834886 292.85001
-4.5647688 -10.832684 -2.2147894 292.85001
-5.4293199 -12.778273 -2.2810357 293.01999
-6.5638318 -15.448424 -2.358984 293.01999
-8.3895617 -19.745401 -2.5088551 293.01999
-10.962086 -25.800013 -2.6152794 293.01999
-14.020968 -32.999302 -2.5071871 293.01999
-1.8569552 -4.37047 -2.114217 293.01999
-1.9802884 -4.6607432 -2.1152012 293.01999
-2.1200264 -4.9896255 -2.116961 293.01999
-2.2827179 -5.3725314 -2.124629 293.01999
-2.4688418 -5.8105869 -2.1332595 293.01999
-2.6773117 -6.3012347 -2.1363578 293.01999
-2.932049 -6.9007764 -2.1499715 293.01999
-3.2239094 -7.5876894 -2.1582088 293.01999
-3.5943618 -8.4595737 -2.1778629 293.01999
-4.0193834 -9.4598913 -2.184736 293.01999
-4.5991955 -10.824519 -2.2159002 293.01999
-5.4749813 -12.780249 -2.2842782 293.19
-6.615099 -15.441625 -2.3609326 293.19
-8.4645367 -19.758768 -2.5137334 293.19
-11.073091 -25.847916 -2.6234541 293.19
-14.14553 -33.019909 -2.5119307 293.19
-1.867756 -4.3599029 -2.1117766 293.19
-1.994835 -4.6565433 -2.115972 293.19
-2.1384895 -4.9918756 -2.1205986 293.19
-2.2986484 -5.3657351 -2.124629 293.19
-2.4853251 -5.8014946 -2.1326194 293.19
-2.6922371 -6.2844887 -2.133379 293.19
-2.9525111 -6.8920465 -2.1499715 293.19
-3.247932 -7.5816474 -2.1592219 293.19
-3.617147 -8.4435053 -2.1764793 293.19
-4.0466633 -9.446126 -2.1843202 293.19
-4.6351619 -10.819859 -2.2177517 293.19
-5.5167894 -12.773006 -2.2858992 293.35999
-6.6687388 -15.440111 -2.3637159 293.35999
-8.5380907 -19.768215 -2.5181472 293.35999
-11.134732 -25.780212 -2.6199241 293.35999
-14.213378 -32.908192 -2.5066292 293.35999
-1.8814083 -4.356019 -2.1125901 293.35999
-2.0093741 -4.6522985 -2.1167428 293.35999
-2.151814 -4.9820881 -2.1191435 293.35999
-2.3145587 -5.358891 -2.124629 293.35999
-2.5025277 -5.7940946 -2.1326194 293.35999
-2.7123857 -6.2799783 -2.1345704 293.35999
-2.9737093 -6.8850207 -2.1505227 293.35999
-3.2688785 -7.5684247 -2.1582088 293.35999
-3.64064 -8.429163 -2.1755571 293.35999
-4.0801024 -9.4466496 -2.1872311 293.35999
-4.6672449 -10.806058 -2.2177517 293.35999
-5.559391 -12.767438 -2.2878447 293.53
-6.7200561 -15.432967 -2.3656645 293.53
-8.6078091 -19.768293 -2.5213993 293.53
-11.21674 -25.759842 -2.6212246 293.53
-14.338834 -32.929897 -2.511512 293.53
-1.8965129 -4.355443 -2.1150305 293.53
-2.0239058 -4.6480079 -2.1175137 293.53
-2.1658428 -4.9739738 -2.1184161 293.53
-2.3319492 -5.3554463 -2.1259973 293.53
-2.5212209 -5.7901187 -2.1338999 293.53
-2.7317691 -6.2736535 -2.1351662 293.53
-2.9941247 -6.8761673 -2.1505227 293.53
-3.2913201 -7.5586925 -2.1582088 293.53
-3.6640799 -8.4147549 -2.1746349 293.53
-4.1088943 -9.4362955 -2.1876469 293.53
-4.7055635 -10.806579 -2.2207143 293.53
-5.6028008 -12.763536 -2.2901144 293.70001
-6.7737775 -15.431096 -2.3684478 293.70001
-8.6792002 -19.77177 -2.5251162 293.70001
-11.277113 -25.68998 -2.6175089 293.70001
-14.444494 -32.905476 -2.5129073 293.70001
-1.9079585 -4.3464508 -2.1134036 293.70001
-2.0369461 -4.6402926 -2.1167428 293.70001
-2.1865819 -4.9811726 -2.1242359 293.70001
-2.3455627 -5.3433409 -2.123945 293.70001
-2.5361047 -5.7774076 -2.1319792 293.70001
