# .PCD v0.7 - Point Cloud Data file format
VERSION 0.7
FIELDS x y z intensity
SIZE 4 4 4 4
TYPE F F F F
COUNT 1 1 1 1
WIDTH 1178
HEIGHT 1
VIEWPOINT 0 0 0 1 0 0 0
POINTS 1178
DATA ascii
-0.15853497 15.660474 -1.8314642 89.419998
-0.19315334 19.08016 -1.7801811 89.419998
-0.25344157 25.03558 -1.7507479 89.419998
-0.045941979 4.5382614 -2.0206676 89.419998
-0.29247218 28.891119 -1.3473791 89.419998
-0.048945028 4.8349099 -2.0196164 89.419998
-0.37166747 36.714226 -0.85243964 89.419998
-0.052181959 5.1546617 -2.0129316 89.419998
-0.37280014 36.826115 0 89.419998
-0.055875022 5.5194716 -2.0090263 89.419998
-0.56131643 55.448215 1.2874099 89.419998
-0.060033765 5.9302826 -2.0039322 89.419998
-0.56055486 55.372982 2.5823989 89.419998
-0.064840168 6.4050713 -1.9987395 89.419998
-0.56052411 55.369949 3.8720424 89.419998
-0.070391156 6.9534106 -1.9939606 89.419998
-0.5608744 55.404549 5.1692505 89.419998
-0.076833844 7.5898352 -1.9870108 89.419998
-0.56018102 55.336056 6.4714522 89.419998
-0.084552512 8.3523045 -1.9791207 89.419998
-0.55939174 55.258087 7.7664156 89.419998
-0.093252614 9.2117224 -1.9581124 89.419998
-0.56033301 55.351067 9.0943127 89.419998
-0.10439131 10.312029 -1.9429861 89.419998
-0.58878529 58.161652 10.958782 89.419998
-0.082033083 11.750182 -1.9305311 89.599998
-0.093578689 13.403942 -1.8838471 89.599998
-0.10933544 15.660894 -1.8314642 89.599998
-0.13330771 19.094612 -1.7814815 89.599998
-0.17481671 25.040243 -1.751027 89.599998
-0.031709917 4.5420375 -2.0222945 89.599998
-0.20179045 28.903883 -1.3479381 89.599998
-0.033729728 4.8313489 -2.0180745 89.599998
-0.25640845 36.727207 -0.85271817 89.599998
-0.036000885 5.1566634 -2.0136592 89.599998
-0.2573851 36.8671 0 89.599998
-0.038521722 5.5177407 -2.0083423 89.599998
-0.38718805 55.459702 1.287642 89.599998
-0.041442651 5.9361262 -2.0058529 89.599998
-0.38671854 55.392448 2.5832374 89.599998
-0.044651117 6.3956976 -1.9957608 89.599998
-0.38653004 55.365452 3.8716238 89.599998
-0.048546057 6.9535975 -1.9939606 89.599998
-0.38696632 55.427944 5.1712942 89.599998
-0.052975822 7.5881047 -1.9865043 89.599998
-0.38646004 55.355423 6.4735432 89.599998
-0.058326185 8.354475 -1.9795818 89.599998
-0.38597062 55.28532 7.7700343 89.599998
-0.064353697 9.2178383 -1.9593598 89.599998
-0.38649511 55.360451 9.0956097 89.599998
-0.072008371 10.314272 -1.9433564 89.599998
-0.40615848 58.176971 10.961374 89.599998
-0.047169279 11.750374 -1.9305311 89.769997
-0.053815987 13.406141 -1.8841255 89.769997
-0.062900119 15.669095 -1.8323934 89.769997
-0.076604389 19.082975 -1.7803668 89.769997
-0.10052016 25.040651 -1.751027 89.769997
-0.018240636 4.5439386 -2.023108 89.769997
-0.11608627 28.918339 -1.3485903 89.769997
-0.019409515 4.8351188 -2.0196164 89.769997
-0.14749987 36.743801 -0.85308951 89.769997
-0.020700622 5.1567473 -2.0136592 89.769997
-0.1476761 36.787704 0 89.769997
-0.0221652 5.5215893 -2.0097103 89.769997
-0.22273868 55.486599 1.2882456 89.769997
-0.023822049 5.9343281 -2.0052128 89.769997
-0.22243655 55.411335 2.5840759 89.769997
-0.025720516 6.4072571 -1.9993353 89.769997
-0.22237612 55.396282 3.8737166 89.769997
-0.027906418 6.9517884 -1.9934094 89.769997
-0.22255482 55.440796 5.1724086 89.769997
-0.030492332 7.5959673 -1.9885304 89.769997
-0.22230344 55.378174 6.4760985 89.769997
-0.033529926 8.3526649 -1.9791207 89.769997
-0.22228412 55.373363 7.7822814 89.769997
-0.03701143 9.219945 -1.9597756 89.769997
-0.22237058 55.394901 9.1011219 89.769997
-0.04137348 10.306578 -1.9418752 89.769997
-0.23381853 58.246712 10.974335 89.769997
-0.010255939 11.752438 -1.9308554 89.949997
-0.011704343 13.412186 -1.8849605 89.949997
-0.013677441 15.673189 -1.832858 89.949997
-0.016663598 19.09507 -1.7814815 89.949997
-0.021887084 25.080746 -1.7538173 89.949997
-0.0039669601 4.5458007 -2.0239215 89.949997
-0.025262363 28.948528 -1.3499877 89.949997
-0.0042114183 4.8259287 -2.0157621 89.949997
-0.032079231 36.760078 -0.85346091 89.949997
-0.0044968952 5.1530609 -2.0122042 89.949997
-0.032140233 36.829987 0 89.949997
-0.0048201741 5.5235109 -2.0103943 89.949997
-0.048418086 55.483028 1.2881527 89.949997
-0.0051787193 5.9343739 -2.0052128 89.949997
-0.048373327 55.431736 2.5850074 89.949997
-0.0055914307 6.4073062 -1.9993353 89.949997
-0.048361909 55.418652 3.8752511 89.949997
-0.0060666283 6.9518418 -1.9934094 89.949997
-0.04838508 55.445202 5.1727805 89.949997
-0.0066186539 7.5844169 -1.9854914 89.949997
-0.048337359 55.390518 6.4774923 89.949997
-0.007289133 8.3527288 -1.9791207 89.949997
-0.048307203 55.355965 7.7797766 89.949997
-0.0080511048 9.2258844 -1.9610231 89.949997
-0.04833122 55.383488 9.0991764 89.949997
-0.0089959726 10.308622 -1.9422455 89.949997
-0.051957101 59.538437 11.217625 89.949997
0.020504981 11.748477 -1.9302069 90.099998
0.023422504 13.420093 -1.8860738 90.099998
0.027354872 15.673171 -1.832858 90.099998
0.033344559 19.105005 -1.7824105 90.099998
0.043732367 25.056776 -1.7521431 90.099998
0.0079179732 4.5366597 -2.0198541 90.099998
0.050392207 28.872578 -1.3464473 90.099998
0.0084131705 4.8203864 -2.0134494 90.099998
0.064165413 36.764038 -0.85355377 90.099998
0.0089970389 5.1549182 -2.0129316 90.099998
0.064301386 36.841946 0 90.099998
0.0096272239 5.5159874 -2.0076582 90.099998
0.096912913 55.526951 1.289174 90.099998
0.010370662 5.941946 -2.0077736 90.099998
0.096777998 55.449654 2.5858459 90.099998
0.011189521 6.4111171 -2.0005269 90.099998
0.096737713 55.426571 3.8758092 90.099998
0.012136607 6.9537563 -1.9939606 90.099998
0.096822254 55.47501 5.1755672 90.099998
0.013247434 7.5902128 -1.9870108 90.099998
0.096719749 55.416279 6.4805121 90.099998
0.014581657 8.3546658 -1.9795818 90.099998
0.096638568 55.369766 7.7817249 90.099998
0.01609879 9.223918 -1.9606073 90.099998
0.096707188 55.409081 9.1033916 90.099998
0.017981648 10.302714 -1.9411346 90.099998
0.10394504 59.556057 11.220958 90.099998
0.059534147 11.762159 -1.9324765 90.290001
0.067945056 13.423902 -1.8866305 90.290001
0.079358995 15.678953 -1.8335549 90.290001
0.096749254 19.114746 -1.7833394 90.290001
0.12693447 25.07844 -1.7536777 90.290001
0.02298978 4.5420899 -2.0222945 90.290001
0.14531779 28.71043 -1.3389008 90.290001
0.024426123 4.8258686 -2.0157621 90.290001
0.18615997 36.779617 -0.85392511 90.290001
0.026110172 5.158586 -2.0143867 90.290001
0.18678713 36.903526 0 90.290001
0.027947381 5.5215631 -2.0097103 90.290001
0.28108686 55.534325 1.2893597 90.290001
0.030046038 5.9361944 -2.0058529 90.290001
0.28071582 55.461014 2.586405 90.290001
0.032391511 6.3995895 -1.9969523 90.290001
0.28062919 55.443901 3.8770647 90.290001
0.035186298 6.9517555 -1.9934094 90.290001
0.28083387 55.484341 5.176496 90.290001
0.038397826 7.5862575 -1.9859979 90.290001
0.2805365 55.425587 6.4816737 90.290001
0.042296495 8.3565178 -1.9800429 90.290001
0.28044125 55.406769 7.7870135 90.290001
0.04666651 9.2199011 -1.9597756 90.290001
0.28061959 55.442005 9.1089029 90.290001
0.052236114 10.320287 -1.9444673 90.290001
0.30150911 59.569145 11.22355 90.290001
0.094321951 11.748116 -1.9302069 90.459999
0.10779011 13.425622 -1.8869089 90.459999
0.12587896 15.678649 -1.8335549 90.459999
0.15339939 19.106411 -1.7825962 90.459999
0.20137507 25.081942 -1.7539568 90.459999
0.036510315 4.5474825 -2.024735 90.459999
0.23085545 28.753824 -1.3409505 90.459999
0.038744636 4.8257747 -2.0157621 90.459999
0.29531839 36.782902 -0.85401797 90.459999
0.041400909 5.1566229 -2.0136592 90.459999
0.29642564 36.920811 0 90.459999
0.044314954 5.5195765 -2.0090263 90.459999
0.44595537 55.545242 1.2896382 90.459999
0.04764371 5.9341846 -2.0052128 90.459999
0.44543087 55.479916 2.5873368 90.459999
0.051440619 6.4071021 -1.9993353 90.459999
0.44526121 55.458782 3.878181 90.459999
0.055843256 6.9554653 -1.994512 90.459999
0.44563362 55.505169 5.1785398 90.459999
0.060937572 7.5899796 -1.9870108 90.459999
0.44514552 55.444374 6.4839964 90.459999
0.067137435 8.3621931 -1.9814262 90.459999
0.44488266 55.411636 7.7878485 90.459999
0.074085087 9.2275467 -1.9614389 90.459999
0.44537136 55.472504 9.1140909 90.459999
0.082809411 10.314191 -1.9433564 90.459999
0.47834739 59.579781 11.225772 90.459999
0.12926565 11.755678 -1.9315038 90.629997
0.14764598 13.427223 -1.8871872 90.629997
0.17241967 15.680193 -1.8337872 90.629997
0.21000092 19.097906 -1.7818531 90.629997
0.27583757 25.085224 -1.7542357 90.629997
0.04994252 4.5418735 -2.0222945 90.629997
0.31572929 28.713058 -1.3390871 90.629997
0.053042516 4.8237934 -2.0149913 90.629997
0.40456393 36.791859 -0.85425007 90.629997
0.056721199 5.15834 -2.0143867 90.629997
0.40575051 36.899769 0 90.629997
0.060712311 5.5212998 -2.0097103 90.629997
0.611045 55.569664 1.2902416 90.629997
0.065250553 5.9340172 -2.0052128 90.629997
0.61048025 55.518303 2.5892 90.629997
0.070471607 6.4088302 -1.999931 90.629997
0.61015952 55.48914 3.8804131 90.629997
0.076480262 6.9552693 -1.994512 90.629997
0.61047184 55.51754 5.1798401 90.629997
0.083457194 7.5897655 -1.9870108 90.629997
0.60997772 55.472603 6.4874811 90.629997
0.091948226 8.3619576 -1.9814262 90.629997
0.60961676 55.439777 7.7920237 90.629997
0.10139888 9.2214184 -1.9601914 90.629997
0.61004621 55.478832 9.1153879 90.629997
0.11339021 10.311934 -1.9429861 90.629997
0.65527308 59.591854 11.228364 90.629997
0.16639179 11.769028 -1.9337735 90.809998
0.18985605 13.428674 -1.8874656 90.809998
0.22159527 15.673615 -1.8330903 90.809998
0.27036357 19.123037 -1.7842683 90.809998
0.35503849 25.112164 -1.756189 90.809998
0.064236797 4.5435209 -2.023108 90.809998
0.40646893 28.74988 -1.3408574 90.809998
0.068222709 4.825448 -2.0157621 90.809998
0.5205425 36.818398 -0.8549 90.809998
0.072952636 5.1599994 -2.0151141 90.809998
0.52294469 36.988304 0 90.809998
0.078110799 5.5248404 -2.0110784 90.809998
0.78607118 55.599461 1.2909844 90.809998
0.083946042 5.937572 -2.0064933 90.809998
0.78500581 55.524101 2.5895727 90.809998
0.090578176 6.4066682 -1.9993353 90.809998
0.78490359 55.516872 3.8825059 90.809998
0.098303288 6.9530721 -1.9939606 90.809998
0.78510725 55.531277 5.1813264 90.809998
0.10735539 7.5933352 -1.9880239 90.809998
0.78449947 55.488289 6.4895716 90.809998
0.11816257 8.3577356 -1.980504 90.809998
0.78462261 55.496998 7.800374 90.809998
0.13042358 9.224966 -1.9610231 90.809998
0.78453004 55.490452 9.1176577 90.809998
0.14572991 10.307596 -1.9422455 90.809998
0.84284407 59.615051 11.233177 90.809998
0.20127667 11.766509 -1.9334493 90.980003
0.22969884 13.428051 -1.8874656 90.980003
0.26816672 15.676861 -1.8335549 90.980003
0.32682905 19.106222 -1.782782 90.980003
0.42954612 25.110998 -1.756189 90.980003
0.077811137 4.5487909 -2.0255485 90.980003
0.49207714 28.766523 -1.3416959 90.980003
0.082508214 4.823379 -2.0149913 90.980003
0.62981665 36.818691 -0.85494637 90.980003
0.088230453 5.1578975 -2.0143867 90.980003
0.63176513 36.932598 0 90.980003
0.094374381 5.5170679 -2.0083423 90.980003
0.9512738 55.610878 1.2913094 90.980003
0.10146555 5.9316134 -2.0045726 90.980003
0.95005298 55.539509 2.5904112 90.980003
0.10948876 6.4006443 -1.997548 90.980003
0.94972414 55.520283 3.8829243 90.980003
0.11893301 6.9527497 -1.9939606 90.980003
0.95051527 55.566532 5.1848564 90.980003
0.12988476 7.5929832 -1.9880239 90.980003
0.94943863 55.503593 6.4916625 90.980003
0.1429932 8.3592939 -1.9809651 90.980003
0.94955283 55.510269 7.8026009 90.980003
0.15766016 9.2167149 -1.9593598 90.980003
0.94974369 55.521427 9.1231699 90.980003
0.17637973 10.311049 -1.9429861 90.980003
1.0238562 59.854 11.278725 90.980003
0.23622727 11.767834 -1.9337735 91.150002
0.26973835 13.437211 -1.8888574 91.150002
0.31515807 15.699829 -1.8363426 91.150002
0.38371664 19.115124 -1.783711 91.150002
0.50429016 25.121582 -1.7570261 91.150002
0.091123961 4.5394063 -2.021481 91.150002
0.57746696 28.766935 -1.341789 91.150002
0.097041316 4.8341837 -2.0196164 91.150002
0.73949838 36.83865 -0.85545707 91.150002
0.10353383 5.1576128 -2.0143867 91.150002
0.74238706 36.982548 0 91.150002
0.11081886 5.5205216 -2.0097103 91.150002
1.1167116 55.629799 1.2918199 91.150002
0.11917862 5.9369693 -2.0064933 91.150002
1.1152385 55.556419 2.5913429 91.150002
0.12851766 6.4022002 -1.9981438 91.150002
1.1150924 55.549137 3.8851566 91.150002
0.13963886 6.9562106 -1.9950632 91.150002
1.11538 55.563469 5.1848564 91.150002
0.15225767 7.5848265 -1.9859979 91.150002
1.1147147 55.530323 6.4951472 91.150002
0.16802941 8.3705072 -1.9837319 91.150002
1.1147276 55.530968 7.8059411 91.150002
0.18508449 9.2201185 -1.9601914 91.150002
1.1143954 55.51442 9.1225214 91.150002
0.20705129 10.31441 -1.9437267 91.150002
0.26904318 11.765155 -1.9334493 91.309998
0.30730629 13.438386 -1.8891357 91.309998
0.35859025 15.681014 -1.8342519 91.309998
0.4373222 19.123932 -1.7846398 91.309998
0.57466888 25.130049 -1.7577236 91.309998
0.10384177 4.5409608 -2.0222945 91.309998
0.65692919 28.727261 -1.3400189 91.309998
0.11041394 4.8283591 -2.0173037 91.309998
0.8427797 36.854431 -0.85587484 91.309998
0.11789359 5.1554413 -2.0136592 91.309998
0.84661895 37.02232 0 91.309998
0.1263635 5.5258274 -2.0117624 91.309998
1.2723747 55.640457 1.2921449 91.309998
0.13575728 5.9366136 -2.0064933 91.309998
1.2711076 55.585045 2.5928335 91.309998
0.14643909 6.4037251 -1.9987395 91.309998
1.270484 55.557774 3.8859937 91.309998
0.15901974 6.9538717 -1.994512 91.309998
1.2712209 55.59 5.1876431 91.309998
0.17361481 7.5921092 -1.9880239 91.309998
1.2703705 55.552811 6.498167 91.309998
0.19122562 8.3622227 -1.9818875 91.309998
1.2699307 55.533577 7.806776 91.309998
0.2109206 9.2234764 -1.9610231 91.309998
1.2699578 55.534767 9.1264124 91.309998
0.23576385 10.309862 -1.9429861 91.309998
0.3059518 11.762279 -1.933125 91.489998
0.34947112 13.435374 -1.8888574 91.489998
0.40805838 15.687753 -1.835181 91.489998
0.49771023 19.134407 -1.7857546 91.489998
0.65376991 25.134104 -1.7581421 91.489998
0.11805958 4.5387859 -2.021481 91.489998
0.74805832 28.759008 -1.3416027 91.489998
0.12543814 4.8224535 -2.0149913 91.489998
0.95886886 36.863594 -0.85615337 91.489998
0.13408928 5.1550455 -2.0136592 91.489998
0.95943934 36.885525 0 91.489998
0.14362501 5.5216455 -2.0103943 91.489998
0.96001267 36.907566 0.85717463 91.489998
0.15450554 5.9399457 -2.0077736 91.489998
1.4461422 55.596752 2.5935788 91.489998
0.16655624 6.4032335 -1.9987395 91.489998
1.446003 55.591404 3.8886445 91.489998
0.18071517 6.9475722 -1.9928581 91.489998
1.4465286 55.61161 5.1900582 91.489998
0.19736461 7.5876579 -1.9870108 91.489998
1.4455597 55.574364 6.5011868 91.489998
0.21749534 8.3615808 -1.9818875 91.489998
1.4438215 55.507538 7.8037143 91.489998
0.23979419 9.2188578 -1.9601914 91.489998
1.4446242 55.538395 9.1277094 91.489998
0.26830533 10.314965 -1.944097 91.489998
0.34342015 11.779014 -1.9360431 91.669998
0.39202413 13.446088 -1.8905274 91.669998
0.45768815 15.698307 -1.8365748 91.669998
0.55776215 19.130758 -1.7855688 91.669998
0.73348355 25.15785 -1.7599559 91.669998
0.13253097 4.5456977 -2.024735 91.669998
0.83735555 28.72057 -1.3399256 91.669998
0.14085659 4.8312593 -2.0188453 91.669998
1.0751405 36.876389 -0.85652477 91.669998
0.15033793 5.1564608 -2.0143867 91.669998
1.0789857 37.008274 0 91.669998
0.16086149 5.5174098 -2.0090263 91.669998
1.6236947 55.691322 1.2935376 91.669998
0.17316563 5.9394312 -2.0077736 91.669998
1.6213793 55.611904 2.5945106 91.669998
0.18644917 6.3950453 -1.9963565 91.669998
1.6210481 55.600544 3.889621 91.669998
0.20282082 6.9565787 -1.9956144 91.669998
1.6218686 55.628689 5.192102 91.669998
0.2213137 7.5908685 -1.9880239 91.669998
1.6204916 55.581459 6.5025806 91.669998
0.24364947 8.356966 -1.9809651 91.669998
1.6200432 55.566078 7.8126211 91.669998
0.26898289 9.2258806 -1.9618547 91.669998
1.6197859 55.557255 9.1316004 91.669998
0.30082393 10.318 -1.9448376 91.669998
0.37624896 11.776036 -1.9357189 91.830002
0.42957112 13.444941 -1.8905274 91.830002
0.50133395 15.691011 -1.8358779 91.830002
0.61162823 19.143059 -1.7868693 91.830002
0.804308 25.173651 -1.7612114 91.830002
0.14522442 4.54531 -2.024735 91.830002
0.91366339 28.596313 -1.3342425 91.830002
0.15434745 4.8308473 -2.0188453 91.830002
1.1782422 36.877239 -0.85661757 91.830002
0.1646774 5.1541591 -2.0136592 91.830002
1.182328 37.005116 0 91.830002
0.17626837 5.5169392 -2.0090263 91.830002
1.7798462 55.706554 1.2940018 91.830002
0.18962994 5.9351368 -2.0064933 91.830002
1.7781379 55.653088 2.5966535 91.830002
0.20448966 6.4002242 -1.9981438 91.830002
1.7776456 55.637676 3.8925507 91.830002
0.22224644 6.9559851 -1.9956144 91.830002
1.7782241 55.655788 5.1950746 91.830002
0.24244873 7.5882869 -1.9875174 91.830002
1.7767128 55.608486 6.5062976 91.830002
0.26710984 8.3601427 -1.9818875 91.830002
1.7759022 55.583111 7.8156829 91.830002
0.29462039 9.2211828 -1.9610231 91.830002
1.776311 55.595909 9.1387339 91.830002
0.32963601 10.31712 -1.9448376 91.830002
0.41550633 11.780641 -1.9366916 92.019997
0.47429341 13.447401 -1.8910841 92.019997
0.55371457 15.699189 -1.8370395 92.019997
0.67440361 19.121025 -1.7850114 92.019997
0.88841534 25.188791 -1.762467 92.019997
0.16029643 4.5448031 -2.024735 92.019997
1.0094026 28.619083 -1.3354536 92.019997
0.17030121 4.8284645 -2.0180745 92.019997
1.3013003 36.895111 -0.8571282 92.019997
0.18163696 5.1498609 -2.0122042 92.019997
1.3079957 37.084942 0 92.019997
0.19462848 5.5182028 -2.0097103 92.019997
1.9654822 55.726322 1.2946053 92.019997
0.2093773 5.9363689 -2.0071335 92.019997
1.963948 55.682823 2.5983303 92.019997
0.22571245 6.3995109 -1.9981438 92.019997
1.9628402 55.651417 3.8939459 92.019997
0.24524434 6.9532886 -1.9950632 92.019997
1.9635477 55.671474 5.1971178 92.019997
0.26781565 7.5932422 -1.9890369 92.019997
1.9618076 55.622139 6.5086207 92.019997
0.2948316 8.359211 -1.9818875 92.019997
1.9621673 55.632336 7.8234768 92.019997
0.32519731 9.2201548 -1.9610231 92.019997
1.9609421 55.597603 9.1400309 92.019997
0.36419338 10.325791 -1.9466891 92.019997
0.45053372 11.781328 -1.9370159 92.190002
0.51441753 13.451872 -1.8919191 92.190002
0.60067207 15.707402 -1.8382009 92.190002
0.73181862 19.136848 -1.7866834 92.190002
0.9636054 25.198006 -1.7633041 92.190002
0.17371057 4.5424819 -2.0239215 92.190002
1.0956868 28.651896 -1.3371307 92.190002
0.18448575 4.8242497 -2.0165329 92.190002
1.4112228 36.903076 -0.85740674 92.190002
0.19698727 5.1511607 -2.0129316 92.190002
1.4209272 37.156841 0 92.190002
0.21107224 5.5194788 -2.0103943 92.190002
2.1317334 55.744221 1.2951623 92.190002
0.22677271 5.9300413 -2.0052128 92.190002
2.1302221 55.7047 2.5996346 92.190002
0.24455324 6.3949976 -1.9969523 92.190002
2.1286385 55.663292 3.8952014 92.190002
0.26587406 6.9525304 -1.9950632 92.190002
2.1294804 55.685303 5.198976 92.190002
0.29027012 7.5904803 -1.9885304 92.190002
2.1283512 55.655773 6.5132666 92.190002
0.31978127 8.3621893 -1.9828097 92.190002
2.1268444 55.616375 7.8220849 92.190002
0.35262734 9.2211046 -1.9614389 92.190002
2.1277802 55.640842 9.1481361 92.190002
0.39460367 10.318773 -1.9455782 92.190002
0.48565012 11.783883 -1.9376644 92.360001
0.55449086 13.454244 -1.8924758 92.360001
0.64711052 15.701581 -1.8377364 92.360001
0.78875953 19.138573 -1.787055 92.360001
1.0389402 25.20899 -1.7642807 92.360001
0.18748856 4.5492487 -2.0271754 92.360001
1.1792129 28.612589 -1.3354536 92.360001
0.19902673 4.8292127 -2.0188453 92.360001
1.5215335 36.918701 -0.85787094 92.360001
0.21257704 5.1579995 -2.0158417 92.360001
1.5272967 37.05854 0 92.360001
0.22729313 5.5150728 -2.0090263 92.360001
2.2976966 55.751637 1.2954873 92.360001
0.24467856 5.9369149 -2.0077736 92.360001
2.2960675 55.712109 2.600287 92.360001
0.26391956 6.4037814 -1.999931 92.360001
2.295182 55.690617 3.8975732 92.360001
0.28665975 6.9555526 -1.9961658 92.360001
2.2957585 55.704605 5.2013912 92.360001
0.31271055 7.5876527 -1.9880239 92.360001
2.2940481 55.663109 6.5148926 92.360001
0.34451082 8.3592587 -1.9823486 92.360001
2.2942171 55.667206 7.8301568 92.360001
0.37998533 9.2200174 -1.9614389 92.360001
2.2936728 55.654003 9.1513786 92.360001
0.42562297 10.327375 -1.9474298 92.360001
0.52087277 11.788305 -1.9386371 92.529999
0.5944953 13.454518 -1.8927542 92.529999
0.69413358 15.709515 -1.8388978 92.529999
0.84624445 19.152063 -1.7885413 92.529999
1.1144366 25.221743 -1.7653968 92.529999
0.20058234 4.539546 -2.023108 92.529999
1.2648084 28.624931 -1.336199 92.529999
0.21311 4.82307 -2.0165329 92.529999
1.6319492 36.934002 -0.8583352 92.529999
0.22788018 5.1573458 -2.0158417 92.529999
1.6340663 36.981918 0 92.529999
0.24373862 5.5162516 -2.0097103 92.529999
2.4644287 55.774536 1.2961836 92.529999
0.262209 5.9342699 -2.0071335 92.529999
2.4626813 55.734989 2.6016843 92.529999
0.28266594 6.3972483 -1.9981438 92.529999
2.4614658 55.707481 3.8992474 92.529999
0.30729601 6.9546714 -1.9961658 92.529999
2.462873 55.739326 5.2052927 92.529999
0.33522215 7.5866914 -1.9880239 92.529999
2.4604211 55.683842 6.5181451 92.529999
0.36939758 8.3601446 -1.9828097 92.529999
2.4590249 55.652241 7.8290434 92.529999
0.40768537 9.2266674 -1.9631022 92.529999
2.4590526 55.652866 9.1523514 92.529999
0.45617622 10.324103 -1.9470594 92.529999
0.55771756 11.782668 -1.9379886 92.709999
0.63685459 13.454562 -1.8930326 92.709999
0.74338907 15.705273 -1.8386656 92.709999
0.90612572 19.143343 -1.787984 92.709999
1.1940447 25.226088 -1.7659549 92.709999
0.2150155 4.5425434 -2.024735 92.709999
1.3535963 28.596869 -1.335081 92.709999
0.22878459 4.833437 -2.021158 92.709999
1.7485398 36.940674 -0.85861373 92.709999
0.24425748 5.1603265 -2.0172966 92.709999
1.7530771 37.036533 0 92.709999
0.26124492 5.5192132 -2.0110784 92.709999
2.6407714 55.790485 1.2967407 92.709999
0.28067157 5.9296317 -2.0058529 92.709999
2.6380489 55.732964 2.601964 92.709999
0.30267179 6.3944216 -1.997548 92.709999
2.6383502 55.73933 3.9020376 92.709999
0.3289614 6.949831 -1.9950632 92.709999
2.6386297 55.745239 5.206593 92.709999
0.35932919 7.5913987 -1.9895434 92.709999
2.6375988 55.723457 6.5237203 92.709999
0.39529184 8.3511667 -1.9809651 92.709999
2.6335683 55.638306 7.8282084 92.709999
0.43657726 9.2233868 -1.9626864 92.709999
2.6358385 55.686264 9.1591606 92.709999
0.48879391 10.326546 -1.9478 92.709999
0.59081638 11.785007 -1.9386371 92.870003
0.67422593 13.448775 -1.8924758 92.870003
0.78764135 15.711071 -1.8395947 92.870003
0.95858335 19.12085 -1.7861261 92.870003
1.2646843 25.226641 -1.7662339 92.870003
0.22751686 4.5382757 -2.023108 92.870003
1.4344488 28.61293 -1.3360127 92.870003
0.24200396 4.82725 -2.0188453 92.870003
1.8526918 36.955616 -0.85907793 92.870003
0.25885341 5.1633453 -2.0187516 92.870003
1.8559949 37.021507 0 92.870003
0.27646825 5.514708 -2.0097103 92.870003
2.7972581 55.796871 1.2970656 92.870003
0.29722911 5.9288249 -2.0058529 92.870003
2.7954748 55.761295 2.6036408 92.870003
0.32043159 6.3916445 -1.9969523 92.870003
2.7957914 55.767612 3.9045489 92.870003
0.34856018 6.9527254 -1.9961658 92.870003
2.7960842 55.773453 5.2099371 92.870003
0.38052693 7.5903659 -1.9895434 92.870003
2.7941923 55.735714 6.5260429 92.870003
0.41870856 8.3519735 -1.9814262 92.870003
0.46233207 9.2221317 -1.9626864 92.870003
2.7920251 55.692486 9.1614304 92.870003
0.51792437 10.33103 -1.948911 92.870003
0.62804711 11.787034 -1.9392856 93.050003
0.71678925 13.452524 -1.8933109 93.050003
0.83678377 15.704552 -1.8391302 93.050003
1.0197079 19.137629 -1.787984 93.050003
1.3446728 25.236488 -1.7672105 93.050003
0.24167591 4.5357141 -2.0222945 93.050003
1.5267767 28.654169 -1.3381555 93.050003
0.25667703 4.8172512 -2.0149913 93.050003
1.9695266 36.963593 -0.85940289 93.050003
0.27497411 5.1606464 -2.018024 93.050003
1.9747397 37.061428 0 93.050003
0.2937918 5.5138125 -2.0097103 93.050003
2.9755139 55.843716 1.2983655 93.050003
0.31575274 5.9259696 -2.0052128 93.050003
2.9720218 55.778172 2.604852 93.050003
0.34061152 6.3925128 -1.997548 93.050003
2.9719319 55.776485 3.9058044 93.050003
0.37050337 6.953516 -1.996717 93.050003
2.9730887 55.798199 5.2130952 93.050003
0.40416497 7.5852685 -1.9885304 93.050003
2.9698055 55.73658 6.5272045 93.050003
0.44525561 8.3564472 -1.9828097 93.050003
0.49140602 9.2225876 -1.9631022 93.050003
2.9689691 55.720882 9.1675911 93.050003
0.55037761 10.329351 -1.948911 93.050003
0.66346055 11.793 -1.9405825 93.220001
0.75714546 13.458248 -1.8944242 93.220001
0.88359952 15.705967 -1.8395947 93.220001
1.0764859 19.134518 -1.787984 93.220001
1.4205536 25.250317 -1.7684661 93.220001
0.25502992 4.5331526 -2.021481 93.220001
1.6097685 28.613607 -1.3364785 93.220001
0.27190191 4.8330517 -2.0219288 93.220001
2.0804265 36.979546 -0.85991353 93.220001
0.29038948 5.1616678 -2.0187516 93.220001
2.0832338 37.029446 0 93.220001
0.31036144 5.5166693 -2.0110784 93.220001
3.1414168 55.838631 1.2984582 93.220001
0.33333403 5.9250069 -2.0052128 93.220001
3.1408722 55.828949 2.6076472 93.220001
0.359148 6.3838496 -1.995165 93.220001
3.1392038 55.799294 3.9080367 93.220001
0.39091721 6.9485469 -1.9956144 93.220001
3.1387439 55.791119 5.2132812 93.220001
0.42688647 7.5878997 -1.9895434 93.220001
3.1378438 55.775124 6.5327797 93.220001
0.46982905 8.3512039 -1.9818875 93.220001
0.51887769 9.2230415 -1.963518 93.220001
3.1371653 55.763062 9.1760216 93.220001
0.58135414 10.33356 -1.9500219 93.220001
0.7007401 11.794798 -1.941231 93.400002
0.79989183 13.463711 -1.8955376 93.400002
0.93317246 15.707079 -1.8400594 93.400002
1.1365933 19.131042 -1.787984 93.400002
1.4993993 25.237762 -1.7679081 93.400002
0.26970339 4.5396247 -2.024735 93.400002
1.6976385 28.574507 -1.3348947 93.400002
0.28708401 4.8321738 -2.0219288 93.400002
2.1976578 36.990788 -0.8603313 93.400002
0.30638289 5.1570106 -2.0172966 93.400002
2.2046552 37.108566 0 93.400002
0.32713372 5.5062866 -2.0076582 93.400002
3.3187206 55.860424 1.299201 93.400002
0.35228342 5.9296045 -2.0071335 93.400002
3.3173146 55.836754 2.6084855 93.400002
0.37965456 6.3903131 -1.997548 93.400002
3.3170898 55.832973 3.9111059 93.400002
0.41285878 6.949204 -1.9961658 93.400002
3.3165991 55.824715 5.2173686 93.400002
0.45060766 7.5845895 -1.9890369 93.400002
3.314229 55.784821 6.5351028 93.400002
0.49652442 8.3574572 -1.9837319 93.400002
0.54785007 9.2213659 -1.963518 93.400002
3.3128026 55.760811 9.1773186 93.400002
0.61381507 10.331683 -1.9500219 93.400002
0.7354871 11.788728 -1.9405825 93.57
0.8399592 13.463255 -1.895816 93.57
0.97977209 15.704241 -1.8400594 93.57
1.1940951 19.139511 -1.7890986 93.57
1.5748957 25.243158 -1.7686056 93.57
0.28305775 4.5369811 -2.0239215 93.57
1.6904811 27.095814 -1.2660444 93.57
0.30073059 4.8202491 -2.0173037 93.57
2.3087714 37.006058 -0.86084193 93.57
0.3219147 5.1597977 -2.0187516 93.57
3.1237338 50.068653 0 93.57
0.34393781 5.5127945 -2.0103943 93.57
3.4833264 55.832371 1.2987832 93.57
0.3702293 5.9342065 -2.0090542 93.57
3.4845879 55.852589 2.6096966 93.57
0.39873219 6.3910637 -1.9981438 93.57
3.4838529 55.840805 3.9123616 93.57
0.43359536 6.9498672 -1.996717 93.57
3.4833355 55.832516 5.2190404 93.57
0.47286862 7.5793571 -1.9880239 93.57
3.4818337 55.808445 6.539052 93.57
0.52095574 8.3501196 -1.9823486 93.57
3.4784744 55.754597 7.8510327 93.57
0.57496434 9.2157955 -1.9626864 93.57
3.4784791 55.754673 9.1779671 93.57
0.64458942 10.331778 -1.9503921 93.57
0.76917481 11.798444 -1.942528 93.730003
0.87755239 13.460856 -1.895816 93.730003
1.0236228 15.701444 -1.8400594 93.730003
1.2470199 19.128153 -1.7883556 93.730003
1.6471988 25.266535 -1.7705588 93.730003
0.29584515 4.5379958 -2.024735 93.730003
1.7601616 26.999281 -1.2617587 93.730003
0.31407002 4.8175492 -2.0165329 93.730003
2.412883 37.011436 -0.86112046 93.730003
0.3362011 5.1570196 -2.018024 93.730003
2.4223807 37.157124 0 93.730003
0.35933107 5.5118127 -2.0103943 93.730003
2.4180861 37.091248 0.86297733 93.730003
0.38655272 5.929368 -2.0077736 93.730003
3.6435332 55.888493 2.6118395 93.730003
0.416702 6.3918309 -1.9987395 93.730003
3.6421123 55.866695 3.9148729 93.730003
0.45325145 6.952466 -1.9978195 93.730003
3.6411788 55.852379 5.221827 93.730003
0.49415818 7.5799379 -1.9885304 93.730003
3.6390882 55.820309 6.5416074 93.730003
0.54515785 8.3622265 -1.9855764 93.730003
3.637378 55.794075 7.8579917 93.730003
0.6013338 9.2239141 -1.9647654 93.730003
3.6392972 55.823517 9.1909361 93.730003
0.67420578 10.341705 -1.9526139 93.730003
0.80377537 11.790203 -1.9415553 93.900002
0.91789174 13.464122 -1.896651 93.900002
1.0708809 15.708247 -1.8412209 93.900002
1.3030914 19.114435 -1.7874266 93.900002
1.7127955 25.124191 -1.7609324 93.900002
0.3094326 4.5389209 -2.0255485 93.900002
1.8321092 26.874348 -1.2561687 93.900002
0.32899019 4.8258018 -2.0203872 93.900002
2.5241835 37.026058 -0.8616311 93.900002
0.35175419 5.1597166 -2.019479 93.900002
2.5414593 37.279472 0 93.900002
0.37529987 5.5050974 -2.0083423 93.900002
2.5248635 37.036034 0.8618632 93.900002
0.40414378 5.928195 -2.0077736 93.900002
3.8112438 55.905342 2.6131439 93.900002
0.43553525 6.3886614 -1.9981438 93.900002
3.809077 55.873558 3.9161284 93.900002
0.47374704 6.9491725 -1.9972683 93.900002
3.8091824 55.875103 5.2249856 93.900002
0.51664609 7.5784383 -1.9885304 93.900002
3.8060451 55.829082 6.5439305 93.900002
0.56930482 8.3508644 -1.9832708 93.900002
3.8064084 55.834412 7.8652287 93.900002
0.628699 9.2220898 -1.9647654 93.900002
3.8046443 55.808537 9.1902876 93.900002
0.70475358 10.337698 -1.9522437 93.900002
0.8409518 11.789588 -1.9418795 94.080002
0.96060866 13.467098 -1.8974861 94.080002
1.1200831 15.702824 -1.8409885 94.080002
1.3628513 19.106274 -1.787055 94.080002
1.8015116 25.256001 -1.7705588 94.080002
0.32330051 4.5324593 -2.023108 94.080002
1.9134011 26.824619 -1.254119 94.080002
0.34375533 4.8192225 -2.0180745 94.080002
2.6414874 37.031906 -0.86195606 94.080002
0.36729941 5.1492949 -2.0158417 94.080002
3.9928968 55.977776 0 94.080002
0.39232534 5.5001416 -2.0069742 94.080002
2.6457553 37.09174 0.86334872 94.080002
0.42290056 5.9287863 -2.008414 94.080002
3.9885621 55.917004 2.6142619 94.080002
0.45573947 6.3891659 -1.9987395 94.080002
3.9870031 55.895145 3.9185002 94.080002
0.49557614 6.94765 -1.9972683 94.080002
3.9876754 55.904572 5.2288871 94.080002
0.54058951 7.5787077 -1.9890369 94.080002
3.983397 55.844593 6.5471826 94.080002
0.59539849 8.3470936 -1.9828097 94.080002
3.9851801 55.869591 7.8719091 94.080002
0.65780705 9.2220201 -1.9651814 94.080002
3.9850078 55.867176 9.2019606 94.080002
0.73708701 10.333472 -1.9518734 94.080002
0.88136536 11.804447 -1.9447978 94.269997
1.0054094 13.465814 -1.8977644 94.269997
1.172593 15.704966 -1.8416854 94.269997
1.4276853 19.121508 -1.7889129 94.269997
1.8858478 25.257847 -1.7711169 94.269997
0.3383289 4.5313621 -2.023108 94.269997
2.0023444 26.818127 -1.254119 94.269997
0.35959715 4.8162155 -2.0173037 94.269997
2.7662103 37.048862 -0.86255956 94.269997
0.38437307 5.1480484 -2.0158417 94.269997
2.7735081 37.146603 0 94.269997
0.41126198 5.5081816 -2.0103943 94.269997
2.7668059 37.056839 0.86274523 94.269997
0.44241771 5.9254618 -2.0077736 94.269997
4.1763477 55.935349 2.6157527 94.269997
0.47749281 6.3952351 -2.0011225 94.269997
4.1748614 55.91544 3.920872 94.269997
0.51846951 6.9440513 -1.996717 94.269997
4.1739292 55.902958 5.2300019 94.269997
0.56557441 7.574944 -1.9885304 94.269997
4.1713724 55.868713 6.5515962 94.269997
0.62394458 8.3567171 -1.9855764 94.269997
4.1713133 55.86792 7.873579 94.269997
0.68794781 9.2139359 -1.9639338 94.269997
4.1723056 55.881207 9.2065001 94.269997
0.77149636 10.332932 -1.9522437 94.269997
0.91447854 11.803907 -1.9451219 94.43
1.0433149 13.466903 -1.8983212 94.43
1.2165984 15.70361 -1.8419178 94.43
1.4809231 19.115461 -1.788727 94.43
1.9568359 25.25845 -1.7715354 94.43
0.35112265 4.5322213 -2.0239215 94.43
2.0817018 26.870193 -1.2568208 94.43
0.37347278 4.8207126 -2.0196164 94.43
2.8713584 37.062923 -0.86307019 94.43
0.39874762 5.146955 -2.0158417 94.43
2.8829458 37.212494 0 94.43
0.42649692 5.5051374 -2.0097103 94.43
2.8756826 37.11874 0.86436999 94.43
0.45867026 5.9204249 -2.0064933 94.43
4.335927 55.967289 2.6178021 94.43
0.49534979 6.393877 -2.0011225 94.43
4.3348432 55.953293 3.9243598 94.43
0.53815591 6.9464097 -1.9978195 94.43
4.3329458 55.928806 5.2335315 94.43
0.58732319 7.5810513 -1.9905564 94.43
4.328445 55.870708 6.5532222 94.43
0.6466772 8.3471813 -1.9837319 94.43
4.3320518 55.917267 7.8822079 94.43
0.71443081 9.2217312 -1.966013 94.43
4.3301678 55.892948 9.210391 94.43
0.80080372 10.336616 -1.9533546 94.43
0.95203292 11.806878 -1.9460946 94.610001
1.0860949 13.469481 -1.8991561 94.610001
1.2660863 15.701692 -1.8421501 94.610001
1.5408086 19.10873 -1.7885413 94.610001
2.0368192 25.260132 -1.7720934 94.610001
0.36521244 4.5292749 -2.023108 94.610001
2.1635375 26.831659 -1.2553302 94.610001
0.38876393 4.8213549 -2.0203872 94.610001
2.9887447 37.065678 -0.86334872 94.610001
0.41446605 5.1401062 -2.0136592 94.610001
4.5163136 56.010212 0 94.610001
0.44378969 5.5037708 -2.0097103 94.610001
4.5125256 55.963234 1.3035182 94.610001
0.4777244 5.9246206 -2.008414 94.610001
4.5149431 55.993217 2.6196656 94.610001
0.51528084 6.3903861 -2.0005269 94.610001
4.5125279 55.963264 3.926034 94.610001
0.55966699 6.9408522 -1.996717 94.610001
4.5116706 55.952629 5.2370615 94.610001
0.61144781 7.5830259 -1.9915694 94.610001
4.5080976 55.908318 6.5592623 94.610001
0.6728974 8.345108 -1.9837319 94.610001
4.5089731 55.919174 7.8844347 94.610001
0.74355537 9.2213907 -1.9664288 94.610001
4.5076427 55.902676 9.214282 94.610001
0.83358908 10.337967 -1.9540952 94.610001
0.98467195 11.80024 -1.9454461 94.769997
1.1240338 13.470343 -1.8997128 94.769997
1.311085 15.711951 -1.8437762 94.769997
1.5959857 19.126181 -1.7905849 94.769997
2.1085122 25.268263 -1.7730701 94.769997
0.37831491 4.5336995 -2.0255485 94.769997
2.3886399 28.625296 -1.339553 94.769997
0.40268657 4.8257675 -2.0226996 94.769997
3.0937362 37.075119 -0.86376649 94.769997
0.42928305 5.1444983 -2.0158417 94.769997
4.6788592 56.071125 0 94.769997
0.45931366 5.5043826 -2.0103943 94.769997
4.6749387 56.024139 1.3052359 94.769997
0.49426717 5.9232635 -2.008414 94.769997
4.6722851 55.992336 2.6202245 94.769997
0.53312409 6.3889222 -2.0005269 94.769997
4.6711121 55.978279 3.9279871 94.769997
0.5795269 6.9450097 -1.9983709 94.769997
4.6702204 55.967598 5.2396626 94.769997
0.63197768 7.5735765 -1.9895434 94.769997
4.668335 55.945 6.5650697 94.769997
0.6961987 8.3431969 -1.9837319 94.769997
4.6652756 55.908337 7.8847127 94.769997
0.7694661 9.2212276 -1.9668446 94.769997
4.6658678 55.915436 9.2184963 94.769997
0.86212796 10.331681 -1.9533546 94.769997
1.0227603 11.808886 -1.9473916 94.949997
1.1665174 13.468719 -1.8999912 94.949997
1.3588964 15.689943 -1.8416854 94.949997
1.6538306 19.095282 -1.7881697 94.949997
2.1878843 25.261515 -1.7730701 94.949997
0.39208311 4.5270276 -2.023108 94.949997
2.4928651 28.782852 -1.3472859 94.949997
0.416412 4.8079314 -2.0157621 94.949997
3.2117484 37.083145 -0.86418432 94.949997
0.44544283 5.1431241 -2.0158417 94.949997
3.2340131 37.340214 0 94.949997
0.47627956 5.4991679 -2.0090263 94.949997
4.8529906 56.033077 1.3057929 94.949997
0.51287317 5.9216814 -2.008414 94.949997
4.8514419 56.015198 2.6219947 94.949997
0.55302811 6.385314 -1.999931 94.949997
4.8498759 55.99712 3.9303586 94.949997
0.60101062 6.9393244 -1.9972683 94.949997
4.8494611 55.992325 5.2433782 94.949997
0.65626842 7.5773363 -1.9910629 94.949997
4.8476677 55.971619 6.5699482 94.949997
0.72190237 8.3351517 -1.9823486 94.949997
4.8388429 55.869728 7.8813729 94.949997
0.79843158 9.2187653 -1.9668446 94.949997
4.8459358 55.951622 9.2269268 94.949997
0.89525998 10.336755 -1.9548358 94.949997
1.0559087 11.807949 -1.9477159 95.110001
1.2044774 13.469354 -1.9005479 95.110001
1.404475 15.705873 -1.8440084 95.110001
1.7108729 19.132242 -1.7920712 95.110001
2.2603738 25.277164 -1.7746047 95.110001
0.4052116 4.5313749 -2.0255485 95.110001
0.43082288 4.8177786 -2.0203872 95.110001
3.318141 37.105896 -0.86492705 95.110001
0.4598034 5.1418605 -2.0158417 95.110001
3.3311484 37.251354 0 95.110001
0.49163425 5.4978166 -2.0090263 95.110001
3.322237 37.151703 0.86599475 95.110001
0.52957636 5.9221134 -2.0090542 95.110001
5.0108719 56.035259 2.6235785 95.110001
0.570517 6.3799415 -1.9987395 95.110001
5.0087185 56.011177 3.932312 95.110001
0.62038648 6.9376187 -1.9972683 95.110001
5.0093493 56.018234 5.2470937 95.110001
0.67708111 7.57162 -1.9900498 95.110001
5.0076661 55.999413 6.5748262 95.110001
0.74638903 8.3466721 -1.9855764 95.110001
4.9992514 55.905315 7.8883314 95.110001
0.8243463 9.2184477 -1.9672604 95.110001
5.0035691 55.953598 9.2295208 95.110001
0.92499739 10.344002 -1.9566873 95.110001
1.0956063 11.810278 -1.9486886 95.300003
1.2493197 13.467257 -1.9008262 95.300003
1.4569167 15.705086 -1.8444731 95.300003
1.772285 19.104652 -1.7900276 95.300003
2.3456578 25.285423 -1.7757208 95.300003
0.41972965 4.5245481 -2.023108 95.300003
0.44628543 4.8108106 -2.0180745 95.300003
3.4439406 37.124554 -0.86562335 95.300003
0.47685188 5.1403074 -2.0158417 95.300003
5.2048979 56.107094 0 95.300003
0.51003659 5.4980273 -2.0097103 95.300003
5.2044191 56.101933 1.3081139 95.300003
0.54886186 5.9165511 -2.0077736 95.300003
5.2007236 56.062099 2.6256282 95.300003
0.59184682 6.3799152 -1.9993353 95.300003
5.1977477 56.030018 3.9348233 95.300003
0.64392179 6.9412665 -1.9989221 95.300003
5.1961884 56.01321 5.2482085 95.300003
0.70164961 7.5635533 -1.9885304 95.300003
5.1927891 55.976566 6.5741296 95.300003
0.77334446 8.3364 -1.9837319 95.300003
5.1882715 55.927868 7.8938985 95.300003
0.85418844 9.2078724 -1.9655972 95.300003
5.1932836 55.981895 9.2369785 95.300003
0.95856804 10.33305 -1.9552062 95.300003
1.1304551 11.805011 -1.9483644 95.470001
1.2892723 13.463491 -1.9008262 95.470001
1.5038869 15.704649 -1.8449377 95.470001
1.8293413 19.103273 -1.7903992 95.470001
2.4225726 25.298212 -1.7771159 95.470001
0.43315238 4.523283 -2.023108 95.470001
2.8356833 29.612207 -1.3872545 95.470001
0.46143699 4.8186507 -2.0219288 95.470001
3.6019161 37.61375 -0.87727517 95.470001
0.49227896 5.1407242 -2.0165691 95.470001
3.5983112 37.576103 0 95.470001
0.52580982 5.4908772 -2.0076582 95.470001
5.3710442 56.088234 1.3081604 95.470001
0.56659478 5.9167829 -2.008414 95.470001
5.3708491 56.086197 2.6274917 95.470001
0.61113781 6.3819323 -2.0005269 95.470001
5.3673925 56.050098 3.9373343 95.470001
0.66396433 6.9335842 -1.9972683 95.470001
5.3665361 56.041157 5.252296 95.470001
0.72445691 7.56529 -1.9895434 95.470001
5.3639641 56.014301 6.5804014 95.470001
0.79937416 8.3476295 -1.9869597 95.470001
5.3579659 55.95166 7.8994651 95.470001
0.8818779 9.2091913 -1.9664288 95.470001
5.3616195 55.989815 9.2408695 95.470001
0.98940992 10.332116 -1.9555764 95.470001
1.1664461 11.811424 -1.9499855 95.639999
1.3297975 13.46552 -1.9016613 95.639999
1.551453 15.710002 -1.8460991 95.639999
1.8862095 19.099743 -1.7905849 95.639999
2.5009565 25.324667 -1.7794876 95.639999
0.44728956 4.5292506 -2.0263619 95.639999
2.9121442 29.48835 -1.3818507 95.639999
0.47573218 4.8172607 -2.0219288 95.639999
3.7136989 37.604889 -0.8773216 95.639999
0.50716341 5.1355333 -2.0151141 95.639999
3.7164686 37.632935 0 95.639999
0.54154515 5.4836822 -2.0056062 95.639999
5.5409746 56.107868 1.308996 95.639999
0.58396155 5.9131904 -2.0077736 95.639999
5.5390034 56.08791 2.62833 95.639999
0.62988305 6.378191 -1.999931 95.639999
5.5370059 56.06768 3.9397061 95.639999
0.68472266 6.9334965 -1.9978195 95.639999
5.5357251 56.054714 5.2550826 95.639999
0.74671018 7.561182 -1.9890369 95.639999
5.5346284 56.043606 6.5857444 95.639999
0.82299095 8.333601 -1.984193 95.639999
5.530961 56.00647 7.9094858 95.639999
0.90977502 9.2123747 -1.9676763 95.639999
5.5331516 56.028652 9.2499485 95.639999
1.0196753 10.325224 -1.9548358 95.639999
1.2033468 11.805738 -1.9496614 95.82
1.3728974 13.469157 -1.9027747 95.82
1.6005982 15.703074 -1.8458669 95.82
1.9468094 19.099667 -1.7911423 95.82
2.5831337 25.342487 -1.7813013 95.82
0.46133113 4.5260057 -2.0255485 95.82
3.008214 29.512844 -1.3834347 95.82
0.48974085 4.8047266 -2.0173037 95.82
0.52329463 5.1339145 -2.0151141 95.82
5.7254481 56.170959 0 95.82
0.55934167 5.4875627 -2.0076582 95.82
5.7218785 56.135937 1.3100636 95.82
0.60253543 5.9113264 -2.0077736 95.82
5.7190304 56.107994 2.6301003 95.82
0.65011114 6.3780799 -2.0005269 95.82
5.7167616 56.085735 3.9422174 95.82
0.70650148 6.9313111 -1.9978195 95.82
5.7172508 56.090538 5.2600989 95.82
0.77065682 7.5607238 -1.9895434 95.82
5.7122784 56.041752 6.5876031 95.82
0.85035169 8.3425903 -1.9869597 95.82
5.7119036 56.038074 7.9164443 95.82
0.938712 9.2094717 -1.9676763 95.82
5.7131457 56.050259 9.2564325 95.82
1.0531043 10.331746 -1.9566873 95.82
1.2371323 11.810183 -1.9509583 95.980003
1.4105049 13.46527 -1.9027747 95.980003
1.6446501 15.700519 -1.8460991 95.980003
1.9988934 19.082273 -1.7900276 95.980003
2.6534774 25.331207 -1.7810223 95.980003
0.4735876 4.5210652 -2.0239215 95.980003
3.0983186 29.577847 -1.3868818 95.980003
0.50411755 4.8125172 -2.021158 95.980003
0.53801733 5.1361389 -2.0165691 95.980003
5.8833265 56.164696 0 95.980003
0.57388043 5.4785028 -2.0049222 95.980003
5.8842411 56.173428 1.3113171 95.980003
0.61943543 5.9133897 -2.0090542 95.980003
5.8806863 56.139492 2.6323364 95.980003
0.66831738 6.3800373 -2.0017183 95.980003
5.8762698 56.097332 3.9441705 95.980003
0.72565424 6.9273992 -1.9972683 95.980003
5.8755226 56.090195 5.2615848 95.980003
0.79237199 7.5643148 -1.9910629 95.980003
5.8733072 56.069046 6.5927138 95.980003
0.87445629 8.3479252 -1.9888042 95.980003
5.8704324 56.041603 7.9192276 95.980003
0.96483362 9.2107058 -1.9685079 95.980003
5.8725233 56.061565 9.260972 95.980003
1.0817471 10.32681 -1.9563171 95.980003
1.2723798 11.808422 -1.9512825 96.150002
1.4502387 13.459057 -1.9024963 96.150002
1.69144 15.697545 -1.8463315 96.150002
2.0559294 19.080217 -1.7903992 96.150002
2.7288387 25.325207 -1.7811618 96.150002
0.48699975 4.5196404 -2.0239215 96.150002
3.1809273 29.520851 -1.3846458 96.150002
0.51760352 4.8036609 -2.0180745 96.150002
0.55325419 5.1345201 -2.0165691 96.150002
6.0550866 56.194717 0 96.150002
0.59113961 5.4861188 -2.0083423 96.150002
6.0519562 56.165665 1.3115492 96.150002
0.63677502 5.9096417 -2.008414 96.150002
6.0491552 56.139671 2.6331749 96.150002
0.68683529 6.3742299 -2.0005269 96.150002
6.050169 56.149078 3.9490535 96.150002
0.74641103 6.9271274 -1.9978195 96.150002
6.0474663 56.123993 5.2664156 96.150002
0.81398314 7.5542359 -1.9890369 96.150002
6.041769 56.071125 6.5950365 96.150002
0.89713627 8.3259449 -1.984193 96.150002
6.0434747 56.086952 7.9281349 96.150002
0.99194849 9.2058573 -1.9680921 96.150002
6.0436983 56.089027 9.2684298 96.150002
1.1128036 10.327463 -1.9570576 96.150002
1.3078449 11.808518 -1.951931 96.32
1.4916923 13.468474 -1.9044447 96.32
1.738664 15.69838 -1.8470284 96.32
2.1127517 19.076014 -1.7905849 96.32
2.8048465 25.32493 -1.7817198 96.32
0.50080991 4.5218077 -2.0255485 96.32
3.2878566 29.686024 -1.3928444 96.32
0.53246343 4.8076067 -2.0203872 96.32
0.56848615 5.1328559 -2.0165691 96.32
6.2239947 56.196384 0 96.32
0.60720778 5.4824729 -2.0076582 96.32
6.225399 56.209064 1.3129882 96.32
0.65409791 5.9058433 -2.0077736 96.32
6.2205367 56.165161 2.6352243 96.32
0.70616525 6.3759589 -2.0017183 96.32
6.2187166 56.148727 3.950309 96.32
0.76738417 6.9287038 -1.9989221 96.32
6.2179084 56.14143 5.2697597 96.32
0.83681935 7.5556335 -1.9900498 96.32
6.2140131 56.106258 6.6013088 96.32
0.92205012 8.325181 -1.9846541 96.32
6.2133498 56.100269 7.9325886 96.32
1.0192584 9.2028732 -1.9680921 96.32
6.206615 56.039463 9.2632418 96.32
1.1436572 10.326069 -1.957428 96.32
1.3430988 11.806547 -1.9522552 96.489998
1.5316474 13.463989 -1.9044447 96.489998
1.7845608 15.687231 -1.8463315 96.489998
2.1702423 19.077574 -1.7913281 96.489998
2.878396 25.30262 -1.7807432 96.489998
0.51381111 4.5166707 -2.0239215 96.489998
0.54714268 4.8096728 -2.0219288 96.489998
0.58350253 5.1292953 -2.0158417 96.489998
6.3992953 56.253181 0 96.489998
0.62283462 5.4750447 -2.0056062 96.489998
6.3948593 56.214188 1.3135452 96.489998
0.67183214 5.9057593 -2.008414 96.489998
6.3916707 56.186157 2.6370878 96.489998
0.72508001 6.373836 -2.0017183 96.489998
6.3902464 56.173641 3.9533784 96.489998
0.78837323 6.9302168 -2.0000246 96.489998
6.3891826 56.164284 5.2736611 96.489998
0.8587963 7.5492725 -1.9890369 96.489998
6.3831501 56.111259 6.6040964 96.489998
0.94630736 8.3185415 -1.9837319 96.489998
6.3855953 56.132751 7.9398255 96.489998
1.0472227 9.2056398 -1.9693395 96.489998
6.3833442 56.112961 9.2784815 96.489998
1.1756231 10.334348 -1.9596498 96.489998
1.3781235 11.80251 -1.9522552 96.660004
1.5720484 13.46332 -1.9050014 96.660004
1.831789 15.687786 -1.8470284 96.660004
2.2289155 19.088852 -1.7930001 96.660004
2.9543831 25.301895 -1.7813013 96.660004
0.52721006 4.5151267 -2.0239215 96.660004
3.385179 28.991312 -1.3611678 96.660004
0.5603407 4.7988634 -2.0180745 96.660004
0.59936708 5.1330929 -2.018024 96.660004
6.5654774 56.227989 0 96.660004
0.63929462 5.4750395 -2.0062902 96.660004
6.5590711 56.173119 1.3130347 96.660004
0.69001114 5.9093857 -2.0103347 96.660004
6.5620575 56.198696 2.6385784 96.660004
0.74420977 6.3735528 -2.0023141 96.660004
6.5629048 56.205956 3.9570057 96.660004
0.80848616 6.9240279 -1.9989221 96.660004
6.5627251 56.204418 5.2792344 96.660004
0.88096726 7.5447698 -1.9885304 96.660004
6.5569797 56.155212 6.6115298 96.660004
0.9714362 8.3195629 -1.9846541 96.660004
6.5551023 56.139133 7.9434438 96.660004
1.0736241 9.1947203 -1.9676763 96.660004
6.5564437 56.150623 9.2878847 96.660004
1.2065085 10.332767 -1.9600201 96.660004
1.4179606 11.803753 -1.953228 96.849998
1.6164496 13.456066 -1.904723 96.849998
1.8826169 15.671764 -1.8458669 96.849998
2.2929165 19.087288 -1.7935575 96.849998
3.0420785 25.323652 -1.7835336 96.849998
0.54261571 4.5169816 -2.0255485 96.849998
3.4689085 28.876781 -1.356323 96.849998
0.57735175 4.8061404 -2.0219288 96.849998
0.61571914 5.1255279 -2.0158417 96.849998
6.7542853 56.225765 0 96.849998
0.65744698 5.4728894 -2.0062902 96.849998
6.7491274 56.182823 1.3137774 96.849998
0.70982957 5.908946 -2.0109749 96.849998
6.7541018 56.224232 2.6408145 96.849998
0.76465797 6.3653631 -2.0005269 96.849998
6.7537756 56.221519 3.9596565 96.849998
0.83235985 6.9289441 -2.0011272 96.849998
6.7507324 56.196186 5.2805347 96.849998
0.9064433 7.5456486 -1.9895434 96.849998
6.7452936 56.150909 6.6136208 96.849998
1.0006443 8.3298216 -1.9878819 96.849998
6.7464271 56.160347 7.9495673 96.849998
1.1052758 9.2008209 -1.9697554 96.849998
6.7433162 56.134449 9.2888575 96.849998
1.2414697 10.334562 -1.961131 96.849998
1.453218 11.801453 -1.9535522 97.019997
1.6578196 13.463005 -1.9063932 97.019997
1.9310498 15.681882 -1.8477253 97.019997
2.3497829 19.082376 -1.7937433 97.019997
3.1189086 25.328377 -1.7845101 97.019997
0.55579215 4.5135384 -2.024735 97.019997
3.5550606 28.870327 -1.3565093 97.019997
0.59138376 4.8025746 -2.021158 97.019997
0.63137954 5.1273766 -2.0172966 97.019997
6.9267025 56.251133 0 97.019997
0.67322308 5.4671841 -2.0049222 97.019997
6.9238591 56.228039 1.3153093 97.019997
0.72643232 5.899292 -2.008414 97.019997
6.9274845 56.257481 2.6433299 97.019997
0.78400767 6.3668561 -2.0017183 97.019997
6.9244599 56.232918 3.9618888 97.019997
0.85173988 6.9169035 -1.9983709 97.019997
6.9237676 56.227295 5.2853651 97.019997
0.9290641 7.5448461 -1.9900498 97.019997
6.9172077 56.174023 6.6187315 97.019997
1.0258306 8.3306789 -1.9888042 97.019997
6.9205317 56.201019 7.9581962 97.019997
1.1328093 9.1994429 -1.9701712 97.019997
6.9158702 56.163162 9.2969627 97.019997
1.2718873 10.328883 -1.9607607 97.019997
1.4884741 11.799047 -1.9538765 97.190002
1.6970142 13.452132 -1.9055581 97.190002
1.9788134 15.685938 -1.8488868 97.190002
2.4053941 19.067419 -1.7930001 97.190002
3.1972919 25.344744 -1.7863238 97.190002
0.56941032 4.5136819 -2.0255485 97.190002
3.6384542 28.841814 -1.3556709 97.190002
0.60470676 4.7934747 -2.0180745 97.190002
0.64612359 5.1217837 -2.0158417 97.190002
7.0963259 56.252159 0 97.190002
0.68944156 5.4651628 -2.0049222 97.190002
7.0949144 56.240971 1.3160985 97.190002
0.74416983 5.8989906 -2.0090542 97.190002
7.1001244 56.282269 2.6454728 97.190002
0.80217814 6.358819 -1.999931 97.190002
