# .PCD v0.7 - Point Cloud Data file format
VERSION 0.7
FIELDS x y z intensity
SIZE 4 4 4 4
TYPE F F F F
COUNT 1 1 1 1
WIDTH 1222
HEIGHT 1
VIEWPOINT 0 0 0 1 0 0 0
POINTS 1222
DATA ascii
4.8676291 -2.782079 -1.8944523 209.75
24.00045 -13.717388 1.2891498 209.75
5.1964936 -2.970041 -1.8676747 209.75
22.795328 -13.028604 1.8359904 209.75
5.3228636 -3.0422673 -1.758015 209.75
23.76359 -13.58201 2.5535994 209.75
5.4005308 -3.0866578 -1.6284068 209.75
32.652702 -18.662558 4.3981624 209.75
6.73312 -3.8482952 -1.8375573 209.75
7.4884801 -4.2800188 -1.8333653 209.75
8.3919525 -4.7963963 -1.821156 209.75
9.0896692 -5.2310143 -1.7230169 209.92
9.0909843 -5.2317715 -1.4741215 209.92
9.2421541 -5.318768 -1.2469939 209.92
10.906208 -6.2764149 -0.87990814 209.92
3.7182486 -2.1398151 -1.9100353 209.92
3.9732063 -2.2865407 -1.9147812 209.92
13.103049 -7.5406752 -0.35099363 209.92
4.2563648 -2.4494958 -1.9176321 209.92
32.049671 -18.444267 0 209.92
4.5755963 -2.6332104 -1.9214692 209.92
32.446556 -18.67267 0.86915141 209.92
4.8577104 -2.7955642 -1.8938121 209.92
23.930208 -13.771598 1.2875659 209.92
5.1396708 -2.9578295 -1.8503979 209.92
22.760031 -13.098172 1.8362694 209.92
5.3271441 -3.0657187 -1.7624253 209.92
5.3796105 -3.0959125 -1.6248614 209.92
32.540371 -18.72666 4.3904963 209.92
6.7216725 -3.8682559 -1.8375573 209.92
7.4757481 -4.3022189 -1.8333653 209.92
8.3708706 -4.8173532 -1.8196748 209.92
9.0809383 -5.261919 -1.7243139 210.09
9.0942717 -5.2696443 -1.4771833 210.09
10.665343 -6.1799965 -1.1500021 210.09
10.880632 -6.3047452 -0.87935013 210.09
3.7103024 -2.1499219 -1.9092218 210.09
3.9632108 -2.296469 -1.9132395 210.09
13.104838 -7.5935535 -0.35164353 210.09
4.2523022 -2.4639819 -1.9190871 210.09
4.5677633 -2.6467748 -1.9214692 210.09
24.045433 -13.933043 0.64521366 210.09
4.8461156 -2.8080652 -1.8925316 210.09
23.899614 -13.848549 1.2881249 210.09
5.1440873 -2.9807239 -1.8551639 210.09
5.3662643 -3.1094635 -1.7784122 210.09
32.218296 -18.668781 3.4739726 210.09
5.3737493 -3.1138005 -1.6258743 210.09
24.031776 -13.925131 3.2480381 210.09
6.7135334 -3.8901339 -1.8384795 210.09
7.464643 -4.3253617 -1.8337811 210.09
8.3548403 -4.8411832 -1.8193045 210.09
9.0779991 -5.2983799 -1.7269077 210.27
9.0930662 -5.3071737 -1.4796884 210.27
10.624885 -6.2012205 -1.4386425 210.27
10.577082 -6.1733203 -1.1425709 210.27
10.888342 -6.3549876 -0.88158232 210.27
3.7003739 -2.1597257 -1.9075948 210.27
3.9559767 -2.3089085 -1.9132395 210.27
13.110274 -7.6518202 -0.3524327 210.27
4.2413225 -2.4754505 -1.9176321 210.27
4.5561795 -2.6592171 -1.920101 210.27
23.858213 -13.924861 0.6413607 210.27
4.8421793 -2.8261411 -1.8944523 210.27
23.560938 -13.751357 1.2721934 210.27
5.1792183 -3.0228541 -1.8712492 210.27
22.862244 -13.343563 1.8510578 210.27
5.3132987 -3.10111 -1.7640791 210.27
32.207642 -18.798012 3.4791746 210.27
32.161163 -18.770884 4.354722 210.27
6.6995983 -3.9102247 -1.8380184 210.27
7.4510174 -4.3487911 -1.8337811 210.27
8.336195 -4.8654256 -1.8185638 210.27
9.0902319 -5.3438759 -1.7324198 210.45
9.0917149 -5.3447475 -1.4821935 210.45
10.644737 -6.2577233 -1.4439855 210.45
10.847684 -6.3770299 -0.87990814 210.45
3.6967208 -2.1731918 -1.9092218 210.45
3.939158 -2.3157134 -1.9086144 210.45
13.112026 -7.708169 -0.35312903 210.45
4.2351308 -2.489707 -1.9183595 210.45
23.77249 -13.975138 0 210.45
4.551043 -2.6754224 -1.9214692 210.45
23.36964 -13.738314 0.62938392 210.45
4.8332767 -2.8413393 -1.8944523 210.45
23.784573 -13.982241 1.2866342 210.45
5.2190723 -3.0681369 -1.8891217 210.45
23.109161 -13.585187 1.874496 210.45
5.3118167 -3.1226585 -1.7668355 210.45
32.260014 -18.964699 3.4912505 210.45
5.6976738 -3.3494923 -1.7302139 210.45
22.774189 -13.388267 3.0893762 210.45
6.6889586 -3.9322391 -1.8384795 210.45
7.4390049 -4.3731689 -1.8341969 210.45
8.3107023 -4.8856139 -1.816342 210.45
9.0811291 -5.3748446 -1.7337168 210.62
9.0894518 -5.3797698 -1.4844203 210.62
10.653475 -6.3054681 -1.4477023 210.62
10.708829 -6.3382301 -1.1609634 210.62
3.6902566 -2.1841507 -1.9092218 210.62
3.9354463 -2.3292708 -1.9101561 210.62
13.118349 -7.7643518 -0.35391819 210.62
4.2309313 -2.5041597 -1.9198145 210.62
23.720594 -14.039498 0 210.62
4.54632 -2.6908286 -1.9228373 210.62
4.8248253 -2.8556674 -1.8944523 210.62
23.713755 -14.035451 1.2850504 210.62
5.1820154 -3.0670774 -1.8789939 210.62
23.243879 -13.757345 1.8887262 210.62
5.297565 -3.1354675 -1.7651817 210.62
32.193317 -19.054247 3.4901357 210.62
5.4096518 -3.2018085 -1.645628 210.62
22.965145 -13.592371 3.1207371 210.62
6.6806111 -3.9540508 -1.8394018 210.62
23.707907 -14.03199 3.8717957 210.62
7.4243135 -4.3942256 -1.8337811 210.62
8.3130836 -4.9202614 -1.8200451 210.62
9.1041355 -5.4250007 -1.7411743 210.78999
9.0904627 -5.4168534 -1.4872037 210.78999
10.65861 -6.3512855 -1.4509546 210.78999
10.679711 -6.3638597 -1.1598487 210.78999
3.6853294 -2.1960256 -1.9100353 210.78999
3.9332738 -2.3437715 -1.9124687 210.78999
13.131325 -7.8247347 -0.35489306 210.78999
4.2266836 -2.5186093 -1.9212694 210.78999
4.5399303 -2.7052679 -1.9235213 210.78999
4.8212142 -2.87288 -1.896373 210.78999
32.016335 -19.077991 1.7380277 210.78999
5.1778126 -3.085371 -1.8807812 210.78999
23.597158 -14.061148 1.9208143 210.78999
5.3097086 -3.1639655 -1.7723482 210.78999
23.95451 -14.274087 2.6015315 210.78999
31.996307 -19.066059 4.3556514 210.78999
6.6671782 -3.9728589 -1.8389406 210.78999
23.632141 -14.081994 3.8662288 210.78999
7.4162846 -4.4192386 -1.8350285 210.78999
8.3288393 -4.9630146 -1.8267106 210.78999
9.1455393 -5.4865084 -1.7521986 210.96001
9.758791 -5.8544044 -1.5993773 210.96001
10.668677 -6.4002547 -1.4549036 210.96001
10.657368 -6.3934703 -1.1594771 210.96001
3.6803644 -2.2078905 -1.9108487 210.96001
3.9278851 -2.3563807 -1.9132395 210.96001
13.137198 -7.8811474 -0.35568222 210.96001
4.2207899 -2.5320976 -1.921997 210.96001
31.479803 -18.885075 0 210.96001
4.5318837 -2.7187262 -1.9235213 210.96001
23.702509 -14.219393 0.64173204 210.96001
4.8094192 -2.8852227 -1.8950926 210.96001
31.757429 -19.051626 1.727034 210.96001
5.1866446 -3.1115243 -1.8873343 210.96001
23.141302 -13.882718 1.8870522 210.96001
5.3167834 -3.1895962 -1.777861 210.96001
23.568817 -14.139189 2.564189 210.96001
6.0641689 -3.6379609 -1.8512681 210.96001
22.696703 -13.615998 3.0951838 210.96001
6.658699 -3.9946256 -1.8398629 210.96001
7.4048171 -4.4422302 -1.8354445 210.96001
8.3696957 -5.021071 -1.8389306 210.96001
9.1478033 -5.5248427 -1.7557652 211.13
9.7820654 -5.9079075 -1.6060576 211.13
10.676847 -6.4483128 -1.4586204 211.13
10.643464 -6.4281516 -1.1600345 211.13
3.6722331 -2.2178559 -1.9100353 211.13
3.9240355 -2.3699329 -1.9147812 211.13
13.153122 -7.9438663 -0.35674992 211.13
4.2180424 -2.5474992 -1.9241794 211.13
58.904545 -35.575573 0 211.13
4.518971 -2.7292457 -1.9214692 211.13
23.723543 -14.327903 0.64344966 211.13
4.812191 -2.9063368 -1.8995742 211.13
31.964123 -19.304827 1.7413816 211.13
5.1577783 -3.1150553 -1.8801854 211.13
31.533237 -19.044592 2.5759671 211.13
5.3122334 -3.208339 -1.7795148 211.13
23.594944 -14.250236 2.5716202 211.13
5.2053828 -3.1438062 -1.5919386 211.13
31.948921 -19.295645 4.3647108 211.13
6.6484833 -4.0153708 -1.840324 211.13
23.168407 -13.992627 3.8038793 211.13
7.3949537 -4.4662037 -1.8362761 211.13
23.475138 -14.177878 4.5056534 211.13
8.3934555 -5.0692525 -1.8474476 211.13
9.1769009 -5.5796432 -1.7645197 211.3
10.62756 -6.4616575 -1.7480141 211.3
10.689917 -6.4995713 -1.4630342 211.3
10.658376 -6.4803939 -1.1637502 211.3
3.67032 -2.2315896 -1.9124757 211.3
3.9217172 -2.3844414 -1.9170938 211.3
13.173914 -8.0098648 -0.35795689 211.3
4.2104654 -2.560003 -1.9241794 211.3
31.864479 -19.373907 0 211.3
4.5188823 -2.7475235 -1.9248893 211.3
4.8019276 -2.9196177 -1.898934 211.3
31.910118 -19.401657 1.741568 211.3
5.1664577 -3.1412556 -1.8867387 211.3
31.667526 -19.254158 2.5915926 211.3
5.3355451 -3.2440622 -1.7905402 211.3
23.635935 -14.370873 2.5807238 211.3
5.1844597 -3.1522009 -1.5883931 211.3
22.917633 -13.934139 3.1365335 211.3
6.6382031 -4.0360909 -1.8407851 211.3
7.3783264 -4.4860926 -1.8354445 211.3
8.3918133 -5.1023026 -1.85041 211.3
9.1956539 -5.6284833 -1.7713288 211.47
10.692611 -6.5447416 -1.4660541 211.47
10.695149 -6.5462956 -1.169881 211.47
3.6636827 -2.2424698 -1.9124757 211.47
3.9240694 -2.4018476 -1.9217188 211.47
13.187609 -8.0718822 -0.35897815 211.47
4.1980844 -2.5695667 -1.921997 211.47
31.806854 -19.468365 0 211.47
4.5059018 -2.7579758 -1.9228373 211.47
31.788054 -19.456858 0.86529839 211.47
4.8029399 -2.9397874 -1.9027754 211.47
31.816629 -19.474348 1.7396115 211.47
5.1620002 -3.1595612 -1.8885258 211.47
5.2947412 -3.2408094 -1.780066 211.47
23.815689 -14.577126 2.6050615 211.47
5.1783843 -3.1695898 -1.5894061 211.47
22.854164 -13.988595 3.1335135 211.47
6.629518 -4.0578008 -1.8417073 211.47
7.3683205 -4.5100074 -1.8362761 211.47
8.3799906 -5.129231 -1.8511506 211.47
9.1856337 -5.6598835 -1.7726257 211.64
10.766161 -6.6337519 -1.4788307 211.64
10.86556 -6.6949978 -1.1906888 211.64
3.6554575 -2.2523718 -1.9116622 211.64
3.9122124 -2.4105756 -1.9194063 211.64
13.199348 -8.1330013 -0.35995299 211.64
4.193614 -2.583966 -1.9234519 211.64
57.868706 -35.65678 0 211.64
4.4960985 -2.7703471 -1.9221532 211.64
30.943739 -19.066507 0.84385163 211.64
4.8006487 -2.9580007 -1.9053363 211.64
31.68557 -19.523598 1.7356054 211.64
5.1607299 -3.1798708 -1.8915046 211.64
30.851202 -19.009489 2.5339737 211.64
5.2670979 -3.2454112 -1.7740021 211.64
23.21456 -14.304042 2.5439386 211.64
31.292221 -19.281229 4.2982726 211.64
6.6224198 -4.0805159 -1.8430908 211.64
7.3582377 -4.5339022 -1.8371077 211.64
8.3664074 -5.1551032 -1.8515209 211.64
9.1644535 -5.6866317 -1.7719772 211.82001
10.546601 -6.5442677 -1.7443956 211.82001
10.70307 -6.6413579 -1.4730232 211.82001
10.844473 -6.7291002 -1.1906888 211.82001
3.6483634 -2.2638445 -1.9116622 211.82001
3.9046199 -2.4228542 -1.9194063 211.82001
13.306252 -8.2566566 -0.36357388 211.82001
4.1886415 -2.5990922 -1.9249068 211.82001
57.530376 -35.698154 0 211.82001
4.4873734 -2.7844584 -1.9221532 211.82001
30.953344 -19.206848 0.84575492 211.82001
4.800992 -2.9790618 -1.9091777 211.82001
31.484877 -19.536669 1.7279656 211.82001
5.1377363 -3.188015 -1.8867387 211.82001
31.033754 -19.256742 2.5539241 211.82001
5.2552423 -3.2609286 -1.7734507 211.82001
23.898788 -14.829429 2.6240113 211.82001
5.997375 -3.7214289 -1.8477225 211.82001
31.248371 -19.389915 4.3005958 211.82001
6.6095676 -4.1013007 -1.8430908 211.82001
7.3456202 -4.5580277 -1.8375236 211.82001
8.3501711 -5.1813617 -1.8515209 211.82001
9.1532383 -5.7195783 -1.7732742 212
10.52431 -6.5763187 -1.7441173 212
10.784438 -6.7388649 -1.1864158 212
3.6412332 -2.275295 -1.9116622 212
3.8875988 -2.4292412 -1.9147812 212
13.393854 -8.3694096 -0.36668414 212
4.1820354 -2.6132257 -1.9256344 212
57.214413 -35.751534 0 212
4.4786034 -2.798542 -1.9221532 212
30.821634 -19.259495 0.84380519 212
4.7964301 -2.9971421 -1.9110985 212
30.367825 -18.975924 1.6699227 212
5.117981 -3.1980693 -1.8831642 212
31.264122 -19.535992 2.5779202 212
5.2906232 -3.3059483 -1.7888864 212
23.943275 -14.961419 2.6340437 212
5.9889355 -3.7423024 -1.8487356 212
31.352394 -19.59115 4.3233614 212
6.5999513 -4.1241074 -1.844013 212
7.3312645 -4.5810823 -1.8375236 212
8.3355188 -5.2086105 -1.8518913 212
9.1362276 -5.7467113 -1.7732742 212.17
10.504752 -6.6075163 -1.7441173 212.17
10.685841 -6.7214217 -1.4762753 212.17
10.730683 -6.7496281 -1.1827002 212.17
3.639106 -2.2890072 -1.9141027 212.17
3.8850603 -2.4437132 -1.9170938 212.17
56.865906 -35.768803 -1.559719 212.17
4.1726866 -2.6246307 -1.9249068 212.17
56.872765 -35.773117 0 212.17
4.4702802 -2.8118181 -1.9221532 212.17
31.014843 -19.508417 0.85067564 212.17
4.7971396 -3.0174131 -1.9149399 212.17
23.262857 -14.632399 1.2816032 212.17
5.1213984 -3.2213728 -1.8879302 212.17
30.954386 -19.470388 2.5571327 212.17
5.3654137 -3.3748591 -1.8175527 212.17
24.133081 -15.179771 2.6598678 212.17
5.981081 -3.7621157 -1.8497486 212.17
30.816587 -19.383713 4.2573876 212.17
6.5909805 -4.1457438 -1.8449352 212.17
7.3143277 -4.6007314 -1.8366919 212.17
8.3200283 -5.2333193 -1.8518913 212.17
9.1408129 -5.787518 -1.7774893 212.34
10.476734 -6.633358 -1.7427256 212.34
10.771586 -6.8200445 -1.4909104 212.34
3.6322985 -2.2997947 -1.9141027 212.34
3.8793519 -2.4562168 -1.9178646 212.34
56.499371 -35.772652 -1.55257 212.34
4.1696029 -2.6399894 -1.9270893 212.34
56.607536 -35.841137 0 212.34
4.4714451 -2.8311014 -1.9262575 212.34
31.553154 -19.977922 0.86706245 212.34
4.7977705 -3.037715 -1.9187813 212.34
30.485933 -19.30221 1.6826866 212.34
5.1037526 -3.2314477 -1.8849514 212.34
23.127268 -14.643061 1.9141177 212.34
5.3440065 -3.3835647 -1.8136938 212.34
23.773314 -15.052105 2.6251261 212.34
5.9813352 -3.7870903 -1.8532941 212.34
30.836142 -19.523945 4.2680736 212.34
6.578651 -4.1652818 -1.8449352 212.34
7.3022976 -4.6234593 -1.8371077 212.34
8.3061247 -5.2590337 -1.8522615 212.34
9.135251 -5.8220387 -1.779759 212.50999
10.457006 -6.6644139 -1.7427256 212.50999
10.709424 -6.8252835 -1.4851028 212.50999
3.6331627 -2.3154714 -1.91817 212.50999
3.8720469 -2.4677162 -1.9178646 212.50999
56.170414 -35.798283 -1.5464424 212.50999
4.1601801 -2.6513481 -1.9263618 212.50999
58.786278 -37.465416 0 212.50999
4.4661951 -2.8463762 -1.9276255 212.50999
31.45496 -20.046738 0.86599475 212.50999
4.79353 -3.0549917 -1.920702 212.50999
30.404942 -19.377546 1.6813822 212.50999
5.086092 -3.241446 -1.8819727 212.50999
23.046705 -14.688025 1.9110484 212.50999
5.4685082 -3.4851658 -1.8594496 212.50999
31.695162 -20.199823 3.5064847 212.50999
5.9668093 -3.8027408 -1.8522811 212.50999
30.803205 -19.631365 4.2715583 212.50999
6.5695457 -4.1868744 -1.8458575 212.50999
7.2868977 -4.6440539 -1.8366919 212.50999
8.2937994 -5.285768 -1.8530022 212.50999
9.1195974 -5.850183 -1.7800833 212.67999
10.420516 -6.6847172 -1.7399421 212.67999
10.720894 -6.877408 -1.4895165 212.67999
3.6185873 -2.3213084 -1.9141027 212.67999
3.8616014 -2.477201 -1.9163229 212.67999
55.893974 -35.855747 -1.5417538 212.67999
4.1554313 -2.6656916 -1.9278167 212.67999
58.828049 -37.737946 0 212.67999
4.4577303 -2.8596151 -1.9276255 212.67999
31.518196 -20.21879 0.86938351 212.67999
4.7892289 -3.0722702 -1.9226227 212.67999
31.398296 -20.141874 1.7396115 212.67999
5.070024 -3.252399 -1.8795897 212.67999
5.4905071 -3.5221372 -1.8704751 212.67999
5.9571285 -3.8214726 -1.8527876 212.67999
6.5554562 -4.2052975 -1.8453963 212.67999
7.2796731 -4.6698794 -1.8383552 212.67999
8.2764254 -5.3092918 -1.8526318 212.67999
9.1028318 -5.8798752 -1.7804075 212.86
8.3781319 -5.4117632 -1.4017515 212.86
8.5483751 -5.5217304 -1.19008 212.86
3.6128116 -2.3336565 -1.9149162 212.86
3.8724024 -2.5013363 -1.9255731 212.86
44.131729 -28.506411 -1.2197737 212.86
4.150166 -2.6807549 -1.9292717 212.86
44.232662 -28.571608 0 212.86
4.4503031 -2.874625 -1.9283096 212.86
4.7906947 -3.0944972 -1.9271042 212.86
31.692314 -20.471306 1.759456 212.86
5.0613852 -3.2693467 -1.8801854 212.86
23.139225 -14.946531 1.9262552 212.86
5.4745703 -3.5362391 -1.8688213 212.86
5.9467187 -3.8412185 -1.8532941 212.86
6.5422125 -4.2258711 -1.8453963 212.86
7.2666097 -4.6937876 -1.838771 212.86
7.4061632 -4.7839308 -1.6611845 212.86
8.3854542 -5.4518223 -1.6432536 213.03
8.3454332 -5.4258022 -1.398968 213.03
8.4070482 -5.4658613 -1.1726575 213.03
3.6074035 -2.3453615 -1.9157296 213.03
3.8618693 -2.5108032 -1.9240314 213.03
11.925332 -7.7532816 -0.33024317 213.03
4.145318 -2.6950879 -1.9307266 213.03
58.858002 -38.266663 0 213.03
4.4417543 -2.8878167 -1.9283096 213.03
4.7894349 -3.1138618 -1.9303055 213.03
31.678335 -20.595741 1.7620647 213.03
5.0468607 -3.2812278 -1.8783982 213.03
5.4640541 -3.5524671 -1.8688213 213.03
5.9369178 -3.8599005 -1.8538007 213.03
6.5345397 -4.248446 -1.8467797 213.03
7.2608514 -4.7206593 -1.8408501 213.03
8.2387819 -5.3913078 -1.6176385 213.2
8.3607855 -5.4711447 -1.4042566 213.2
3.5988998 -2.3550541 -1.9149162 213.2
10.932996 -7.1543517 -0.60931122 213.2
3.8528585 -2.52124 -1.9232606 213.2
11.878852 -7.773303 -0.32959327 213.2
4.1341853 -2.7053351 -1.9292717 213.2
58.879757 -38.529835 0 213.2
4.4253035 -2.8958375 -1.9248893 213.2
4.7801747 -3.1280587 -1.9303055 213.2
5.0371027 -3.2961876 -1.8783982 213.2
5.4583154 -3.5718217 -1.8704751 213.2
5.9254389 -3.8774986 -1.8538007 213.2
6.5219059 -4.2678156 -1.8467797 213.2
7.2484503 -4.7432528 -1.8412659 213.2
7.3595543 -4.8159571 -1.6571113 213.2
8.1973209 -5.3969297 -1.6124506 213.36
8.2131386 -5.4073439 -1.3819889 213.36
8.2443542 -5.4278955 -1.1543057 213.36
3.5968874 -2.368109 -1.9173565 213.36
3.8458028 -2.5319893 -1.9232606 213.36
11.853759 -7.8042455 -0.32950044 213.36
4.1312828 -2.7199428 -1.9314542 213.36
58.937309 -38.802986 0 213.36
4.4219089 -2.9112842 -1.9269415 213.36
4.7761683 -3.144521 -1.9322262 213.36
31.500784 -20.739401 1.7588038 213.36
5.0278783 -3.310241 -1.8783982 213.36
5.4499259 -3.5881073 -1.8710264 213.36
5.916204 -3.8950944 -1.8543071 213.36
6.5197153 -4.2924323 -1.8495464 213.36
7.2449799 -4.7699304 -1.8437608 213.36
7.3001127 -4.8062286 -1.6467427 213.36
8.1464834 -5.4022694 -1.6059659 213.55
8.1505957 -5.4049964 -1.3744736 213.55
8.1683655 -5.4167805 -1.1461751 213.55
3.5905375 -2.3810334 -1.91817 213.55
3.8389232 -2.5457485 -1.9240314 213.55
11.799485 -7.8247256 -0.32871127 213.55
4.1191349 -2.7315683 -1.9299992 213.55
58.958321 -39.097694 0 213.55
4.4106641 -2.9248931 -1.9262575 213.55
4.7641354 -3.1592948 -1.9315859 213.55
31.480122 -20.875767 1.7615057 213.55
5.0184646 -3.327951 -1.8789939 213.55
5.4363947 -3.6050978 -1.8704751 213.55
5.9016423 -3.9136226 -1.8538007 213.55
6.5103106 -4.3172555 -1.8509297 213.55
7.2421656 -4.8025789 -1.8470875 213.55
7.0384359 -4.6674776 -1.5911971 213.55
8.1164026 -5.4170618 -1.3714117 213.72
8.1109514 -5.4134235 -1.1403675 213.72
3.5849767 -2.3926907 -1.9189835 213.72
3.8328881 -2.558152 -1.9248022 213.72
11.741293 -7.8363914 -0.32773641 213.72
4.1125617 -2.7448123 -1.9307266 213.72
58.963493 -39.353504 0 213.72
4.4050927 -2.9400537 -1.9276255 213.72
4.7563167 -3.1744683 -1.9322262 213.72
31.389793 -20.950224 1.7599219 213.72
5.0117445 -3.3449461 -1.8801854 213.72
5.4240751 -3.6201446 -1.8699238 213.72
5.8948321 -3.9343381 -1.8553201 213.72
6.4926167 -4.333312 -1.8495464 213.72
7.2278843 -4.8240457 -1.8470875 213.72
7.0376344 -4.6970687 -1.5941595 213.72
8.0601368 -5.4121041 -1.3644531 213.88
8.0578718 -5.410583 -1.1350247 213.88
3.5813148 -2.4047296 -1.9206104 213.88
3.8303258 -2.5719318 -1.9271147 213.88
11.707744 -7.8613467 -0.32741147 213.88
4.1064272 -2.7573245 -1.9314542 213.88
58.986202 -39.607201 0 213.88
4.4062271 -2.9586296 -1.9317298 213.88
4.7490063 -3.1887941 -1.9328663 213.88
4.9976287 -3.3557355 -1.8783982 213.88
5.4155412 -3.6363492 -1.8704751 213.88
5.8838224 -3.9507842 -1.8553201 213.88
6.4821057 -4.3525109 -1.8500075 213.88
7.220881 -4.8485727 -1.8487507 213.88
6.9918561 -4.6947908 -1.5867535 213.88
8.0003929 -5.4105663 -1.1294494 214.07001
3.5763476 -2.4186394 -1.9222374 214.07001
3.8248334 -2.5866871 -1.9286565 214.07001
11.69486 -7.9090886 -0.32778284 214.07001
4.101891 -2.7740579 -1.9336365 214.07001
4.3948345 -2.972172 -1.9310458 214.07001
4.7384062 -3.204525 -1.9328663 214.07001
4.9975438 -3.3797767 -1.8825684 214.07001
5.405045 -3.6553648 -1.8710264 214.07001
5.8706889 -3.970274 -1.8553201 214.07001
6.4821453 -4.3837943 -1.8541576 214.07001
7.2063837 -4.8735876 -1.8491666 214.07001
7.0250912 -4.7509818 -1.5978626 214.07001
7.1769834 -4.8848009 -1.4263363 214.24001
7.9752173 -5.4280949 -1.3558244 214.24001
7.9547453 -5.4141617 -1.125268 214.24001
3.5631139 -2.425128 -1.9189835 214.24001
3.8079879 -2.591794 -1.9240314 214.24001
11.682913 -7.9516282 -0.3281078 214.24001
4.0905619 -2.7841196 -1.9321816 214.24001
59.027176 -40.175095 0 214.24001
4.3875504 -2.9862561 -1.9317298 214.24001
4.7273107 -3.2175038 -1.9322262 214.24001
4.9890723 -3.3956642 -1.8831642 214.24001
5.3957648 -3.6724675 -1.8715776 214.24001
5.8604827 -3.9887636 -1.8558266 214.24001
6.4546304 -4.3931527 -1.8500075 214.24001
7.1918917 -4.894948 -1.8491666 214.24001
7.0288367 -4.7839694 -1.601936 214.24001
7.1868811 -4.9228029 -1.4311999 214.41
7.9182272 -5.4237537 -1.3488657 214.41
7.9075079 -5.4164109 -1.1208543 214.41
3.5589175 -2.4377542 -1.9206104 214.41
3.8139839 -2.6124673 -1.930969 214.41
11.659268 -7.9862571 -0.3281078 214.41
4.0792093 -2.7941387 -1.9307266 214.41
59.062817 -40.456295 0 214.41
4.37712 -2.998199 -1.9310458 214.41
4.7193065 -3.2325866 -1.9328663 214.41
4.9837008 -3.4136887 -1.8849514 214.41
5.3832588 -3.6873744 -1.8710264 214.41
5.8534107 -4.0094147 -1.8573462 214.41
6.4479899 -4.4166837 -1.8518519 214.41
7.1724944 -4.9129486 -1.8479191 214.41
6.9967747 -4.7925858 -1.5978626 214.41
7.1876273 -4.9565606 -1.4344423 214.59
7.8652792 -5.4238667 -1.3427421 214.59
7.8642874 -5.423183 -1.1171374 214.59
8.1279068 -5.6049738 -0.92111641 214.59
3.5587623 -2.454109 -1.9246778 214.59
3.8057578 -2.6244364 -1.930969 214.59
11.640705 -8.0273867 -0.32829347 214.59
4.0734782 -2.8090553 -1.9321816 214.59
59.108307 -40.760864 0 214.59
4.3707738 -3.0140691 -1.9324138 214.59
4.7075682 -3.2463212 -1.9322262 214.59
4.9682364 -3.4260771 -1.8831642 214.59
5.3748136 -3.7064509 -1.872129 214.59
5.840786 -4.0277839 -1.8573462 214.59
6.4308782 -4.4347095 -1.8509297 214.59
7.1570244 -4.9354572 -1.8479191 214.59
7.1291127 -4.9474845 -1.4256878 214.75999
7.8166094 -5.4245958 -1.3371751 214.75999
7.8269463 -5.4317694 -1.1141175 214.75999
8.011445 -5.5598087 -0.9097836 214.75999
3.5484629 -2.4625738 -1.9230509 214.75999
3.7979543 -2.6357167 -1.930969 214.75999
11.628335 -8.06987 -0.32861844 214.75999
4.0620646 -2.8190048 -1.9307266 214.75999
59.133343 -41.037548 0 214.75999
4.3633556 -3.0280957 -1.9330978 214.75999
4.6870189 -3.2527125 -1.9277445 214.75999
4.9564805 -3.4397144 -1.8825684 214.75999
5.3637924 -3.7223821 -1.872129 214.75999
5.8288093 -4.0450959 -1.8573462 214.75999
6.4256859 -4.4593186 -1.8532354 214.75999
7.12467 -4.9444017 -1.843345 214.75999
7.0884695 -4.9192791 -1.6256354 214.75999
7.3062177 -5.1006804 -1.4639482 214.92
7.779171 -5.4308629 -1.1094714 214.92
7.9338412 -5.5388427 -0.90272385 214.92
3.5400741 -2.4714274 -1.9222374 214.92
3.7830131 -2.6410301 -1.9271147 214.92
11.607394 -8.1034555 -0.32866484 214.92
4.0587597 -2.8335366 -1.9329091 214.92
59.192345 -41.323875 0 214.92
4.3502598 -3.0370412 -1.9310458 214.92
4.6670423 -3.2581961 -1.9232628 214.92
4.946856 -3.4535422 -1.8825684 214.92
5.3549528 -3.7384465 -1.8726802 214.92
5.819077 -4.0624647 -1.8578526 214.92
6.4211869 -4.4828153 -1.855541 214.92
7.109231 -4.9631586 -1.8429292 214.92
6.9651194 -4.8625498 -1.6004547 214.92
7.7386417 -5.4367909 -1.105987 215.09
7.8880424 -5.5417528 -0.89937973 215.09
3.5312307 -2.48087 -1.9214239 215.09
3.7766705 -2.6533039 -1.9278857 215.09
11.59966 -8.149353 -0.32912907 215.09
4.0533834 -2.8477087 -1.9343641 215.09
59.192211 -41.585548 0 215.09
4.3320026 -3.043453 -1.9269415 215.09
4.6558037 -3.2709401 -1.9226227 215.09
4.9397116 -3.4703996 -1.8837599 215.09
5.3438373 -3.7543185 -1.8726802 215.09
5.8101645 -4.0819368 -1.8588656 215.09
6.4046731 -4.4996099 -1.8546187 215.09
7.0704627 -4.967361 -1.8366919 215.09
6.9201055 -4.8617272 -1.593419 215.09
7.6839318 -5.4344888 -1.3227011 215.27
7.6923308 -5.4404292 -1.1018056 215.27
7.8120642 -5.5251112 -0.89269149 215.27
3.5249112 -2.4930065 -1.9222374 215.27
3.78037 -2.6736805 -1.9340523 215.27
11.590325 -8.1973 -0.32959327 215.27
4.0428958 -2.8593528 -1.9336365 215.27
59.239258 -41.897182 0 215.27
4.3392982 -3.0689847 -1.9344659 215.27
4.6331291 -3.2767978 -1.9175007 215.27
4.9272261 -3.4847987 -1.8831642 215.27
5.3320165 -3.7710881 -1.8726802 215.27
5.8004713 -4.1024046 -1.8598787 215.27
6.4079833 -4.5320697 -1.859691 215.27
7.053225 -4.9884195 -1.8362761 215.27
7.1069832 -5.0264401 -1.6400772 215.27
7.6474605 -5.4448175 -1.319361 215.45
7.642837 -5.4415259 -1.0971595 215.45
7.7638464 -5.5276818 -0.88916159 215.45
3.5170617 -2.5040679 -1.9222374 215.45
3.7614281 -2.6780512 -1.9286565 215.45
11.579175 -8.2441092 -0.33001107 215.45
4.0369282 -2.8742011 -1.9350915 215.45
59.237679 -42.17588 0 215.45
4.3311663 -3.0836918 -1.93515 215.45
4.6120076 -3.2836444 -1.9130192 215.45
4.916254 -3.5002608 -1.8831642 215.45
5.3201427 -3.7878206 -1.8726802 215.45
5.7922826 -4.1239734 -1.8613981 215.45
6.3968844 -4.5544362 -1.8606132 215.45
7.0295506 -5.00488 -1.8341969 215.45
7.0111036 -4.9917459 -1.621562 215.45
7.1839986 -5.1470318 -1.4519514 215.62
7.6087317 -5.4513354 -1.3154641 215.62
7.6040506 -5.4479814 -1.0939072 215.62
7.7101798 -5.5240183 -0.88488859 215.62
3.5155575 -2.5187485 -1.9254912 215.62
3.7519655 -2.6881249 -1.9278857 215.62
11.58392 -8.2993898 -0.33084667 215.62
4.0314116 -2.8883362 -1.9365466 215.62
59.260227 -42.457455 0 215.62
4.326581 -3.0998127 -1.9372021 215.62
4.5883822 -3.2873824 -1.907257 215.62
4.9073987 -3.515944 -1.8837599 215.62
5.3088808 -3.8035891 -1.8726802 215.62
5.7831669 -4.1433949 -1.8624111 215.62
6.3722692 -4.5654616 -1.8573854 215.62
7.0146699 -5.0257149 -1.8341969 215.62
6.9786873 -4.9999352 -1.6174887 215.62
7.0790467 -5.1036916 -1.4337938 215.78999
7.5009508 -5.4078665 -1.2995985 215.78999
7.5604601 -5.4507699 -1.0899582 215.78999
7.6566033 -5.5200853 -0.88061553 215.78999
3.5080688 -2.5291684 -1.9254912 215.78999
3.755949 -2.7078795 -1.9340523 215.78999
11.603035 -8.3652945 -0.33210003 215.78999
4.0213127 -2.8991954 -1.935819 215.78999
4.3066936 -3.1049428 -1.9324138 215.78999
4.5786085 -3.3009818 -1.907257 215.78999
4.896945 -3.5304892 -1.8837599 215.78999
5.2975721 -3.819324 -1.8726802 215.78999
5.7739868 -4.1627989 -1.8634242 215.78999
6.3744812 -4.5957298 -1.8619965 215.78999
7.0029011 -5.0487938 -1.8350285 215.78999
7.0578842 -5.0884342 -1.6393367 215.78999
7.094224 -5.1466923 -1.4399544 215.96001
7.5137038 -5.451015 -1.0855445 215.96001
7.6111779 -5.5217299 -0.87727141 215.96001
3.4990702 -2.5384929 -1.9246778 215.96001
3.7523794 -2.7222629 -1.9363649 215.96001
11.566834 -8.3914661 -0.3317751 215.96001
4.0157089 -2.9133019 -1.937274 215.96001
59.361767 -43.065563 0 215.96001
4.3081102 -3.1254325 -1.9372021 215.96001
4.5703278 -3.315665 -1.9078972 215.96001
4.8895392 -3.5472453 -1.8849514 215.96001
5.290885 -3.8384123 -1.874334 215.96001
5.7663083 -4.1833205 -1.8649436 215.96001
6.351366 -4.6077662 -1.8592299 215.96001
6.964138 -5.0523181 -1.8287913 215.96001
7.0443463 -5.110507 -1.639707 215.96001
7.2781715 -5.3131733 -1.4804846 216.13
7.473527 -5.4557858 -1.3004334 216.13
7.4798484 -5.4604006 -1.0829891 216.13
7.4902163 -5.4679694 -0.86519545 216.13
3.4900472 -2.5477865 -1.9238644 216.13
3.7413049 -2.7312081 -1.9348232 216.13
11.55965 -8.4387159 -0.33228573 216.13
4.0055423 -2.9241056 -1.9365466 216.13
59.419495 -43.377117 0 216.13
4.2912283 -3.1326606 -1.9337819 216.13
4.5604696 -3.3292108 -1.9078972 216.13
4.8851609 -3.5662401 -1.8873343 216.13
5.2779202 -3.8529601 -1.8737828 216.13
5.7585588 -4.2038336 -1.8664632 216.13
6.3376665 -4.6265907 -1.8592299 216.13
6.922256 -5.05335 -1.8217223 216.13
6.9878788 -5.1012554 -1.630079 216.13
7.0667391 -5.1910362 -1.4406029 216.3
7.4205947 -5.4509687 -1.2940315 216.3
7.4347973 -5.4614015 -1.0788077 216.3
7.3102612 -5.3699207 -0.84624553 216.3
3.4868901 -2.5613754 -1.9263047 216.3
3.7331846 -2.7422967 -1.9348232 216.3
3.9983504 -2.9370804 -1.937274 216.3
59.346947 -43.594666 0 216.3
4.2955465 -3.1553926 -1.9399383 216.3
4.5551529 -3.3460925 -1.9098179 216.3
4.8684034 -3.5761979 -1.8849514 216.3
5.2695637 -3.8708794 -1.8748853 216.3
5.7445011 -4.2197556 -1.8659567 216.3
6.3254795 -4.6465268 -1.859691 216.3
6.8898888 -5.0611267 -1.8171482 216.3
6.7778821 -4.9788494 -1.5845317 216.3
7.0805464 -5.2355051 -1.4467635 216.48
7.3397341 -5.4271536 -1.2828976 216.48
7.3824639 -5.4587488 -1.0736971 216.48
3.4817643 -2.5744896 -1.9279317 216.48
3.7290027 -2.757303 -1.9371357 216.48
3.9906015 -2.9507346 -1.9380015 216.48
59.42197 -43.937855 0 216.48
4.2886348 -3.1711066 -1.9413064 216.48
4.5507121 -3.3648922 -1.9123789 216.48
4.8586798 -3.5926099 -1.8855472 216.48
5.2573771 -3.8874152 -1.8748853 216.48
5.7327719 -4.2389321 -1.8664632 216.48
6.3139806 -4.6686902 -1.8606132 216.48
6.8833928 -5.0897255 -1.8196431 216.48
6.8791509 -5.0865889 -1.6119342 216.48
7.0355668 -5.2365131 -1.4409271 216.66
7.3178821 -5.4466381 -1.2820626 216.66
7.3397818 -5.4629378 -1.0699803 216.66
3.4795218 -2.5897789 -1.9311856 216.66
3.7173612 -2.7668006 -1.9355941 216.66
3.9813118 -2.9632568 -1.9380015 216.66
4.280159 -3.1856863 -1.9419904 216.66
4.5401187 -3.3791721 -1.9123789 216.66
4.8473692 -3.607856 -1.8855472 216.66
5.2513075 -3.908504 -1.8770903 216.66
5.7178745 -4.2557659 -1.8659567 216.66
6.3070884 -4.6943126 -1.8629189 216.66
6.8610916 -5.1066527 -1.8179798 216.66
6.8347573 -5.0870523 -1.6052687 216.66
6.9924788 -5.2348504 -1.4350908 216.82001
7.0917768 -5.3091888 -1.2450426 216.82001
7.3038249 -5.4679365 -1.0669603 216.82001
7.3983197 -5.5386791 -0.86222297 216.82001
3.4708135 -2.5983903 -1.9303721 216.82001
10.926461 -8.179987 -0.63651592 216.82001
3.7051883 -2.7738526 -1.9332815 216.82001
3.9730213 -2.9743631 -1.9380015 216.82001
59.531635 -44.567772 0 216.82001
4.2697415 -3.1965001 -1.9413064 216.82001
4.5291476 -3.3907018 -1.9117386 216.82001
4.8418603 -3.6248109 -1.8873343 216.82001
5.2434502 -3.9254575 -1.8781929 216.82001
5.7090654 -4.2740355 -1.8669697 216.82001
18.362131 -13.746629 2.6823843 216.82001
6.2970705 -4.7142396 -1.8638411 216.82001
6.8342762 -5.1164136 -1.8146533 216.82001
6.8661528 -5.1402774 -1.6160074 216.82001
7.1036658 -5.3529963 -1.4613544 217
7.0861344 -5.3397856 -1.246991 217
7.262814 -5.4729228 -1.0634758 217
7.3681598 -5.5523067 -0.86073667 217
3.4640925 -2.6103809 -1.9311856 217
3.7052989 -2.7921429 -1.9379066 217
3.9710968 -2.9924359 -1.9416388 217
4.2626805 -3.2121601 -1.9426744 217
4.5184731 -3.4049139 -1.9117386 217
4.8289237 -3.6388552 -1.8867387 217
5.2310925 -3.9419107 -1.8781929 217
5.6987004 -4.2942786 -1.8679827 217
18.242704 -13.746863 2.6712337 217
6.2713494 -4.725801 -1.8606132 217
6.8306675 -5.1472774 -1.8179798 217
7.0037961 -5.277739 -1.6522973 217
7.0735984 -5.3633184 -1.4584361 217.17
7.1775765 -5.4421558 -1.2659185 217.17
7.225966 -5.4788456 -1.0604559 217.17
10.740761 -8.1438208 -0.94254947 217.17
3.4534204 -2.6184399 -1.9295586 217.17
3.6881747 -2.7964344 -1.9332815 217.17
3.9666541 -3.0075822 -1.9438213 217.17
38.661392 -29.313702 0 217.17
4.2411504 -3.2157097 -1.9372021 217.17
4.51439 -3.4228845 -1.9142996 217.17
4.82267 -3.6566274 -1.8885258 217.17
5.2178416 -3.9562528 -1.8776417 217.17
5.6859341 -4.3111682 -1.8679827 217.17
18.239826 -13.829735 2.6768091 217.17
6.2619524 -4.7479148 -1.8619965 217.17
6.8200421 -5.1710677 -1.8192273 217.17
7.013164 -5.3174958 -1.6582222 217.17
7.036624 -5.3662958 -1.4538968 217.33
7.1670756 -5.4657812 -1.2667536 217.33
7.1806264 -5.4761157 -1.0560422 217.33
3.4490006 -2.6302893 -1.9311856 217.33
3.6935582 -2.8167949 -1.9402192 217.33
3.9567585 -3.0175176 -1.9430938 217.33
4.2366371 -3.2309597 -1.9392542 217.33
4.5123472 -3.4412227 -1.9175007 217.33
24.866133 -18.963501 1.4583408 217.33
4.8109217 -3.6689229 -1.8879302 217.33
5.2098308 -3.97314 -1.8787442 217.33
25.86701 -19.726793 3.0349653 217.33
5.6800265 -4.3317227 -1.8700087 217.33
6.2486696 -4.7653832 -1.8619965 217.33
6.8009086 -5.1865335 -1.8179798 217.33
6.9201469 -5.2774677 -1.639707 217.33
6.9743309 -5.3535266 -1.4444938 217.50999
7.1231613 -5.4677691 -1.2620217 217.50999
7.1413269 -5.4817133 -1.0527899 217.50999
3.4436188 -2.6433368 -1.9328126 217.50999
3.6876187 -2.830632 -1.9417608 217.50999
3.9487369 -3.0310676 -1.9438213 217.50999
4.2264657 -3.2442534 -1.9392542 217.50999
25.342175 -19.452763 0.74172413 217.50999
4.5030169 -3.4565353 -1.918141 217.50999
24.769985 -19.013548 1.456198 217.50999
4.8039155 -3.6875062 -1.8897173 217.50999
24.924833 -19.13241 2.1971893 217.50999
5.2018981 -3.9929993 -1.880398 217.50999
25.549007 -19.611528 3.0048683 217.50999
5.6663899 -4.3495455 -1.8700087 217.50999
16.859015 -12.941052 2.4853926 217.50999
6.2382989 -4.7885451 -1.86338 217.50999
18.50231 -14.202453 3.2780833 217.50999
6.7845807 -5.2078738 -1.8179798 217.50999
6.953423 -5.3374777 -1.6515567 217.50999
6.958416 -5.3741961 -1.4444938 217.67999
7.0802598 -5.4682999 -1.2572898 217.67999
7.1077371 -5.4895215 -1.0502346 217.67999
3.4357607 -2.6535425 -1.9328126 217.67999
3.6777432 -2.8404329 -1.94099 217.67999
3.9382517 -3.0416317 -1.9430938 217.67999
38.592049 -29.805813 0 217.67999
4.2242584 -3.2625232 -1.9426744 217.67999
25.290676 -19.532757 0.74190986 217.67999
4.4882426 -3.4664063 -1.9162203 217.67999
24.601198 -19.000254 1.4495831 217.67999
4.7989974 -3.7064114 -1.8921003 217.67999
24.777952 -19.136766 2.1892371 217.67999
5.1900277 -4.0084162 -1.880398 217.67999
17.730335 -13.693677 2.0900686 217.67999
5.6565223 -4.3687043 -1.8710217 217.67999
16.795389 -12.97159 2.4816759 217.67999
6.2240634 -4.8070335 -1.86338 217.67999
6.7799368 -5.2363515 -1.8208905 217.67999
6.9251118 -5.3484745 -1.6485943 217.67999
6.9206228 -5.3778653 -1.4399544 217.85001
7.0405455 -5.4710546 -1.2531146 217.85001
7.0663214 -5.4910841 -1.0465178 217.85001
3.4278724 -2.6637249 -1.9328126 217.85001
3.6678421 -2.8501999 -1.9402192 217.85001
3.9292097 -3.0533032 -1.9430938 217.85001
59.036716 -45.876144 0 217.85001
4.2190118 -3.278502 -1.9447266 217.85001
4.4809303 -3.4820333 -1.9175007 217.85001
24.3002 -18.883156 1.4351422 217.85001
4.7819486 -3.7159481 -1.8897173 217.85001
16.978008 -13.193239 1.503531 217.85001
5.1811476 -4.0261569 -1.8815006 217.85001
5.6435351 -4.385468 -1.8710217 217.85001
6.2282138 -4.8398089 -1.8689134 217.85001
18.391119 -14.291337 3.2733514 217.85001
6.7566471 -5.250443 -1.8188114 217.85001
6.9030046 -5.3641744 -1.6471131 217.85001
6.990562 -5.4675226 -1.2472693 218.03
7.0193062 -5.4900041 -1.042104 218.03
3.4310007 -2.6834857 -1.9393203 218.03
3.6603234 -2.8628459 -1.94099 218.03
3.922533 -3.0679276 -1.9445487 218.03
4.2042499 -3.2882667 -1.9426744 218.03
17.516619 -13.700258 0.51630092 218.03
4.4684768 -3.494926 -1.9168606 218.03
4.7792745 -3.7380099 -1.8932918 218.03
24.011545 -18.78013 2.1316183 218.03
5.1715026 -4.0447831 -1.8826032 218.03
16.978148 -13.279104 2.0109246 218.03
5.6373501 -4.4091363 -1.8735542 218.03
16.697062 -13.059258 2.4788883 218.03
6.2145114 -4.8605504 -1.8693745 218.03
6.7185454 -5.2547703 -1.81299 218.03
6.8458667 -5.354352 -1.6374851 218.03
6.9338422 -5.4563956 -1.2400323 218.2
6.9795699 -5.4923801 -1.0386195 218.2
7.1824818 -5.6520557 -0.63910884 218.2
3.4144084 -2.6868746 -1.9344394 218.2
3.651813 -2.8736935 -1.94099 218.2
3.913413 -3.0795524 -1.9445487 218.2
4.1841364 -3.2925909 -1.9378861 218.2
4.4595761 -3.5093405 -1.9175007 218.2
17.452204 -13.73353 1.0356427 218.2
4.7681623 -3.7521739 -1.8932918 218.2
5.1609893 -4.0612984 -1.8831544 218.2
16.897985 -13.297402 2.0060942 218.2
5.6257639 -4.4270396 -1.8740608 218.2
24.334049 -19.14901 3.6211143 218.2
6.2000623 -4.8789682 -1.8693745 218.2
24.93693 -19.623428 4.4596629 218.2
6.7275229 -5.2940383 -1.8196431 218.2
18.403234 -14.481917 3.8474441 218.2
6.9952154 -5.5046921 -1.6771077 218.2
6.9359279 -5.4894691 -1.4532483 218.36
6.926343 -5.481883 -1.2414241 218.36
6.9377251 -5.4908915 -1.0346705 218.36
7.1385107 -5.6498041 -0.63659757 218.36
3.4126227 -2.7009344 -1.9376934 218.36
3.6481154 -2.887316 -1.9433025 218.36
3.9121022 -3.0962496 -1.9481862 218.36
4.1705046 -3.3007631 -1.9358341 218.36
25.50548 -20.186419 0.75518638 218.36
4.4557018 -3.5264838 -1.9200617 218.36
17.382454 -13.757415 1.0337794 218.36
4.7576656 -3.7654743 -1.8932918 218.36
16.859901 -13.343839 1.503531 218.36
5.1511354 -4.0768876 -1.8837057 218.36
16.848293 -13.334652 2.0046079 218.36
5.613379 -4.4427323 -1.8740608 218.36
16.655836 -13.182331 2.4839988 218.36
6.1909914 -4.8998861 -1.8707578 218.36
18.238335 -14.434806 3.2688978 218.36
6.8047519 -5.3856492 -1.8445926 218.36
6.9566994 -5.5059085 -1.6715531 218.36
6.9037952 -5.50137 -1.4503301 218.55
6.8833437 -5.4850731 -1.2369705 218.55
6.9101572 -5.5064397 -1.0332766 218.55
7.1025724 -5.6597681 -0.63506293 218.55
3.4007895 -2.709959 -1.9360664 218.55
3.6298609 -2.8924971 -1.9386774 218.55
3.9018133 -3.1092057 -1.9481862 218.55
4.153657 -3.30989 -1.9330978 218.55
17.435343 -13.893557 0.51760072 218.55
4.4410195 -3.5388784 -1.9187813 218.55
16.977377 -13.528623 1.012351 218.55
4.74366 -3.780041 -1.8926961 218.55
17.397558 -13.863448 1.5555694 218.55
5.1375875 -4.0939469 -1.8837057 218.55
16.780621 -13.371835 2.0018213 218.55
5.6001287 -4.4625282 -1.8745673 218.55
24.629864 -19.626596 3.6829064 218.55
6.1762309 -4.9216022 -1.8712189 218.55
24.268278 -19.338463 4.3611283 218.55
6.8281636 -5.441102 -1.8558197 218.55
6.9030499 -5.5007763 -1.6630361 218.55
6.8622255 -5.4996462 -1.444818 218.71001
6.8417268 -5.4832177 -1.2322387 218.71001
6.8668523 -5.5033541 -1.0290952 218.71001
3.3989115 -2.7240157 -1.9393203 218.71001
3.6217694 -2.9026225 -1.9386774 218.71001
3.8873005 -3.1154292 -1.9452763 218.71001
4.1385317 -3.3167751 -1.9303617 218.71001
17.457325 -13.990958 0.51941115 218.71001
4.4325981 -3.5524511 -1.9194214 218.71001
4.7390447 -3.798049 -1.8950791 218.71001
17.424164 -13.964381 1.5614289 218.71001
5.1261353 -4.1082778 -1.8837057 218.71001
16.777401 -13.44604 2.0059085 218.71001
5.5951943 -4.4841995 -1.8770998 218.71001
24.468004 -19.609581 3.6668775 218.71001
6.1639819 -4.9400473 -1.87168 218.71001
24.566544 -19.688555 4.4245911 218.71001
6.817522 -5.463819 -1.8570672 218.71001
6.8661904 -5.5028238 -1.6578518 218.71001
6.819376 -5.5025425 -1.4396302 218.89999
6.8050103 -5.4909511 -1.2288985 218.89999
6.8300133 -5.511126 -1.0263076 218.89999
3.3912816 -2.7364192 -1.9401338 218.89999
3.6164327 -2.9180932 -1.94099 218.89999
3.8783979 -3.1294727 -1.9460037 218.89999
4.1260471 -3.3293004 -1.9296776 218.89999
24.215513 -19.539457 0.72241277 218.89999
4.4222679 -3.5683205 -1.9200617 218.89999
17.57542 -14.181577 1.0531582 218.89999
4.7234521 -3.8113453 -1.8938876 218.89999
17.380865 -14.02459 1.561708 218.89999
5.1139798 -4.1264615 -1.884257 218.89999
17.676521 -14.263154 2.1190507 218.89999
5.5772815 -4.500299 -1.8760867 218.89999
17.011648 -13.72667 2.5562446 218.89999
6.1521096 -4.9641266 -1.8730634 218.89999
17.959679 -14.491633 3.2432899 218.89999
6.7460794 -5.4433999 -1.8425134 218.89999
6.8111949 -5.4959416 -1.6489645 218.89999
6.7815685 -5.5053377 -1.4350908 219.07001
6.7671614 -5.4936419 -1.2250017 219.07001
6.7966666 -5.5175948 -1.0237522 219.07001
3.3803105 -2.7441661 -1.9385068 219.07001
3.6134899 -2.9334633 -1.9440733 219.07001
3.874881 -3.145663 -1.9489136 219.07001
4.1088552 -3.3356054 -1.9262575 219.07001
25.188183 -20.447992 0.75323671 219.07001
4.4146032 -3.5838144 -1.9213421 219.07001
24.063259 -19.534769 1.4453906 219.07001
4.7180519 -3.8301566 -1.8962706 219.07001
24.814508 -20.14464 2.2349975 219.07001
5.1076841 -4.1464634 -1.8864621 219.07001
24.609852 -19.978498 2.9573076 219.07001
5.5669088 -4.5192661 -1.8770998 219.07001
24.001934 -19.484983 3.6153066 219.07001
6.1418867 -4.9860382 -1.8744467 219.07001
24.356245 -19.772617 4.4090037 219.07001
6.8271036 -5.5423036 -1.8691261 219.07001
17.805832 -14.454932 3.7680051 219.07001
6.7750216 -5.5000229 -1.6441506 219.07001
6.7376909 -5.5029635 -1.4292544 219.24001
6.7278228 -5.494904 -1.2208264 219.24001
6.7541108 -5.5163746 -1.0198032 219.24001
3.3735685 -2.7553394 -1.9393203 219.24001
3.6076288 -2.9465065 -1.9456151 219.24001
3.8698595 -3.1606817 -1.9510961 219.24001
4.1033072 -3.3513484 -1.9283096 219.24001
25.159922 -20.549198 0.75421154 219.24001
4.4039507 -3.5968969 -1.9213421 219.24001
24.992386 -20.412363 1.5048311 219.24001
4.7051883 -3.8429308 -1.8956748 219.24001
17.359146 -14.177965 1.5672884 219.24001
5.0938697 -4.1603837 -1.8859107 219.24001
17.141216 -13.999973 2.0648019 219.24001
5.5564723 -4.5382113 -1.8781128 219.24001
16.885277 -13.790936 2.5495079 219.24001
6.1270657 -5.0042396 -1.8744467 219.24001
6.8363867 -5.5835729 -1.8761951 219.24001
17.986027 -14.689967 3.8153441 219.24001
6.7449727 -5.5089111 -1.6408179 219.24001
6.7020745 -5.5090652 -1.4253635 219.42
6.6906371 -5.4996634 -1.2172079 219.42
6.7152634 -5.5199065 -1.0165509 219.42
3.3663073 -2.7670844 -1.9401338 219.42
3.5997798 -2.9589975 -1.9463859 219.42
3.8656676 -3.1775556 -1.954006 219.42
4.0913067 -3.3630295 -1.9276255 219.42
17.450977 -14.344599 0.5244711 219.42
4.3970199 -3.6143241 -1.9232628 219.42
4.6945667 -3.858906 -1.8962706 219.42
23.928066 -19.668728 2.1659386 219.42
5.0867152 -4.1812496 -1.8881159 219.42
24.575039 -20.200535 2.9678974 219.42
5.5421877 -4.555645 -1.8781128 219.42
16.545696 -13.600464 2.5046737 219.42
6.1083074 -5.0209923 -1.8735245 219.42
24.072828 -19.787722 4.379499 219.42
6.8475256 -5.6286249 -1.8840958 219.42
6.7200413 -5.5238338 -1.6389663 219.42
6.6668901 -5.5114126 -1.4211484 219.58
6.6538825 -5.500659 -1.2133111 219.58
6.6860433 -5.527246 -1.0144602 219.58
3.3613834 -2.7788024 -1.9417608 219.58
3.5943475 -2.9713902 -1.9479276 219.58
24.48584 -20.242056 -0.73759264 219.58
3.8524714 -3.184777 -1.9518236 219.58
24.532516 -20.280643 0 219.58
4.0862446 -3.3780339 -1.9296776 219.58
17.133461 -14.163961 0.51611525 219.58
4.3854494 -3.6253815 -1.9226227 219.58
17.167208 -14.191858 1.0387173 219.58
4.6881871 -3.8756499 -1.8980578 219.58
5.0779824 -4.1978879 -1.8892184 219.58
24.171665 -19.982332 2.9259102 219.58
5.5354095 -4.576035 -1.8801388 219.58
16.676067 -13.78584 2.5302267 219.58
6.1017623 -5.04423 -1.8758302 219.58
24.019005 -19.856131 4.3797774 219.58
6.8393197 -5.6539574 -1.8861749 219.58
17.966988 -14.853024 3.8299351 219.58
6.692471 -5.5325599 -1.636004 219.58
17.900618 -14.798158 4.3758845 219.58
6.6271925 -5.5098214 -1.4159606 219.74001
6.6171746 -5.5014925 -1.2094142 219.74001
6.6491976 -5.5281162 -1.0112079 219.74001
3.3536105 -2.7881782 -1.9417608 219.74001
3.586036 -2.981416 -1.9479276 219.74001
24.441519 -20.320581 -0.73796397 219.74001
3.8449953 -3.1967137 -1.952551 219.74001
24.477325 -20.350351 0 219.74001
4.0724602 -3.3858271 -1.9276255 219.74001
16.335857 -13.581567 0.49322939 219.74001
4.3811364 -3.6424592 -1.9251835 219.74001
17.036871 -14.164387 1.0332204 219.74001
4.675878 -3.8875062 -1.8974621 219.74001
23.673632 -19.682163 2.1528244 219.74001
5.0677185 -4.2132807 -1.8897697 219.74001
24.042271 -19.988647 2.9169924 219.74001
5.5196333 -4.5890012 -1.8791257 219.74001
6.1011205 -5.0724473 -1.8799802 219.74001
16.960983 -14.101294 3.0999417 219.74001
6.8370428 -5.6842904 -1.8899173 219.74001
17.676559 -14.696221 3.7767596 219.74001
6.6618819 -5.538662 -1.6323009 219.74001
6.5886598 -5.5128837 -1.4114212 219.92
6.5785933 -5.5044603 -1.2055174 219.92
6.6074214 -5.5285821 -1.0074911 219.92
3.3462358 -2.7998726 -1.9425743 219.92
3.5780671 -2.9938514 -1.9486984 219.92
3.8363624 -3.2099729 -1.9532785 219.92
4.0661273 -3.4022224 -1.9296776 219.92
16.559933 -13.856078 0.50130671 219.92
4.3682184 -3.654989 -1.9245434 219.92
16.992289 -14.21784 1.0332204 219.92
4.6724272 -3.9095278 -1.9010366 219.92
24.405828 -20.420919 2.2252314 219.92
5.0529828 -4.2279472 -1.8892184 219.92
16.879169 -14.12319 2.0532832 219.92
5.5066733 -4.6075606 -1.8796322 219.92
16.764599 -14.027327 2.5562446 219.92
6.080677 -5.0878429 -1.8785969 219.92
16.945459 -14.178657 3.1052303 219.92
6.7906446 -5.6818891 -1.8820167 219.92
17.046057 -14.26283 3.6516025 219.92
6.6308827 -5.5482125 -1.6289681 219.92
17.625576 -14.747726 4.329967 219.92
6.5496264 -5.5133443 -1.4065576 220.09
6.5425348 -5.5073743 -1.2018989 220.09
6.5803509 -5.5392075 -1.0058651 220.09
3.3379138 -2.8097889 -1.9425743 220.09
3.5691686 -3.0044544 -1.9486984 220.09
34.065426 -28.675592 -1.0338088 220.09
3.8268213 -3.2213416 -1.9532785 220.09
43.948132 -36.994656 0 220.09
4.0617661 -3.4191132 -1.9324138 220.09
16.642651 -14.00945 0.50506687 220.09
4.3602538 -3.6703742 -1.9258238 220.09
16.983654 -14.296499 1.0352701 220.09
4.6593466 -3.9221444 -1.9004409 220.09
24.177233 -20.35191 2.2098851 220.09
5.0418868 -4.2441592 -1.8897697 220.09
16.735119 -14.087288 2.0408359 220.09
5.498899 -4.6288629 -1.8816583 220.09
16.450876 -13.848019 2.5146625 220.09
6.068532 -5.1083684 -1.8795191 220.09
16.813921 -14.153621 3.0888078 220.09
6.8081789 -5.7309885 -1.8915806 220.09
17.03537 -14.340033 3.6584115 220.09
6.5948448 -5.5514078 -1.6241542 220.09
17.556181 -14.77844 4.3236718 220.09
6.5136604 -5.5161729 -1.4023424 220.25999
6.5050058 -5.5088434 -1.1980021 220.25999
6.5441799 -5.5420184 -1.0028452 220.25999
3.3365338 -2.8255842 -1.9466416 220.25999
3.5658717 -3.0198019 -1.9517819 220.25999
3.815825 -3.2314777 -1.952551 220.25999
4.054472 -3.4335787 -1.9337819 220.25999
16.907701 -14.318493 0.51439762 220.25999
4.3435607 -3.6783972 -1.9232628 220.25999
24.170731 -20.469276 1.4770674 220.25999
4.6535163 -3.940887 -1.9028239 220.25999
23.816805 -20.16955 2.1824009 220.25999
5.0336733 -4.2628274 -1.8914236 220.25999
16.238874 -13.752089 1.9852865 220.25999
5.4821877 -4.6426573 -1.8806453 220.25999
16.430939 -13.914741 2.5179148 220.25999
6.0919619 -5.1590519 -1.8915082 220.25999
16.830795 -14.253364 3.0996633 220.25999
6.7881589 -5.7486348 -1.8907489 220.25999
17.372272 -14.71192 3.7401202 220.25999
6.5498471 -5.5468178 -1.6171184 220.25999
17.584248 -14.891434 4.3414464 220.25999
6.4767723 -5.5199666 -1.3981273 220.44
6.4695787 -5.5138359 -1.1946619 220.44
6.5025468 -5.5419335 -0.99912828 220.44
3.3248594 -2.8336818 -1.9450146 220.44
3.5591762 -3.0333836 -1.9533235 220.44
3.805654 -3.2434494 -1.952551 220.44
4.0465255 -3.4487374 -1.93515 220.44
16.69372 -14.227577 0.50924486 220.44
4.3377514 -3.6969407 -1.9258238 220.44
24.136717 -20.571028 1.4789306 220.44
4.646925 -3.9604406 -1.9052069 220.44
24.805618 -21.141113 2.2790835 220.44
5.0231829 -4.2811141 -1.892526 220.44
16.091017 -13.71391 1.9724673 220.44
5.471993 -4.6636224 -1.8821647 220.44
16.393192 -13.971445 2.5188441 220.44
6.1068282 -5.2046742 -1.9011917 220.44
6.776021 -5.7750077 -1.8924122 220.44
17.279404 -14.726739 3.7300689 220.44
6.511447 -5.5495191 -1.6119342 220.44
17.502974 -14.91728 4.3329291 220.44
6.435431 -5.5197291 -1.3929394 220.62
6.4311786 -5.5160818 -1.190765 220.62
6.4700265 -5.5494022 -0.99680531 220.62
7.2615008 -6.2282572 -0.66896456 220.62
3.3173275 -2.8453028 -1.9458281 220.62
34.461102 -29.55761 -2.1172168 220.62
3.5482283 -3.0433486 -1.9525527 220.62
3.79686 -3.2566023 -1.9532785 220.62
34.131176 -29.27463 0 220.62
4.0313916 -3.4577622 -1.9330978 220.62
16.563951 -14.207055 0.5066452 220.62
4.3261156 -3.7105498 -1.9258238 220.62
24.696745 -21.182629 1.5173154 220.62
4.6286635 -3.970048 -1.9028239 220.62
16.953598 -14.54126 1.5618474 220.62
5.0111675 -4.2981253 -1.8930774 220.62
16.03425 -13.752726 1.9707953 220.62
5.4631891 -4.6858287 -1.8841908 220.62
16.52714 -14.175483 2.5462556 220.62
6.1140823 -5.2441053 -1.9085696 220.62
16.398151 -14.064848 3.0362003 220.62
6.7608151 -5.7988143 -1.8932439 220.62
17.189611 -14.74369 3.7206659 220.62
6.4775705 -5.5558724 -1.6078608 220.62
16.747398 -14.364401 4.1570349 220.62
6.4010949 -5.5233278 -1.3890486 220.78999
6.3952904 -5.5183191 -1.1871465 220.78999
6.432477 -5.5504065 -0.9935531 220.78999
7.279242 -6.2810564 -0.67231292 220.78999
3.3102539 -2.8563266 -1.9466416 220.78999
3.5419774 -3.0562742 -1.9540944 220.78999
34.331703 -29.623875 -1.0527952 220.78999
3.7900016 -3.2702875 -1.9547335 220.78999
34.242531 -29.54693 0 220.78999
4.025383 -3.4733915 -1.93515 220.78999
23.362633 -20.15897 0.71642441 220.78999
4.3179564 -3.7258451 -1.9271042 220.78999
23.844221 -20.574518 1.4686823 220.78999
4.6168637 -3.9837639 -1.9028239 220.78999
16.144541 -13.930677 1.4911144 220.78999
5.0013041 -4.3154869 -1.8941799 220.78999
17.338217 -14.960667 2.1365144 220.78999
5.4521918 -4.7045455 -1.8852038 220.78999
16.466961 -14.208884 2.543468 220.78999
6.1250176 -5.2851081 -1.9168696 220.78999
16.398335 -14.149669 3.0439939 220.78999
6.5999103 -5.69488 -1.852909 220.78999
16.788679 -14.486487 3.6431723 220.78999
6.4446888 -5.5609436 -1.6037874 220.78999
16.777618 -14.476943 4.17518 220.78999
