# .PCD v0.7 - Point Cloud Data file format
VERSION 0.7
FIELDS x y z intensity
SIZE 4 4 4 4
TYPE F F F F
COUNT 1 1 1 1
WIDTH 1210
HEIGHT 1
VIEWPOINT 0 0 0 1 0 0 0
POINTS 1210
DATA ascii
4.8726759 -0.69088167 -0.92724168 188.07001
5.1784582 -0.74899518 -0.61188185 188.23
5.3350754 -0.77164775 -0.50291693 188.23
5.9632349 -0.86250269 -0.42132911 188.23
4.3109264 -0.62351823 -1.9393203 188.23
4.5734916 -0.66149479 -1.9301981 188.23
12.892335 -1.864705 -0.30243665 188.23
4.8178902 -0.69684374 -1.9009001 188.23
53.067791 -7.6755509 0 188.23
5.1132231 -0.73955977 -1.8804268 188.23
52.052185 -7.528657 1.2210735 188.23
4.8099976 -0.69570225 -1.6422001 188.23
46.151085 -6.6751413 2.1746075 188.23
4.7522125 -0.68734443 -1.49831 188.23
45.786587 -6.6224213 3.2350261 188.23
4.8138919 -0.69626552 -1.394725 188.23
45.299854 -6.5520225 4.2702422 188.23
4.8025069 -0.69461882 -1.2703093 188.23
45.340019 -6.5578313 5.3573346 188.23
4.815186 -0.69645268 -1.1527963 188.23
4.8345618 -0.69925517 -1.038311 188.23
4.8687825 -0.70420468 -0.92687136 188.23
5.2035913 -0.76932752 -0.61513412 188.41
5.3464146 -0.7904433 -0.50421745 188.41
5.9644432 -0.88181609 -0.42160812 188.41
4.3161759 -0.63812721 -1.9425743 188.41
4.5805187 -0.67720908 -1.9340523 188.41
4.8156772 -0.71197617 -1.9009001 188.41
53.061222 -7.8448625 0 188.41
5.0960011 -0.75342083 -1.8749545 188.41
46.931072 -6.9385476 1.1014451 188.41
4.8077884 -0.71080983 -1.6422001 188.41
45.452 -6.7198734 2.1426513 188.41
4.742475 -0.70115358 -1.495927 188.41
45.495163 -6.7262549 3.2159131 188.41
4.8135829 -0.71166652 -1.3952763 188.41
4.796473 -0.70913696 -1.2692963 188.41
4.812974 -0.71157652 -1.1527963 188.41
4.8304062 -0.71415377 -1.0378952 188.41
4.8704348 -0.72007179 -0.92761201 188.41
5.1895003 -0.78298533 -0.61374027 188.58
5.3342004 -0.8048175 -0.50328851 188.58
5.9618006 -0.89950901 -0.42160812 188.58
4.3142638 -0.6509307 -1.9425743 188.58
4.5748396 -0.69024611 -1.9325106 188.58
12.864887 -1.9410381 -0.30206528 188.58
4.8153853 -0.72653931 -1.9016275 188.58
82.575401 -12.458873 0 188.58
5.123477 -0.77302378 -1.8858991 188.58
46.528702 -7.0201921 1.0924857 188.58
4.8075318 -0.72535437 -1.6428404 188.58
43.997669 -6.6383138 2.0750122 188.58
4.7403741 -0.7152217 -1.495927 188.58
4.8133512 -0.72623241 -1.3958275 188.58
4.7962613 -0.72365391 -1.2698028 188.58
4.8127661 -0.72614413 -1.1532574 188.58
4.8340688 -0.72935832 -1.0391426 188.58
4.8682766 -0.73451948 -0.92761201 188.58
5.2028608 -0.80079693 -0.61559868 188.75
5.331789 -0.8206408 -0.50328851 188.75
5.945302 -0.91506952 -0.42063153 188.75
4.3068957 -0.66289467 -1.9401338 188.75
11.940268 -1.837783 -0.56337994 188.75
4.5727715 -0.70381689 -1.9325106 188.75
12.865 -1.9801129 -0.30220455 188.75
4.8168912 -0.74139047 -1.9030825 188.75
5.1267333 -0.78907973 -1.8879511 188.75
46.327835 -7.1305356 1.0882614 188.75
4.8016129 -0.73903888 -1.64156 188.75
44.443783 -6.8405523 2.0969996 188.75
4.7476659 -0.73073566 -1.4989057 188.75
45.562901 -7.0128012 3.2235861 188.75
4.8016744 -0.73904836 -1.3930712 188.75
45.151928 -6.9495463 4.2620678 188.75
4.7921805 -0.73758715 -1.2692963 188.75
45.198135 -6.9566588 5.3478103 188.75
4.8125138 -0.7407167 -1.1537186 188.75
4.833817 -0.74399561 -1.0395584 188.75
4.866076 -0.74896067 -0.92761201 188.75
5.1829419 -0.81255388 -0.61350799 188.91
5.3275094 -0.83521831 -0.50310272 188.91
5.9427238 -0.93166834 -0.42063153 188.91
4.3086381 -0.67548513 -1.9417608 188.91
4.5653186 -0.7157262 -1.9301981 188.91
12.865346 -2.0169601 -0.30234382 188.91
4.8055997 -0.75339615 -1.8994452 188.91
5.1096559 -0.80106449 -1.8824788 188.91
44.490433 -6.9749718 1.0455534 188.91
4.8014021 -0.75273812 -1.6422001 188.91
44.55872 -6.9856772 2.1033349 188.91
4.7493792 -0.74458218 -1.5000973 188.91
45.994511 -7.210773 3.2555346 188.91
4.8014913 -0.75275201 -1.3936225 188.91
44.882496 -7.036437 4.2384734 188.91
4.7901025 -0.75096655 -1.2692963 188.91
45.482719 -7.130537 5.3838172 188.91
4.8104267 -0.75415289 -1.1537186 188.91
4.8317208 -0.75749129 -1.0395584 188.91
4.8678489 -0.76315522 -0.92835259 188.91
5.1959109 -0.83225006 -0.6153664 189.10001
5.3247104 -0.85288042 -0.50310272 189.10001
5.9455113 -0.95231664 -0.42105007 189.10001
4.3190031 -0.69179219 -1.947455 189.10001
4.570209 -0.7320289 -1.9332815 189.10001
12.86451 -2.0605607 -0.30248308 189.10001
4.8122725 -0.77080119 -1.9030825 189.10001
5.10326 -0.81740981 -1.8811108 189.10001
44.702 -7.1601005 1.0510776 189.10001
4.7951379 -0.76805663 -1.6409197 189.10001
44.359741 -7.105279 2.0950429 189.10001
4.7412281 -0.75942171 -1.49831 189.10001
45.960499 -7.3616791 3.254837 189.10001
4.7932734 -0.76775801 -1.3919686 189.10001
44.941498 -7.1984615 4.2462759 189.10001
4.8066902 -0.769907 -1.2743613 189.10001
45.576511 -7.3001747 5.3977551 189.10001
4.813664 -0.77102405 -1.1551019 189.10001
4.8291821 -0.77350968 -1.0395584 189.10001
4.8594694 -0.77836084 -0.92724168 189.10001
5.1875367 -0.84670299 -0.6146695 189.27
5.3221564 -0.86867535 -0.50310272 189.27
5.9505358 -0.97123867 -0.42160812 189.27
4.3133249 -0.7040152 -1.9458281 189.27
4.5643744 -0.74499118 -1.9317398 189.27
12.86426 -2.0996876 -0.30262235 189.27
4.8118029 -0.78537613 -1.90381 189.27
5.0971026 -0.83194238 -1.8797427 189.27
46.38356 -7.5706635 1.0911394 189.27
4.7947078 -0.78258592 -1.64156 189.27
45.361794 -7.4038925 2.1433966 189.27
4.7389541 -0.7734859 -1.49831 189.27
4.8004613 -0.78352505 -1.394725 189.27
45.014278 -7.3471713 4.2551937 189.27
4.802475 -0.78385371 -1.2738547 189.27
4.8094344 -0.7849896 -1.1546408 189.27
4.8307276 -0.78846496 -1.0403901 189.27
4.8590779 -0.79309237 -0.92761201 189.27
5.1752043 -0.86046189 -0.61350799 189.44
5.3175912 -0.88413602 -0.50291693 189.44
5.9200745 -0.98430872 -0.41965494 189.44
4.3040075 -0.71561134 -1.9425743 189.44
4.5494003 -0.75641185 -1.9263439 189.44
12.863891 -2.1388311 -0.30276161 189.44
4.8112893 -0.79995513 -1.9045374 189.44
5.0593872 -0.84120542 -1.8667459 189.44
44.676476 -7.4281912 1.0514954 189.44
4.7942338 -0.79711944 -1.6422001 189.44
45.605682 -7.5826869 2.1559741 189.44
4.7366385 -0.78754324 -1.49831 189.44
45.266525 -7.5262966 3.2087977 189.44
4.7981157 -0.79776478 -1.394725 189.44
45.035496 -7.4878845 4.2592812 189.44
4.7848597 -0.79556078 -1.2698028 189.44
46.141815 -7.6718273 5.4700007 189.44
4.8147631 -0.80053276 -1.1564852 189.44
4.8283668 -0.80279458 -1.0403901 189.44
4.8567038 -0.80750602 -0.92761201 189.44
5.1959777 -0.88069957 -0.61629558 189.62
5.3226404 -0.90216845 -0.50366008 189.62
4.3071423 -0.7300452 -1.9450146 189.62
4.5542798 -0.77193409 -1.9294273 189.62
12.868936 -2.1812384 -0.30304015 189.62
4.8124261 -0.81568897 -1.9059924 189.62
5.0974846 -0.86400533 -1.8817948 189.62
45.705616 -7.7469382 1.0762845 189.62
4.7935743 -0.81249362 -1.6428404 189.62
46.574383 -7.8941903 2.2029302 189.62
4.7360234 -0.80273896 -1.4989057 189.62
45.264297 -7.6721358 3.2103324 189.62
4.8031678 -0.8141197 -1.3969301 189.62
44.968559 -7.6220093 4.2551937 189.62
4.8033199 -0.81414551 -1.2753743 189.62
45.896172 -7.7792363 5.4437509 189.62
4.8103056 -0.81532955 -1.1560241 189.62
4.8277497 -0.81828624 -1.0408059 189.62
4.8580184 -0.82341671 -0.92835259 189.62
5.1933417 -0.89611244 -0.61629558 189.78999
5.3219028 -0.91829568 -0.50384587 189.78999
5.9218154 -1.0218108 -0.42021298 189.78999
4.3067579 -0.74313217 -1.9458281 189.78999
5.2388053 -0.90395725 -0.247917 189.78999
4.5610623 -0.78701252 -1.9332815 189.78999
12.868318 -2.2204316 -0.30317938 189.78999
4.8118205 -0.8302809 -1.9067199 189.78999
5.1152706 -0.88264126 -1.8893193 189.78999
45.719868 -7.8889747 1.0771666 189.78999
4.7855411 -0.8257463 -1.6409197 189.78999
43.879181 -7.5713634 2.0765028 189.78999
4.748672 -0.81938457 -1.5036718 189.78999
45.644379 -7.8759494 3.2389326 189.78999
4.7969418 -0.82771355 -1.3958275 189.78999
45.736572 -7.8918576 4.3300648 189.78999
4.7856302 -0.82576174 -1.2713223 189.78999
4.8136187 -0.83059114 -1.1574075 189.78999
4.8272281 -0.83293951 -1.0412217 189.78999
4.8536172 -0.83749288 -0.92798233 189.78999
5.2025585 -0.91267091 -0.61768943 189.95
5.3232403 -0.93384182 -0.50421745 189.95
5.9248343 -1.0393778 -0.42063153 189.95
4.3064656 -0.75547171 -1.9466416 189.95
4.5533938 -0.79878968 -1.930969 189.95
12.875853 -2.2587764 -0.30350435 189.95
4.8131533 -0.84435856 -1.9081749 189.95
45.830139 -8.0398588 0 189.95
5.1238923 -0.89887077 -1.8934236 189.95
44.478607 -7.802763 1.0484316 189.95
4.7869487 -0.83976161 -1.6422001 189.95
44.025127 -7.7232099 2.0844221 189.95
4.7388434 -0.83132255 -1.5012888 189.95
45.958244 -8.0623312 3.2627892 189.95
4.7832503 -0.83911276 -1.39252 189.95
46.136059 -8.0935249 4.370008 189.95
4.7966456 -0.84146267 -1.2748678 189.95
4.8112807 -0.84403008 -1.1574075 189.95
4.8287373 -0.84709245 -1.0420533 189.95
4.8570671 -0.85206223 -0.92909324 189.95
5.1918435 -0.9276132 -0.61676019 190.13
5.3222408 -0.95091087 -0.50440323 190.13
5.935288 -1.0604424 -0.42160812 190.13
4.3004737 -0.76835442 -1.9450146 190.13
4.5490451 -0.81276602 -1.9301981 190.13
12.864757 -2.2985125 -0.30341151 190.13
4.8104768 -0.85947531 -1.9081749 190.13
45.692432 -8.1637478 0 190.13
5.1265936 -0.91595513 -1.8954756 190.13
44.719597 -7.9899335 1.0546985 190.13
4.784287 -0.85479611 -1.6422001 190.13
44.397915 -7.9324598 2.1032417 190.13
4.7380877 -0.84654176 -1.5018845 190.13
45.671471 -8.1600027 3.2442341 190.13
4.7976232 -0.85717887 -1.3974814 190.13
44.585281 -7.9659362 4.2254682 190.13
4.7749319 -0.85312462 -1.2698028 190.13
4.8086052 -0.85914099 -1.1574075 190.13
4.8260522 -0.86225814 -1.0420533 190.13
4.8524313 -0.86697125 -0.92872292 190.13
5.1908584 -0.94427472 -0.61699253 190.31
5.3211861 -0.96798289 -0.50458896 190.31
5.935853 -1.0797976 -0.42188716 190.31
4.2962408 -0.78153396 -1.9442011 190.31
4.5464692 -0.82705325 -1.9301981 190.31
12.87321 -2.3417797 -0.30378288 190.31
4.8114185 -0.87525052 -1.9096298 190.31
45.554398 -8.2868509 0 190.31
5.138483 -0.9347471 -1.9009479 190.31
44.776894 -8.1454144 1.0566483 190.31
4.7853065 -0.87050033 -1.6434807 190.31
43.761482 -7.9606996 2.0742669 190.31
4.735405 -0.86142272 -1.5018845 190.31
45.584763 -8.2923746 3.2399092 190.31
4.7967982 -0.87259084 -1.3980327 190.31
44.42485 -8.0813742 4.2126493 190.31
4.7912641 -0.87158412 -1.2748678 190.31
45.525547 -8.2816029 5.4112287 190.31
4.8058825 -0.87424338 -1.1574075 190.31
4.8271689 -0.87811559 -1.0428851 190.31
4.855485 -0.88326663 -0.92983383 190.31
5.1940613 -0.9598496 -0.61768943 190.47
5.3262954 -0.98428613 -0.50533211 190.47
5.9230051 -1.0945566 -0.42118958 190.47
4.2994318 -0.79452431 -1.9466416 190.47
4.5459566 -0.84008145 -1.930969 190.47
12.874485 -2.3791728 -0.30396858 190.47
4.8126197 -0.88936019 -1.9110848 190.47
5.1543336 -0.95250803 -1.9077884 190.47
45.280907 -8.3677988 1.0690892 190.47
4.7903094 -0.88523728 -1.6460415 190.47
37.965225 -7.0158792 1.8004495 190.47
4.7367353 -0.87533695 -1.503076 190.47
4.7981238 -0.88668138 -1.3991352 190.47
46.734325 -8.6363869 4.433918 190.47
4.7945189 -0.88601518 -1.2763873 190.47
45.517868 -8.4115887 5.4130874 190.47
4.8110771 -0.8890751 -1.1592519 190.47
4.8323927 -0.89301419 -1.0445484 190.47
4.8549323 -0.89717937 -0.93020415 190.47
5.2029042 -0.97745711 -0.61908323 190.64
5.3253083 -1.0004529 -0.5055179 190.64
5.9275746 -1.1135992 -0.42174765 190.64
4.29526 -0.80694008 -1.9458281 190.64
4.538003 -0.85254365 -1.9286565 190.64
12.873264 -2.4184692 -0.30410782 190.64
4.8099599 -0.90363556 -1.9110848 190.64
5.1293201 -0.963633 -1.8995799 190.64
4.7951107 -0.90084589 -1.6486025 190.64
37.814651 -7.1041474 1.7943004 190.64
4.7416229 -0.89079732 -1.505459 190.64
38.530216 -7.2385788 2.7414293 190.64
4.7841353 -0.89878392 -1.3958275 190.64
46.289673 -8.6963291 4.3941603 190.64
4.7861643 -0.89916515 -1.2748678 190.64
46.027645 -8.6471024 5.4767375 190.64
4.8122435 -0.9040646 -1.1601743 190.64
4.8201084 -0.90554219 -1.0424693 190.64
4.8541803 -0.91194314 -0.93057442 190.64
5.2017589 -0.99417055 -0.61931551 190.82001
5.3221393 -1.0171778 -0.5055179 190.82001
5.9456034 -1.1363355 -0.4232823 190.82001
4.2998819 -0.82180202 -1.949082 190.82001
4.5353022 -0.86679596 -1.9286565 190.82001
12.875422 -2.4607763 -0.30433995 190.82001
4.8089271 -0.91909176 -1.9118123 190.82001
68.441216 -13.080622 0 190.82001
5.0727344 -0.96951109 -1.8797427 190.82001
46.411224 -8.8702059 1.0970349 190.82001
4.7922568 -0.91590571 -1.6486025 190.82001
37.831394 -7.2304115 1.7961638 190.82001
4.7519279 -0.90819794 -1.5096292 190.82001
38.685616 -7.3936715 2.7541251 190.82001
4.7982831 -0.91705739 -1.400789 190.82001
46.025452 -8.7964764 4.3716803 190.82001
4.7890172 -0.91528654 -1.2763873 190.82001
46.117321 -8.8140345 5.4906759 190.82001
4.8112912 -0.91954356 -1.1606354 190.82001
4.8191614 -0.92104775 -1.0428851 190.82001
4.8512917 -0.92718852 -0.93057442 190.82001
5.1929364 -1.008464 -0.61861861 190.99001
5.3249621 -1.0341033 -0.50607526 190.99001
5.9304543 -1.1516894 -0.42244521 190.99001
4.2956309 -0.83420807 -1.9482685 190.99001
4.5363336 -0.8809523 -1.9301981 190.99001
12.877878 -2.5008736 -0.30457205 190.99001
4.8116655 -0.93442154 -1.9139947 190.99001
68.510086 -13.304603 0 190.99001
5.1971345 -1.0092794 -1.9269415 190.99001
44.555378 -8.6526184 1.0537701 190.99001
4.7950983 -0.9312042 -1.6505232 190.99001
4.7398415 -0.92047334 -1.5066504 190.99001
46.360561 -9.0031834 3.3024111 190.99001
4.787992 -0.92982411 -1.3985839 190.99001
46.028473 -8.9386921 4.3744669 190.99001
4.7824817 -0.92875409 -1.2753743 190.99001
46.161167 -8.9644613 5.4990387 190.99001
4.8123622 -0.93455684 -1.1615576 190.99001
4.8240891 -0.93683422 -1.0445484 190.99001
4.8523779 -0.94232786 -0.93131506 190.99001
5.2466197 -1.0341015 -0.62535536 191.14999
5.3259611 -1.0497396 -0.50644684 191.14999
5.9291725 -1.1686317 -0.42258471 191.14999
4.2932849 -0.84620047 -1.9482685 191.14999
4.5302343 -0.89290291 -1.9286565 191.14999
12.882615 -2.5391455 -0.30485058 191.14999
4.8108654 -0.94821483 -1.9147222 191.14999
5.2182665 -1.0285131 -1.9358341 191.14999
38.332008 -7.5551853 0.90707785 191.14999
4.792479 -0.94459099 -1.6505232 191.14999
37.665634 -7.4238443 1.7902943 191.14999
4.7409987 -0.93444431 -1.5078419 191.14999
4.7948079 -0.94504994 -1.4013404 191.14999
46.136189 -9.0933781 4.3871002 191.14999
4.7836661 -0.94285393 -1.2763873 191.14999
46.069687 -9.0802717 5.4911404 191.14999
4.8097339 -0.94799185 -1.1615576 191.14999
4.8233738 -0.95068026 -1.0449642 191.14999
4.8497276 -0.95587456 -0.93131506 191.14999
5.2022605 -1.0432917 -0.62047702 191.34
5.3263559 -1.0681784 -0.50681841 191.34
5.9448261 -1.1922101 -0.42397985 191.34
4.2922463 -0.8607921 -1.949082 191.34
10.679522 -2.1417334 -0.50794566 191.34
4.5218201 -0.90683216 -1.9263439 191.34
12.880005 -2.5830312 -0.30498984 191.34
4.8095207 -0.96452934 -1.9154496 191.34
5.2369399 -1.0502464 -1.9440424 191.34
4.7893205 -0.96047825 -1.6505232 191.34
37.668232 -7.5542068 1.7915986 191.34
4.7416182 -0.9509117 -1.5090334 191.34
36.95808 -7.4117885 2.635818 191.34
4.7935324 -0.96132296 -1.4018916 191.34
46.111637 -9.2474966 4.3876576 191.34
4.7843075 -0.95947284 -1.2774003 191.34
46.031532 -9.231432 5.490211 191.34
4.8141961 -0.96546698 -1.1634021 191.34
4.8201947 -0.96666992 -1.0449642 191.34
4.8523121 -0.97311091 -0.93242598 191.34
5.1950645 -1.0588365 -0.6200124 191.52
5.3268762 -1.0857017 -0.50718999 191.52
5.9449615 -1.2116773 -0.42425889 191.52
4.2895212 -0.87427235 -1.949082 191.52
10.666868 -2.1740766 -0.50766617 191.52
4.5261822 -0.92250764 -1.9294273 191.52
12.881622 -2.6254787 -0.30522195 191.52
4.8028159 -0.97889 -1.9139947 191.52
5.2188821 -1.0636909 -1.9385701 191.52
44.712456 -9.1131067 1.0594335 191.52
4.7937059 -0.9770332 -1.6530842 191.52
46.518036 -9.4811125 2.2139239 191.52
4.7517023 -0.96847224 -1.5132037 191.52
37.02063 -7.5453906 2.6419566 191.52
4.7829537 -0.97484171 -1.3996865 191.52
4.7831655 -0.97488487 -1.2779068 191.52
4.8130465 -0.98097509 -1.1638632 191.52
4.8248014 -0.98337096 -1.0466274 191.52
4.8511567 -0.98874259 -0.93279624 191.52
5.1959782 -1.0741439 -0.62047702 191.67999
5.3218737 -1.1001698 -0.5070042 191.67999
5.9552312 -1.2311014 -0.42523545 191.67999
4.274538 -0.88365829 -1.9433876 191.67999
10.635321 -2.1985977 -0.506455 191.67999
4.5163593 -0.93364906 -1.9263439 191.67999
12.884031 -2.6634645 -0.30545405 191.67999
4.8055372 -0.9934296 -1.9161772 191.67999
5.217732 -1.0786411 -1.9392542 191.67999
44.489067 -9.1970482 1.054745 191.67999
4.7965255 -0.99156666 -1.6550049 191.67999
46.362251 -9.5842848 2.2077749 191.67999
4.7527189 -0.98251069 -1.5143952 191.67999
37.132275 -7.676208 2.6514435 191.67999
4.7952743 -0.99130809 -1.4040967 191.67999
4.7804241 -0.98823816 -1.2779068 191.67999
4.8179116 -0.99598771 -1.1657076 191.67999
4.8258681 -0.99763256 -1.0474591 191.67999
4.8503017 -1.0026836 -0.93316656 191.67999
5.1945219 -1.0908705 -0.62070936 191.86
5.3242373 -1.1181113 -0.5075615 191.86
5.9513345 -1.2498041 -0.42523545 191.86
4.2842574 -0.89971131 -1.949082 191.86
10.636182 -2.2336411 -0.50682771 191.86
4.5152102 -0.94821227 -1.9271147 191.86
12.891254 -2.7072153 -0.30582544 191.86
4.8023925 -1.0085218 -1.9161772 191.86
100.47632 -21.100431 0 191.86
5.2143173 -1.0950277 -1.9392542 191.86
44.551922 -9.3560829 1.0569267 191.86
4.7970953 -1.0074093 -1.6562853 191.86
37.074135 -7.7857175 1.7666299 191.86
4.7533455 -0.9982217 -1.5155867 191.86
4.7902551 -1.0059729 -1.4035454 191.86
4.7791896 -1.003649 -1.2784133 191.86
4.8128543 -1.0107187 -1.1652465 191.86
4.8246245 -1.0131906 -1.0478749 191.86
4.8509746 -1.0187242 -0.93390715 191.86
5.2048621 -1.1091763 -0.62233543 192.03
5.3247919 -1.1347338 -0.50793308 192.03
5.9651618 -1.2711991 -0.42649108 192.03
4.2654867 -0.90899169 -1.9417608 192.03
10.658817 -2.2714353 -0.5082252 192.03
4.5123768 -0.96160501 -1.9271147 192.03
12.90272 -2.7496197 -0.30628964 192.03
4.8048453 -1.0239311 -1.9183595 192.03
5.2183981 -1.1120609 -1.9419904 192.03
44.525925 -9.4886465 1.0569731 192.03
4.8014975 -1.0232178 -1.6588463 192.03
37.181786 -7.9235826 1.7728721 192.03
4.7522302 -1.0127187 -1.5161824 192.03
37.660328 -8.0255623 2.6925998 192.03
4.7966504 -1.0221848 -1.4063017 192.03
4.7761908 -1.0178248 -1.2784133 192.03
4.8136406 -1.0258055 -1.1661687 192.03
4.8254237 -1.0283165 -1.0487065 192.03
4.8517752 -1.0339321 -0.9346478 192.03
5.1821322 -1.1204166 -0.6200124 192.2
5.3252945 -1.1513693 -0.50830466 192.2
5.9672141 -1.2901573 -0.42690963 192.2
4.2663422 -0.92241585 -1.9433876 192.2
4.5239344 -0.97810918 -1.9332815 192.2
12.916002 -2.7925386 -0.30680028 192.2
4.803607 -1.0385766 -1.9190871 192.2
5.2205863 -1.1287308 -1.9440424 192.2
38.349331 -8.291419 0.91093081 192.2
4.8039966 -1.0386608 -1.660767 192.2
59.715813 -12.911016 2.8491356 192.2
4.7436061 -1.025604 -1.5143952 192.2
60.615974 -13.105638 4.3366203 192.2
4.7898383 -1.0355997 -1.4051993 192.2
4.7769318 -1.0328093 -1.2794263 192.2
4.8181849 -1.0417284 -1.1680132 192.2
4.8280878 -1.0438696 -1.0499541 192.2
4.8506069 -1.0487384 -0.93501806 192.2
7.2585588 -1.5932417 -0.86903954 192.38
5.3294311 -1.1698014 -0.50904781 192.38
5.986516 -1.3140304 -0.42858377 192.38
4.2777004 -0.93894815 -1.9498955 192.38
4.513629 -0.99073404 -1.9301981 192.38
12.918883 -2.8356736 -0.30707881 192.38
4.7985005 -1.0532629 -1.9183595 192.38
61.347538 -13.465683 0 192.38
5.2133431 -1.1443202 -1.9426744 192.38
38.030148 -8.3475542 0.90396762 192.38
4.8025603 -1.054154 -1.6614071 192.38
36.270184 -7.9612451 1.7316923 192.38
4.7496848 -1.0425479 -1.5173739 192.38
37.063004 -8.1352682 2.6533968 192.38
4.7921948 -1.0518788 -1.4068531 192.38
4.7736635 -1.0478113 -1.2794263 192.38
38.192322 -8.3831511 4.5726209 192.38
4.8186898 -1.0576944 -1.1689354 192.38
4.8286061 -1.0598711 -1.0507857 192.38
4.8511281 -1.0648146 -0.93575871 192.38
5.1732526 -1.1516198 -0.61978012 192.55
5.3239927 -1.1851761 -0.50886202 192.55
6.0137506 -1.3387233 -0.43081599 192.55
4.2659783 -0.94965112 -1.9458281 192.55
4.5178747 -1.005726 -1.9332815 192.55
12.933833 -2.8792057 -0.30763587 192.55
4.797173 -1.0679005 -1.9190871 192.55
61.176514 -13.618528 0 192.55
5.2062559 -1.1589667 -1.9413064 192.55
53.86853 -11.991694 1.2812823 192.55
4.7994113 -1.0683988 -1.6614071 192.55
4.7428436 -1.0558063 -1.5161824 192.55
4.7946825 -1.0673462 -1.4085069 192.55
37.345703 -8.3135414 3.5694654 192.55
4.7705336 -1.0619704 -1.2794263 192.55
4.81743 -1.07241 -1.1693965 192.55
4.8292594 -1.0750433 -1.0516174 192.55
4.8517842 -1.0800576 -0.9364993 192.55
5.1833768 -1.1700258 -0.62140626 192.72
5.3262806 -1.2022829 -0.50941938 192.72
5.974721 -1.3486532 -0.42830476 192.72
4.2524486 -0.95989054 -1.9409473 192.72
4.5166712 -1.0195327 -1.9340523 192.72
12.95839 -2.9250529 -0.30842504 192.72
4.7939835 -1.0821294 -1.9190871 192.72
38.050655 -8.5890436 0 192.72
5.2009611 -1.173995 -1.9406223 192.72
53.815159 -12.147511 1.2808645 192.72
4.8054614 -1.0847203 -1.6646084 192.72
37.253216 -8.4090395 1.7809776 192.72
4.7583137 -1.0740777 -1.5221399 192.72
36.940125 -8.3383665 2.6480954 192.72
4.7952452 -1.0824142 -1.4096094 192.72
37.862823 -8.5466442 3.6212993 192.72
4.7711363 -1.0769721 -1.2804394 192.72
37.566402 -8.4797344 4.5036273 192.72
4.8180237 -1.0875559 -1.1703188 192.72
4.8317733 -1.0906595 -1.0528648 192.72
4.8504753 -1.0948811 -0.93686962 192.72
5.1934371 -1.188502 -0.62303233 192.89
5.3207488 -1.2176368 -0.50923359 192.89
5.9784722 -1.3681549 -0.42886281 192.89
4.2531438 -0.97331876 -1.9425743 192.89
4.5154252 -1.0333411 -1.9348232 192.89
12.97889 -2.9701788 -0.30912137 192.89
4.7961998 -1.0975955 -1.9212694 192.89
93.292274 -21.349648 0 192.89
5.202951 -1.1906792 -1.9426744 192.89
37.239029 -8.5220356 0.88693088 192.89
4.804069 -1.0993962 -1.6652486 192.89
38.305058 -8.7659941 1.8324988 192.89
4.7625499 -1.0898948 -1.5245229 192.89
37.751507 -8.6393147 2.7080858 192.89
4.7938867 -1.097066 -1.4101607 192.89
37.92659 -8.6793823 3.6298451 192.89
4.7698059 -1.0915552 -1.2809458 192.89
4.820467 -1.1031488 -1.1717021 192.89
4.8304229 -1.1054273 -1.0532806 192.89
4.852953 -1.1105832 -0.93798053 192.89
5.1935477 -1.2057102 -0.62349695 193.07001
5.324656 -1.2361476 -0.50997674 193.07001
5.9896922 -1.3905394 -0.42997891 193.07001
4.2607436 -0.98915464 -1.947455 193.07001
4.5085611 -1.0466869 -1.9332815 193.07001
12.99092 -3.0159123 -0.309632 193.07001
4.7836542 -1.1105511 -1.9176321 193.07001
60.576988 -14.063275 0 193.07001
5.2046766 -1.2082938 -1.9447266 193.07001
4.7987456 -1.1140548 -1.6646084 193.07001
37.928982 -8.805419 1.815822 193.07001
4.7609625 -1.1052831 -1.5251187 193.07001
37.286903 -8.6563559 2.6766953 193.07001
4.7885437 -1.1116863 -1.4096094 193.07001
37.559677 -8.7196817 3.5973332 193.07001
4.7682381 -1.1069722 -1.2814523 193.07001
38.386589 -8.9116535 4.6083951 193.07001
4.8207688 -1.1191676 -1.1726243 193.07001
4.8307376 -1.1214819 -1.0541123 193.07001
4.8532691 -1.1267127 -0.93872112 193.07001
5.1976824 -1.2229342 -0.62442613 193.24001
5.324842 -1.2528529 -0.51034832 193.24001
4.2506757 -1.0001184 -1.9442011 193.24001
4.5090289 -1.0609047 -1.9348232 193.24001
13.011109 -3.0613129 -0.31032833 193.24001
4.7912188 -1.1272998 -1.921997 193.24001
60.523315 -14.2402 0 193.24001
5.1992393 -1.2233007 -1.9440424 193.24001
4.8009524 -1.1295899 -1.6665291 193.24001
31.409254 -7.3901119 1.5047379 193.24001
4.7595205 -1.1198416 -1.5257144 193.24001
37.832031 -8.9012918 2.7177122 193.24001
4.7964525 -1.1285312 -1.4129171 193.24001
37.882557 -8.9131804 3.6307743 193.24001
4.7724657 -1.1228875 -1.2834784 193.24001
37.603916 -8.84762 4.5175653 193.24001
4.8212156 -1.1343576 -1.1735467 193.24001
4.8331017 -1.1371541 -1.0553597 193.24001
4.8518181 -1.1415578 -0.93909144 193.24001
5.1863017 -1.2365079 -0.62349695 193.41
5.31529 -1.267261 -0.50979096 193.41
10.615803 -2.5309989 -0.76313585 193.41
4.2530217 -1.0139971 -1.9466416 193.41
4.5094514 -1.0751346 -1.9363649 193.41
13.048648 -3.1110332 -0.31144243 193.41
4.7878532 -1.1415106 -1.921997 193.41
5.1955867 -1.2387217 -1.9440424 193.41
4.7570314 -1.1341622 -1.6524439 193.41
36.045418 -8.5938787 1.7280588 193.41
4.7673197 -1.136615 -1.5292889 193.41
30.481133 -7.2672524 2.1911902 193.41
4.8061738 -1.1458787 -1.4167761 193.41
37.960545 -9.0504789 3.6408064 193.41
4.7653494 -1.1361452 -1.2824653 193.41
37.461559 -8.9315119 4.5036273 193.41
4.8254008 -1.1504627 -1.1753911 193.41
37.143646 -8.8557158 5.3665147 193.41
4.8335123 -1.1523966 -1.0561914 193.41
4.8484097 -1.1559484 -0.93909144 193.41
5.3209605 -1.2862928 -0.51071984 193.59
10.569014 -2.554961 -0.76034558 193.59
4.249815 -1.0273533 -1.9466416 193.59
4.5078454 -1.0897298 -1.9371357 193.59
13.137927 -3.175972 -0.31380993 193.59
4.778811 -1.1552331 -1.9198145 193.59
5.1843629 -1.2532716 -1.9413064 193.59
36.177479 -8.7455702 1.7356985 193.59
4.7544465 -1.1493434 -1.5263102 193.59
30.496937 -7.3723516 2.1939807 193.59
4.8100252 -1.162779 -1.4189811 193.59
4.7655177 -1.1520196 -1.2834784 193.59
37.539513 -9.0748291 4.5164037 193.59
4.821763 -1.1656165 -1.1753911 193.59
4.8317695 -1.1680355 -1.0566072 193.59
4.8562164 -1.1739453 -0.94131327 193.59
5.3209891 -1.303022 -0.51109141 193.75999
10.565262 -2.5872576 -0.76062459 193.75999
4.2449737 -1.0395237 -1.9458281 193.75999
4.5027995 -1.102661 -1.9363649 193.75999
13.192534 -3.2306333 -0.31534186 193.75999
4.7807908 -1.1707364 -1.921997 193.75999
5.1806211 -1.2686484 -1.9413064 193.75999
52.707993 -12.907314 1.259882 193.75999
29.615793 -7.2524171 1.4219126 193.75999
4.7547245 -1.1643533 -1.5275017 193.75999
37.865963 -9.272747 2.726083 193.75999
4.8102884 -1.17796 -1.4200836 193.75999
31.163858 -7.6315126 2.9933498 193.75999
4.7658372 -1.1670746 -1.2844913 193.75999
4.8258443 -1.1817694 -1.1772356 193.75999
4.8339834 -1.1837624 -1.0578547 193.75999
4.858439 -1.1897513 -0.94242418 193.75999
5.1866584 -1.2854898 -0.62489074 193.92
5.3134637 -1.3169179 -0.51071984 193.92
10.577361 -2.621551 -0.76201969 193.92
4.2491479 -1.0531319 -1.949082 193.92
4.494329 -1.1138991 -1.9340523 193.92
13.274676 -3.2900681 -0.31752366 193.92
4.7811193 -1.1849787 -1.9234519 193.92
5.1770582 -1.2831104 -1.9413064 193.92
5.5430832 -1.3738281 -1.9296652 193.92
31.073063 -7.7013173 1.4929056 193.92
4.7588668 -1.1794635 -1.5298847 193.92
52.997189 -13.135113 3.8180509 193.92
4.7901859 -1.1872258 -1.4151222 193.92
30.407934 -7.5364685 2.9227519 193.92
4.7663155 -1.1813096 -1.2855043 193.92
4.8225255 -1.195241 -1.1772356 193.92
37.353626 -9.2579269 5.408545 193.92
4.8363552 -1.1986687 -1.0591022 193.92
4.8608208 -1.2047323 -0.94353509 193.92
5.2271357 -1.311996 -0.63023371 194.09
5.3018074 -1.3307382 -0.50997674 194.09
10.585017 -2.6568086 -0.76313585 194.09
4.2442322 -1.06529 -1.9482685 194.09
4.4945841 -1.1281276 -1.9355941 194.09
4.7685475 -1.1968917 -1.9198145 194.09
5.1750512 -1.2989229 -1.9419904 194.09
54.133801 -13.587427 1.2958122 194.09
5.5500093 -1.3930362 -1.9335066 194.09
52.698318 -13.227125 2.5337658 194.09
4.7646055 -1.1959021 -1.5328634 194.09
53.288887 -13.375356 3.8419075 194.09
4.8146124 -1.2084538 -1.4233913 194.09
29.477661 -7.3988075 2.8354335 194.09
4.7684193 -1.1968594 -1.2870239 194.09
4.8283958 -1.2119133 -1.1795412 194.09
37.448936 -9.3995743 5.4263592 194.09
4.8346748 -1.2134894 -1.059518 194.09
4.8610373 -1.2201062 -0.94427568 194.09
5.1787095 -1.317149 -0.62489074 194.27
10.563084 -2.6866069 -0.76215923 194.27
4.2355523 -1.0772673 -1.9458281 194.27
4.4892292 -1.1417873 -1.9348232 194.27
4.7683749 -1.212785 -1.9212694 194.27
5.1745877 -1.3161008 -1.9433584 194.27
5.5400968 -1.4090641 -1.9315859 194.27
52.470631 -13.345342 2.5248218 194.27
4.7589746 -1.210394 -1.5322677 194.27
54.0471 -13.7463 3.8996658 194.27
4.8033395 -1.2216778 -1.4211862 194.27
29.533398 -7.5115027 2.8430505 194.27
4.7665105 -1.2123108 -1.2875304 194.27
31.197392 -7.9347215 3.7644441 194.27
4.8339949 -1.2294747 -1.1818467 194.27
4.8365264 -1.2301186 -1.0607655 194.27
4.86099 -1.2363405 -0.94501626 194.27
5.1728549 -1.3320135 -0.62465847 194.44
5.3321481 -1.3730316 -0.51369238 194.44
10.558929 -2.7189312 -0.76243824 194.44
4.2358761 -1.0907409 -1.947455 194.44
4.4858217 -1.155102 -1.9348232 194.44
4.7701683 -1.2283214 -1.9234519 194.44
5.1688404 -1.3309797 -1.9426744 194.44
53.639294 -13.812153 1.2859708 194.44
5.5267167 -1.4231333 -1.9283848 194.44
52.806137 -13.597615 2.542896 194.44
4.7590599 -1.225461 -1.5334592 194.44
29.464535 -7.5871367 2.1275725 194.44
4.7792139 -1.2306507 -1.4151222 194.44
4.7685137 -1.2278954 -1.2890499 194.44
31.148703 -8.0208111 3.7614243 194.44
4.8322101 -1.2442973 -1.1823078 194.44
4.8385391 -1.2459269 -1.0620129 194.44
4.866817 -1.2532085 -0.94686782 194.44
5.1897883 -1.3537732 -0.62721378 194.62
5.3393698 -1.392792 -0.51480711 194.62
10.546475 -2.7510824 -0.76215923 194.62
4.2341967 -1.104504 -1.9482685 194.62
4.4803853 -1.1687231 -1.9340523 194.62
53.549206 -13.968485 -1.2848568 194.62
4.7680883 -1.2437714 -1.9241794 194.62
53.610081 -13.984365 0 194.62
5.1591778 -1.3457884 -1.9406223 194.62
52.99007 -13.822633 1.2714409 194.62
5.5185518 -1.4395324 -1.9271042 194.62
29.505537 -7.6966157 1.4220057 194.62
4.7699656 -1.2442611 -1.5382252 194.62
29.627815 -7.7285123 2.1411052 194.62
4.7716036 -1.2446884 -1.4140196 194.62
4.7683768 -1.2438468 -1.2900629 194.62
31.586588 -8.2394648 3.8174088 194.62
4.8358097 -1.2614368 -1.1841524 194.62
4.8402796 -1.2626028 -1.0632604 194.62
4.8685613 -1.2699801 -0.94797873 194.62
5.1355705 -1.3568763 -0.74652451 194.8
5.2027946 -1.3746376 -0.62930447 194.8
5.3715482 -1.4192243 -0.51833701 194.8
10.560927 -2.7903173 -0.7638334 194.8
4.2254062 -1.1164005 -1.9458281 194.8
4.4784756 -1.1832644 -1.9348232 194.8
4.7587538 -1.2573169 -1.921997 194.8
82.446831 -21.783392 0 194.8
5.1549244 -1.3619897 -1.9406223 194.8
38.07098 -10.058787 0.91422677 194.8
5.5103383 -1.4558942 -1.9258238 194.8
29.701408 -7.8474503 1.4326267 194.8
4.7697248 -1.2602158 -1.5394167 194.8
28.85882 -7.6248288 2.0872531 194.8
4.7713871 -1.2606548 -1.4151222 194.8
4.7700577 -1.2603036 -1.2915823 194.8
29.878138 -7.8941445 3.6139128 194.8
4.8393493 -1.2786112 -1.1859969 194.8
4.8419633 -1.2793019 -1.0645078 194.8
4.8683476 -1.286273 -0.94871932 194.8
5.1795025 -1.3849373 -0.6269815 194.97
5.4096365 -1.4464723 -0.52242422 194.97
10.554529 -2.8221552 -0.76397288 194.97
4.2203102 -1.1284606 -1.9450146 194.97
4.4838595 -1.1989305 -1.9386774 194.97
4.7604017 -1.2728747 -1.9241794 194.97
82.41468 -22.036703 0 194.97
5.1508608 -1.3772787 -1.9406223 194.97
5.5078249 -1.4727267 -1.9264641 194.97
29.681852 -7.9365735 1.432813 194.97
4.7696538 -1.2753485 -1.5406082 194.97
28.811012 -7.703721 2.0854394 194.97
4.7713404 -1.2757995 -1.4162247 194.97
46.455158 -12.421556 4.4863091 194.97
4.7719045 -1.2759504 -1.2931019 194.97
29.288465 -7.8313866 3.5453839 194.97
4.8374143 -1.2934669 -1.186458 194.97
4.8494859 -1.2966946 -1.0670028 194.97
4.8702059 -1.302235 -0.94983023 194.97
5.1756148 -1.3993957 -0.6269815 195.13
10.426687 -2.8191938 -1.0076917 195.13
10.560089 -2.8552632 -0.7649495 195.13
4.222434 -1.1416723 -1.947455 195.13
4.4751492 -1.2100021 -1.9363649 195.13
4.7604256 -1.2871357 -1.9256344 195.13
82.428116 -22.287121 0 195.13
5.1433659 -1.3906761 -1.9392542 195.13
37.522156 -10.145334 0.90243566 195.13
5.4945455 -1.485629 -1.9232628 195.13
29.661503 -8.0199518 1.4329062 195.13
4.7734456 -1.2906562 -1.5429912 195.13
30.222309 -8.1715832 2.1892371 195.13
4.7733264 -1.290624 -1.4178785 195.13
4.7776618 -1.2917961 -1.2956344 195.13
30.282812 -8.1879425 3.6685038 195.13
4.8450551 -1.3100182 -1.1892247 195.13
4.8496227 -1.3112532 -1.0678345 195.13
4.8741398 -1.3178821 -0.95131147 195.13
5.0138283 -1.3725688 -0.85405087 195.31
10.473479 -2.8671844 -1.0130794 195.31
10.55684 -2.8900051 -0.76536804 195.31
4.2170639 -1.1544493 -1.9466416 195.31
4.4731059 -1.2245425 -1.9371357 195.31
4.7545614 -1.3015928 -1.9249068 195.31
5.1444097 -1.4083164 -1.9413064 195.31
53.452316 -14.632927 1.2866672 195.31
5.4916787 -1.5033835 -1.9239031 195.31
38.103085 -10.430973 1.8422813 195.31
4.7859406 -1.310183 -1.548353 195.31
29.90399 -8.1864157 2.1680312 195.31
4.7803741 -1.3086592 -1.4211862 195.31
31.900606 -8.7330036 3.0856843 195.31
4.7791781 -1.3083317 -1.2971539 195.31
31.674755 -8.671175 3.8404067 195.31
4.842793 -1.3257468 -1.1896858 195.31
30.130367 -8.2483883 4.3903546 195.31
4.8568006 -1.3295815 -1.0703294 195.31
4.8813496 -1.3363018 -0.95353329 195.31
5.2301455 -1.4484818 -0.63464743 195.48
10.478359 -2.9019678 -1.01438 195.48
10.571292 -2.927705 -0.76704216 195.48
4.2206635 -1.1689072 -1.9498955 195.48
4.4765673 -1.2397794 -1.9402192 195.48
4.7470875 -1.3146996 -1.9234519 195.48
53.135868 -14.715908 0 195.48
5.1365862 -1.4225707 -1.9399383 195.48
30.295164 -8.3902054 0.72984022 195.48
5.4817157 -1.5181539 -1.9219824 195.48
31.668238 -8.7704763 1.5324084 195.48
4.7949119 -1.3279444 -1.5525231 195.48
30.637133 -8.4849129 2.2229993 195.48
4.7764702 -1.3228371 -1.4211862 195.48
46.083672 -12.762812 4.4612279 195.48
4.7734108 -1.3219897 -1.2966474 195.48
31.750351 -8.7932177 3.8527186 195.48
4.8463402 -1.3421874 -1.1915302 195.48
29.945431 -8.2933474 4.3669734 195.48
4.8603754 -1.3460746 -1.0719926 195.48
4.8868337 -1.353402 -0.95538479 195.48
5.218173 -1.46185 -0.63371819 195.64999
10.565579 -2.9599042 -1.0236691 195.64999
10.583692 -2.9649782 -0.7685768 195.64999
4.2118988 -1.1799463 -1.947455 195.64999
10.715367 -3.0018666 -0.51893938 195.64999
4.4710917 -1.2525582 -1.9394482 195.64999
4.7467537 -1.3297838 -1.9249068 195.64999
82.740509 -23.179419 0 195.64999
5.1341524 -1.4383119 -1.9406223 195.64999
30.385656 -8.5124178 0.73262554 195.64999
5.4790115 -1.534923 -1.9226227 195.64999
45.652851 -12.789461 2.2109425 195.64999
4.8019814 -1.3452555 -1.5560976 195.64999
30.185326 -8.456296 2.1920273 195.64999
4.7836318 -1.3401151 -1.4244939 195.64999
30.979584 -8.6788044 3.0015242 195.64999
4.7843719 -1.3403224 -1.3006995 195.64999
29.70801 -8.3225784 3.607873 195.64999
4.8517065 -1.3591858 -1.1938359 195.64999
4.8620114 -1.3620728 -1.0732402 195.64999
4.8903666 -1.3700163 -0.95686603 195.64999
5.0703359 -1.4376281 -0.74067926 195.83
5.244133 -1.4869062 -0.63743502 195.83
10.496838 -2.9762428 -1.0179098 195.83
10.605036 -3.0069208 -0.77080905 195.83
4.2081709 -1.1931725 -1.947455 195.83
4.4618082 -1.2650881 -1.9371357 195.83
24.360878 -6.9072123 -0.587883 195.83
4.74793 -1.3462142 -1.9270893 195.83
46.641411 -13.224569 0 195.83
5.1278005 -1.4539216 -1.9399383 195.83
53.955959 -15.298515 1.3020792 195.83
5.4705167 -1.5510944 -1.9213421 195.83
46.056442 -13.05871 2.2324641 195.83
45.756168 -12.973571 3.3257096 195.83
4.7886462 -1.3577588 -1.4272503 195.83
30.779739 -8.7271976 2.9848037 195.83
4.7838602 -1.3564018 -1.3017124 195.83
29.133223 -8.2603493 3.5412025 195.83
4.8511572 -1.3754829 -1.1947581 195.83
30.122862 -8.5409489 4.4003749 195.83
4.8595905 -1.3778741 -1.073656 195.83
4.8841476 -1.384837 -0.9564957 195.83
5.2337074 -1.5017301 -0.63673812 196.00999
10.539117 -3.024034 -1.022926 196.00999
10.580194 -3.0358205 -0.76969296 196.00999
4.2114267 -1.2084026 -1.950709 196.00999
4.4613595 -1.280117 -1.9386774 196.00999
24.367887 -6.991982 -0.5885793 196.00999
4.7347236 -1.3585545 -1.9234519 196.00999
82.785477 -23.753992 0 196.00999
5.1232076 -1.4700238 -1.9399383 196.00999
30.625624 -8.7875414 0.73972803 196.00999
5.4583321 -1.5661825 -1.9187813 196.00999
46.130413 -13.236397 2.238054 196.00999
4.8356428 -1.3875116 -1.5697999 196.00999
30.68199 -8.8037148 2.2320676 196.00999
4.791749 -1.374917 -1.4294553 196.00999
29.810427 -8.5536327 2.893398 196.00999
4.7888741 -1.3740921 -1.304245 196.00999
30.159216 -8.6537132 3.6692007 196.00999
4.8580356 -1.393937 -1.1975248 196.00999
29.876953 -8.5727224 4.3683653 196.00999
4.8608794 -1.3947529 -1.0749035 196.00999
4.8948865 -1.4045107 -0.95945817 196.00999
5.1549225 -1.4947169 -0.75431818 196.17
10.529578 -3.0531476 -1.2820714 196.17
10.530631 -3.0534527 -1.022926 196.17
10.588922 -3.0703547 -0.77094853 196.17
4.2133002 -1.2216849 -1.9531493 196.17
4.4613123 -1.2935984 -1.9402192 196.17
24.357868 -7.0627871 -0.58881146 196.17
4.7398577 -1.3743651 -1.9270893 196.17
5.1172771 -1.4838014 -1.9392542 196.17
30.564478 -8.8624496 0.738846 196.17
5.4048023 -1.5671719 -1.9014949 196.17
30.41864 -8.8201628 1.4769741 196.17
4.8390837 -1.4031366 -1.5721829 196.17
4.7952766 -1.3904343 -1.4316604 196.17
29.790249 -8.6379557 2.8937695 196.17
4.7887349 -1.3885375 -1.3052579 196.17
30.195986 -8.7556019 3.6766343 196.17
4.8597317 -1.4091237 -1.1989082 196.17
29.831974 -8.650054 4.3653035 196.17
4.860723 -1.4094112 -1.0757351 196.17
4.8909454 -1.4181744 -0.95945817 196.17
4.9713006 -1.4574782 -0.85113269 196.34
5.1314592 -1.5044333 -0.75153476 196.34
10.520473 -3.0843761 -1.2820714 196.34
10.529169 -3.0869253 -1.0236691 196.34
4.2008901 -1.2316105 -1.949082 196.34
4.4592257 -1.3073488 -1.94099 196.34
24.384773 -7.1490898 -0.58997196 196.34
4.7393346 -1.3894707 -1.9285443 196.34
30.573147 -8.9633875 0 196.34
5.1110487 -1.4984493 -1.9385701 196.34
30.513105 -8.9457846 0.73824251 196.34
5.3383093 -1.5650772 -1.879727 196.34
30.545708 -8.9553432 1.4844275 196.34
4.8422279 -1.4196368 -1.5745659 196.34
29.778803 -8.7305031 2.1699843 196.34
4.7929749 -1.4051969 -1.4322118 196.34
45.025093 -13.200387 4.3774395 196.34
4.790164 -1.4043728 -1.3067775 196.34
28.986107 -8.4981012 3.5323751 196.34
4.8611317 -1.425179 -1.2002915 196.34
28.931929 -8.4822178 4.2372642 196.34
4.8640289 -1.4260285 -1.0773984 196.34
4.88483 -1.4321269 -0.95908785 196.34
5.1437969 -1.5256153 -0.75403988 196.52
10.487878 -3.1106336 -1.2792838 196.52
4.2005038 -1.2458409 -1.950709 196.52
4.4338651 -1.3150543 -1.9317398 196.52
4.7242293 -1.4011744 -1.9241794 196.52
47.027161 -13.947937 0 196.52
5.1045141 -1.5139643 -1.9378861 196.52
30.168558 -8.9477901 0.73058295 196.52
5.2843194 -1.5672933 -1.8624406 196.52
45.989697 -13.640233 2.2370293 196.52
4.8322525 -1.4332135 -1.5727787 196.52
30.179689 -8.9510918 2.2012353 196.52
4.7959094 -1.4224342 -1.4344168 196.52
29.672016 -8.800519 2.8874528 196.52
4.793148 -1.4216152 -1.3088034 196.52
28.97831 -8.5947704 3.534698 196.52
4.8640933 -1.4426572 -1.202136 196.52
31.483683 -9.3378468 4.6152582 196.52
4.8689027 -1.4440836 -1.0794775 196.52
4.8934965 -1.451378 -0.96168 196.52
5.149724 -1.5430321 -0.88323259 196.67999
5.1603856 -1.5462266 -0.75710166 196.67999
4.1900072 -1.2554684 -1.947455 196.67999
4.4460855 -1.3321981 -1.9386774 196.67999
4.7256522 -1.4159657 -1.9263618 196.67999
47.047417 -14.097003 0 196.67999
5.0894647 -1.5249764 -1.9337819 196.67999
30.44799 -9.123251 0.73796397 196.67999
5.2345462 -1.5684477 -1.8464348 196.67999
44.747669 -13.40792 2.1784275 196.67999
4.8684669 -1.4587579 -1.5858852 196.67999
46.739784 -14.004826 3.4119287 196.67999
4.8011265 -1.4385804 -1.4371731 196.67999
29.656862 -8.8862028 2.8883817 196.67999
4.7965732 -1.437216 -1.3108295 196.67999
28.866663 -8.6494322 3.5240121 196.67999
4.8712311 -1.4595861 -1.2049026 196.67999
4.8704734 -1.459359 -1.080725 196.67999
4.8913074 -1.4656017 -0.96205026 196.67999
5.1281238 -1.5531561 -0.88031441 196.85001
4.1880126 -1.2684245 -1.9482685 196.85001
4.4456458 -1.3464539 -1.9402192 196.85001
4.7232132 -1.4305208 -1.9270893 196.85001
47.131718 -14.274796 0 196.85001
5.077723 -1.5378913 -1.9310458 196.85001
45.230278 -13.698906 1.0972207 196.85001
5.1899748 -1.5718889 -1.8323497 196.85001
45.927582 -13.910099 2.2378678 196.85001
4.8659444 -1.4737499 -1.5864809 196.85001
30.941069 -9.37113 2.2606678 196.85001
4.8041968 -1.4550484 -1.4393783 196.85001
30.002008 -9.0867157 2.9246097 196.85001
4.8033981 -1.4548064 -1.3138685 196.85001
29.120346 -8.8196869 3.5581605 196.85001
4.8687415 -1.4745971 -1.2053639 196.85001
4.875483 -1.4766389 -1.0828041 196.85001
4.8925805 -1.4818171 -0.96316117 196.85001
5.1418142 -1.5759363 -0.88355678 197.03999
11.429718 -3.5031426 -1.6800977 197.03999
10.521891 -3.2248988 -1.2869498 197.03999
10.628828 -3.2576747 -0.77736616 197.03999
4.1855302 -1.2828408 -1.949082 197.03999
4.435863 -1.3595665 -1.9379066 197.03999
4.7166619 -1.4456297 -1.9263618 197.03999
5.0582199 -1.5503153 -1.9255733 197.03999
30.378597 -9.3108644 0.73768544 197.03999
5.1394439 -1.57521 -1.8163438 197.03999
30.10166 -9.2259846 1.4682164 197.03999
4.9084911 -1.5044241 -1.6019704 197.03999
30.780111 -9.4339266 2.2511809 197.03999
4.8103743 -1.4743519 -1.442686 197.03999
29.785126 -9.1289692 2.9064028 197.03999
4.8059468 -1.4729949 -1.3158945 197.03999
29.109932 -8.9220257 3.5604835 197.03999
4.8768497 -1.4947263 -1.2085917 197.03999
4.8817821 -1.4962381 -1.085299 197.03999
4.8932772 -1.4997612 -0.96427208 197.03999
5.0258899 -1.5567341 -0.86442661 197.21001
10.516071 -3.2572792 -1.2874143 197.21001
4.1799603 -1.2947133 -1.9482685 197.21001
4.4335723 -1.3732679 -1.9386774 197.21001
4.7123518 -1.459618 -1.9263618 197.21001
46.022823 -14.255246 0 197.21001
5.0374408 -1.5603119 -1.919417 197.21001
44.419445 -13.758612 1.0796269 197.21001
5.1492271 -1.594937 -1.8214656 197.21001
44.188526 -13.687086 2.1572785 197.21001
4.9222426 -1.5246302 -1.6079279 197.21001
30.59952 -9.4779863 2.2400198 197.21001
4.8188338 -1.4925998 -1.4465449 197.21001
29.778831 -9.2237844 2.9084466 197.21001
4.8070998 -1.4889654 -1.317414 197.21001
30.47801 -9.4403496 3.731225 197.21001
4.8909831 -1.5149477 -1.2132028 197.21001
4.8885336 -1.5141889 -1.0877939 197.21001
4.9094572 -1.5206699 -0.96834546 197.21001
5.0400834 -1.5775344 -0.86766899 197.38
7.2693787 -2.2752988 -1.0705194 197.38
10.521526 -3.2932136 -1.2892728 197.38
4.177844 -1.3076556 -1.949082 197.38
4.4312396 -1.3869678 -1.9394482 197.38
4.7062225 -1.4730369 -1.9256344 197.38
46.904133 -14.680885 0 197.38
5.0202341 -1.5713217 -1.9146287 197.38
46.172112 -14.451765 1.1232632 197.38
5.1480885 -1.6113399 -1.8227462 197.38
29.289454 -9.167532 1.4312292 197.38
4.9286299 -1.5426497 -1.6115024 197.38
30.906374 -9.673624 2.2645741 197.38
4.8180532 -1.5080396 -1.4476475 197.38
4.8192787 -1.5084232 -1.3219726 197.38
4.8808951 -1.5277089 -1.2118195 197.38
4.8952212 -1.5321929 -1.0902889 197.38
4.9086752 -1.536404 -0.96908605 197.38
5.0971947 -1.6130096 -0.87836897 197.56
7.254642 -2.2957349 -1.0694062 197.56
4.1702313 -1.3196716 -1.947455 197.56
4.4286199 -1.4014388 -1.9402192 197.56
4.7069001 -1.4895008 -1.9278167 197.56
46.787228 -14.80584 0 197.56
5.0045218 -1.5836834 -1.9105245 197.56
45.781445 -14.48756 1.1148609 197.56
5.1466141 -1.6286484 -1.8240266 197.56
30.854771 -9.7640066 1.5092099 197.56
4.9055567 -1.5523658 -1.6055449 197.56
30.685616 -9.7104778 2.250623 197.56
4.8297882 -1.5283887 -1.4526088 197.56
45.554012 -14.415588 4.4576983 197.56
4.8237395 -1.5264746 -1.3245051 197.56
31.018246 -9.8157387 3.8046322 197.56
4.8779268 -1.5436223 -1.2122806 197.56
4.9015741 -1.5511055 -1.0927838 197.56
4.9206886 -1.5571542 -0.97241879 197.56
7.1737285 -2.2921882 -1.2373037 197.72
7.2312236 -2.3105593 -1.066901 197.72
10.583164 -3.3815894 -1.2992617 197.72
4.171751 -1.3329803 -1.9498955 197.72
4.4229312 -1.4132388 -1.9394482 197.72
4.7009478 -1.5020721 -1.9270893 197.72
46.665684 -14.91087 0 197.72
4.9785972 -1.5907881 -1.9023161 197.72
46.30838 -14.796702 1.1286945 197.72
5.1582894 -1.6482044 -1.8297887 197.72
29.126064 -9.3065166 1.4259187 197.72
4.8957467 -1.5643153 -1.6037576 197.72
30.639374 -9.7900572 2.2492278 197.72
4.8383207 -1.5459661 -1.4564677 197.72
29.816952 -9.5272722 2.9203367 197.72
4.8342018 -1.5446502 -1.3285571 197.72
4.8902812 -1.5625689 -1.2164307 197.72
4.9139953 -1.5701461 -1.0965263 197.72
4.9425316 -1.5792642 -0.97760308 197.72
7.0429397 -2.2734501 -1.2159039 197.89
7.1941795 -2.3222702 -1.0624474 197.89
10.571194 -3.4123652 -1.2990294 197.89
4.1712551 -1.3464748 -1.9515225 197.89
4.4187188 -1.4263556 -1.9394482 197.89
4.700016 -1.517158 -1.9285443 197.89
4.9667015 -1.6032436 -1.8995799 197.89
30.204782 -9.7500572 0.73689628 197.89
5.1605892 -1.6658303 -1.8323497 197.89
43.844261 -14.152861 2.1485207 197.89
4.9019852 -1.5823532 -1.6073321 197.89
4.8501782 -1.5656302 -1.4614292 197.89
45.024887 -14.533964 4.4140391 197.89
4.846169 -1.5643358 -1.3331156 197.89
31.138897 -10.051588 3.8264687 197.89
4.8856235 -1.5770718 -1.2164307 197.89
4.9260702 -1.5901278 -1.1002687 197.89
4.9565277 -1.5999596 -0.98130608 197.89
6.9438291 -2.2655697 -1.200016 198.07001
7.1943803 -2.3473172 -1.0635608 198.07001
10.550979 -3.4424779 -1.2978679 198.07001
4.1635308 -1.3584391 -1.9498955 198.07001
4.4177246 -1.4413753 -1.94099 198.07001
4.6969976 -1.5324939 -1.9292717 198.07001
68.829109 -22.456938 0 198.07001
4.9366264 -1.6106777 -1.8900033 198.07001
30.1702 -9.8436604 0.73680347 198.07001
5.1715422 -1.6873239 -1.8381118 198.07001
30.088591 -9.8170328 1.4759493 198.07001
4.9042501 -1.6001142 -1.6097151 198.07001
46.02972 -15.018161 3.3857002 198.07001
4.8562021 -1.5844376 -1.4647369 198.07001
4.8559456 -1.5843539 -1.3371676 198.07001
4.9009962 -1.5990527 -1.221503 198.07001
4.9508071 -1.6153045 -1.1069218 198.07001
5.0000572 -1.6313735 -0.99093401 198.07001
6.9689407 -2.2966635 -1.2055281 198.24001
7.1892648 -2.3692729 -1.0638392 198.24001
10.553926 -3.4781203 -1.299494 198.24001
4.1612172 -1.3713584 -1.950709 198.24001
4.4116759 -1.4538989 -1.9402192 198.24001
4.69243 -1.5464234 -1.9292717 198.24001
4.928256 -1.6241415 -1.8886353 198.24001
30.148457 -9.9356365 0.73698914 198.24001
5.1593146 -1.7002885 -1.8355508 198.24001
45.364124 -14.950068 2.2274332 198.24001
4.9339333 -1.6260124 -1.6210344 198.24001
31.007824 -10.218846 2.28299 198.24001
4.8715649 -1.6054585 -1.4708009 198.24001
4.8695989 -1.6048107 -1.3422327 198.24001
4.9258037 -1.6233333 -1.2288809 198.24001
4.9738626 -1.6391715 -1.1131592 198.24001
5.1109281 -1.6843424 -1.0138929 198.24001
6.9747982 -2.322911 -1.2077979 198.42
7.1629953 -2.3855889 -1.0610558 198.42
10.544831 -3.5118871 -1.2997264 198.42
4.156888 -1.3844244 -1.950709 198.42
10.677192 -3.5559688 -0.52480888 198.42
4.4105883 -1.4689176 -1.9417608 198.42
4.6804786 -1.5588028 -1.9263618 198.42
67.258003 -22.399839 0 198.42
4.9249125 -1.6402098 -1.8893193 198.42
45.401386 -15.120635 1.1110079 198.42
5.1791153 -1.7248704 -1.8445141 198.42
30.65167 -10.208339 1.5066012 198.42
4.9758968 -1.6571898 -1.6365238 198.42
30.933924 -10.302341 2.2799206 198.42
4.8938575 -1.6298672 -1.4790701 198.42
4.8773832 -1.6243805 -1.3457782 198.42
4.94099 -1.6455644 -1.2339531 198.42
5.0058098 -1.6671523 -1.1214757 198.42
6.8062391 -2.2667735 -1.3516103 198.42
6.9248519 -2.3291247 -1.2003403 198.59
7.1371136 -2.4005175 -1.0582722 198.59
7.6028175 -2.5571537 -0.93803304 198.59
4.1614208 -1.3996644 -1.9547763 198.59
10.698785 -3.5984602 -0.5263927 198.59
4.4009628 -1.4802326 -1.9394482 198.59
4.6846619 -1.5756527 -1.9299992 198.59
67.248116 -22.618427 0 198.59
4.9164615 -1.6536168 -1.8879511 198.59
45.007618 -15.137993 1.1024663 198.59
5.2709527 -1.7728475 -1.8790867 198.59
45.037151 -15.147925 2.2158804 198.59
5.086772 -1.7108996 -1.6746519 198.59
4.9145112 -1.6529609 -1.4867879 198.59
4.9092188 -1.6511809 -1.3559083 198.59
4.9822001 -1.6757276 -1.2454811 198.59
6.8940034 -2.3187492 -1.5460314 198.59
6.7640886 -2.2750533 -1.3445746 198.59
6.8917494 -2.3407753 -1.1958009 198.75999
7.1224585 -2.4191353 -1.0571588 198.75999
7.5312452 -2.5579793 -0.93013477 198.75999
4.1520596 -1.4102426 -1.9523358 198.75999
10.735353 -3.646251 -0.52872187 198.75999
4.4000468 -1.4944711 -1.94099 198.75999
11.380253 -3.8652904 -0.27904016 198.75999
4.6799664 -1.5895455 -1.9299992 198.75999
66.953461 -22.740671 0 198.75999
4.9133129 -1.6688014 -1.8886353 198.75999
44.816727 -15.221952 1.0988919 198.75999
44.893639 -15.248075 2.2110357 198.75999
5.1051741 -1.7339669 -1.6823965 198.75999
4.9569149 -1.6836108 -1.501121 198.75999
4.9592586 -1.6844068 -1.3711034 198.75999
5.0453873 -1.7136602 -1.2625425 198.75999
6.8148513 -2.3146567 -1.5298142 198.75999
6.7368379 -2.2881596 -1.3405012 198.75999
6.8437042 -2.3471277 -1.1886677 198.92999
7.1133761 -2.4396148 -1.0568805 198.92999
7.5273805 -2.5816026 -0.93059939 198.92999
4.1478572 -1.4225558 -1.9523358 198.92999
4.3955932 -1.5075196 -1.94099 198.92999
4.6717048 -1.6022154 -1.9285443 198.92999
4.9118953 -1.6845915 -1.8900033 198.92999
46.621078 -15.98924 1.1442921 198.92999
5.4341908 -1.8637189 -1.9411894 198.92999
