# .PCD v0.7 - Point Cloud Data file format
VERSION 0.7
FIELDS x y z intensity
SIZE 4 4 4 4
TYPE F F F F
COUNT 1 1 1 1
WIDTH 1176
HEIGHT 1
VIEWPOINT 0 0 0 1 0 0 0
POINTS 1176
DATA ascii
-22.121046 52.521221 6.664495 67.160004
-3.2406781 7.6942277 -1.9781984 67.160004
-22.109627 52.494106 8.0052366 67.160004
-3.5750375 8.4880848 -1.9576964 67.160004
-22.071381 52.403301 9.3420324 67.160004
-3.9853661 9.4623146 -1.9344691 67.160004
-4.1709495 9.9954672 -1.7794348 67.349998
-4.5739484 10.961234 -1.6692421 67.349998
-5.1215987 12.27365 -1.5552578 67.349998
-6.1181006 14.661716 -1.4821837 67.349998
-9.7377577 23.336039 -1.768187 67.349998
-1.7428524 4.1766572 -2.0149734 67.349998
-11.212733 26.870743 -1.3578137 67.349998
-1.8542056 4.4435091 -2.011137 67.349998
-14.50207 34.753471 -0.87430418 67.349998
-1.983014 4.752192 -2.0107493 67.349998
-14.517531 34.790524 0 67.349998
-2.1205957 5.0818996 -2.0042381 67.349998
-14.51516 34.78484 0.8750934 67.349998
-2.2794957 5.4626951 -2.0000908 67.349998
-21.955383 52.61496 2.6587026 67.349998
-2.4520199 5.8761406 -1.9868245 67.349998
-2.6660557 6.3890662 -1.9851402 67.349998
-21.939426 52.576714 5.3150907 67.349998
-2.9118252 6.9780407 -1.9794133 67.349998
-21.922279 52.535625 6.6570611 67.349998
-3.2136464 7.7013397 -1.9772762 67.349998
-21.903395 52.490368 7.993546 67.349998
-3.5461168 8.4980879 -1.9572806 67.349998
-21.880003 52.434315 9.3345747 67.349998
-3.9448833 9.4537125 -1.9300255 67.349998
-4.13901 10.002328 -1.7784621 67.519997
-4.5429206 10.978417 -1.6697989 67.519997
-5.0859194 12.290628 -1.5554901 67.519997
-6.0639114 14.654043 -1.4795828 67.519997
-9.670001 23.368515 -1.7684661 67.519997
-1.7290552 4.1784334 -2.0133464 67.519997
-11.140595 26.922354 -1.3587453 67.519997
-1.8417189 4.4506965 -2.0119078 67.519997
-14.390481 34.776024 -0.87379354 67.519997
-1.9667681 4.7528901 -2.0085669 67.519997
-14.42036 34.848228 0 67.519997
-2.1019151 5.0794864 -2.0008178 67.519997
-21.766529 52.600975 1.3216691 67.519997
-2.2611041 5.4641824 -1.9981703 67.519997
-21.779314 52.631874 2.6562803 67.519997
-2.4367642 5.8886824 -1.9886118 67.519997
-21.749109 52.55888 3.977514 67.519997
-2.6485574 6.4005017 -1.9862428 67.519997
-21.760489 52.586376 5.3095174 67.519997
-2.8911083 6.9866495 -1.9794133 67.519997
-21.763268 52.593094 6.6561317 67.519997
-3.1915259 7.7126389 -1.9777373 67.519997
-21.738468 52.533165 7.9902062 67.519997
-3.5208869 8.5085726 -1.9572806 67.519997
-21.718294 52.484413 9.3319807 67.519997
-3.919071 9.4708233 -1.9311364 67.519997
-4.1148095 10.022976 -1.7800833 67.68
-4.5122452 10.991061 -1.6697989 67.68
-5.0523319 12.306621 -1.5557225 67.68
-6.0176725 14.658025 -1.4782822 67.68
-9.6062212 23.39912 -1.7687452 67.68
-1.718074 4.1849356 -2.0141599 67.68
-11.074476 26.975538 -1.3598634 67.68
-1.8306848 4.4592366 -2.0134494 67.68
-14.27281 34.766132 -0.87254018 67.68
-1.953488 4.7583642 -2.0085669 67.68
-14.307797 34.85136 0 67.68
-2.08915 5.0888133 -2.0021858 67.68
-14.292553 34.814224 0.87374717 67.68
-2.2508736 5.4827447 -2.0026519 67.68
-21.608734 52.635197 2.6533921 67.68
-2.4181352 5.8901653 -1.9868245 67.68
-21.584826 52.576962 3.9743054 67.68
-2.6284831 6.4025373 -1.984589 67.68
-21.599186 52.611938 5.3059874 67.68
-2.8715866 6.9946957 -1.9794133 67.68
-21.584631 52.576485 6.6463752 67.68
-3.1699758 7.7215214 -1.9777373 67.68
-21.563854 52.525875 7.979907 67.68
-3.4978559 8.5201807 -1.9576964 67.68
-21.559654 52.515648 9.3267937 67.68
-3.9023116 9.5053663 -1.9359503 67.68
-4.0778327 10.027425 -1.7784621 67.870003
-4.4750266 11.004129 -1.6695205 67.870003
-5.0114942 12.323307 -1.5557225 67.870003
-5.9630303 14.663142 -1.476796 67.870003
-9.5263195 23.425303 -1.7683266 67.870003
-1.7055633 4.193995 -2.0157869 67.870003
-10.988724 27.021366 -1.3603293 67.870003
-1.814497 4.4618635 -2.0119078 67.870003
-14.14991 34.79475 -0.87207597 67.870003
-1.9376979 4.7648158 -2.0085669 67.870003
-14.183106 34.876381 0 67.870003
-2.0722632 5.0957131 -2.0021858 67.870003
-21.432753 52.703323 1.3209263 67.870003
-2.2312522 5.4866686 -2.0013714 67.870003
-21.421276 52.675102 2.6518083 67.870003
-2.3978703 5.8963833 -1.9862288 67.870003
-21.386305 52.589108 3.969841 67.870003
-2.6057887 6.4076567 -1.9834864 67.870003
-21.403595 52.631626 5.3007855 67.870003
-2.8505621 7.0095568 -1.9809328 67.870003
-21.3937 52.607288 6.6412644 67.870003
-3.1414204 7.7247801 -1.9758929 67.870003
-21.382837 52.580582 7.9774022 67.870003
-3.4688456 8.5299215 -1.9572806 67.870003
-21.369776 52.548462 9.3199844 67.870003
-3.8663268 9.5073309 -1.9337285 67.870003
-4.0465865 10.035819 -1.7778136 68.040001
-4.4423571 11.017358 -1.6695205 68.040001
-4.9771366 12.343649 -1.5564194 68.040001
-9.4597578 23.460865 -1.7688847 68.040001
-1.6910622 4.1939535 -2.0133464 68.040001
-10.907755 27.051998 -1.360236 68.040001
-1.8053912 4.4774971 -2.0165329 68.040001
-14.036142 34.810619 -0.87142605 68.040001
-1.9263387 4.7774553 -2.0114768 68.040001
-14.039925 34.82 0 68.040001
-2.0571349 5.1018391 -2.0021858 68.040001
-14.047358 34.838436 0.87212241 68.040001
-2.2149632 5.4932647 -2.0013714 68.040001
-21.237995 52.671726 2.6484542 68.040001
-2.3817928 5.9070134 -1.9874203 68.040001
-21.218239 52.622726 3.9676087 68.040001
-2.5896411 6.422492 -1.9856915 68.040001
-21.227978 52.646881 5.2959552 68.040001
-2.8261342 7.0090113 -1.9784003 68.040001
-21.213001 52.609737 6.6335988 68.040001
-3.1199422 7.7376766 -1.9768151 68.040001
-21.208218 52.597874 7.9704437 68.040001
-3.4420586 8.5365477 -1.956449 68.040001
-21.210815 52.604313 9.3186874 68.040001
-3.8381011 9.5187607 -1.9337285 68.040001
-4.0167918 10.047782 -1.7778136 68.209999
-4.4089131 11.028651 -1.6692421 68.209999
-4.9397531 12.356518 -1.556187 68.209999
-5.8685207 14.679779 -1.4749382 68.209999
-9.3878851 23.483273 -1.7684661 68.209999
-1.681324 4.2057385 -2.0166004 68.209999
-10.828925 27.087954 -1.3604224 68.209999
-1.7907282 4.4794068 -2.0149913 68.209999
-13.918694 34.816837 -0.87054408 68.209999
-1.9107721 4.7796903 -2.0100217 68.209999
-13.941004 34.872646 0 68.209999
-2.042686 5.1096654 -2.0028698 68.209999
-13.933537 34.85397 0.87147248 68.209999
-2.1951377 5.4910154 -1.9981703 68.209999
-21.071239 52.708534 2.6471498 68.209999
-2.3649645 5.9158273 -1.988016 68.209999
-21.042015 52.635429 3.9638419 68.209999
-2.5727148 6.435503 -1.9873453 68.209999
-21.062807 52.687443 5.2937255 68.209999
-2.8081985 7.0245523 -1.9804263 68.209999
-21.04059 52.631866 6.6284881 68.209999
-3.0984154 7.7505136 -1.9777373 68.209999
-21.015305 52.568619 7.9565263 68.209999
-3.4174411 8.5485392 -1.9568648 68.209999
-21.042187 52.635864 9.3131752 68.209999
-3.8098416 9.5301065 -1.9337285 68.209999
-3.9866598 10.064021 -1.7784621 68.389999
-4.3720555 11.036924 -1.6684071 68.389999
-4.9031043 12.377516 -1.5568839 68.389999
-5.8150401 14.679629 -1.4730803 68.389999
-9.316268 23.518213 -1.7688847 68.389999
-1.6660843 4.205904 -2.0141599 68.389999
-10.750394 27.138557 -1.3612609 68.389999
-1.7752875 4.4815793 -2.0134494 68.389999
-13.798935 34.834366 -0.86989415 68.389999
-1.8950608 4.7839375 -2.0092943 68.389999
-13.838009 34.933006 0 68.389999
-2.0259314 5.1143103 -2.0021858 68.389999
-13.809244 34.860394 0.87054408 68.389999
-2.1778765 5.4978843 -1.9981703 68.389999
-20.88936 52.733608 2.6451001 68.389999
-2.3449614 5.9196777 -1.9868245 68.389999
-20.861856 52.664177 3.9610517 68.389999
-2.5503602 6.4381914 -1.9856915 68.389999
-20.871513 52.688557 5.2872233 68.389999
-2.7861164 7.0333395 -1.9804263 68.389999
-20.851728 52.638607 6.6210542 68.389999
-3.0726175 7.7565908 -1.9768151 68.389999
-20.831818 52.588345 7.9495673 68.389999
-3.3898478 8.5574141 -1.956449 68.389999
-20.866549 52.676022 9.3086357 68.389999
-3.7784355 9.5383739 -1.9329879 68.389999
-3.9596672 10.083153 -1.779759 68.559998
-4.3400135 11.051691 -1.6686854 68.559998
-4.867084 12.393858 -1.5571163 68.559998
-5.7707314 14.694964 -1.4728945 68.559998
-9.2449884 23.542038 -1.7686056 68.559998
-1.6535978 4.2108288 -2.0141599 68.559998
-10.656681 27.136862 -1.3595839 68.559998
-1.7633318 4.4902625 -2.0149913 68.559998
-13.684556 34.84724 -0.86919785 68.559998
-1.8808582 4.7895393 -2.0092943 68.559998
-13.735763 34.977634 0 68.559998
-2.0121219 5.1237974 -2.0035541 68.559998
-13.701365 34.890045 0.87026554 68.559998
-2.1664026 5.5166678 -2.0026519 68.559998
-20.714548 52.748867 2.642771 68.559998
-2.3294806 5.9319406 -1.9886118 68.559998
-20.699673 52.710987 3.9599354 68.559998
-2.5319493 6.4475198 -1.9862428 68.559998
-20.701262 52.715034 5.2836933 68.559998
-2.7638214 7.0379734 -1.9794133 68.559998
-20.688192 52.681755 6.6187315 68.559998
-3.0481672 7.7620502 -1.9758929 68.559998
-20.675694 52.649925 7.9495673 68.559998
-3.3630123 8.5637922 -1.9556173 68.559998
-20.683472 52.669735 9.2966385 68.559998
-3.7508364 9.5513725 -1.9333582 68.559998
-3.9293456 10.088655 -1.7787863 68.720001
-4.3091345 11.063767 -1.6686854 68.720001
-4.8331757 12.409252 -1.5573486 68.720001
-5.7260594 14.701744 -1.4719656 68.720001
-9.1755905 23.558468 -1.7679081 68.720001
-1.6411694 4.2137275 -2.0133464 68.720001
-10.554756 27.099497 -1.3562299 68.720001
-1.7507857 4.4951692 -2.0149913 68.720001
-13.574129 34.851784 -0.86836225 68.720001
-1.8688282 4.798245 -2.0107493 68.720001
-13.600288 34.918945 0 68.720001
-1.9984878 5.1311479 -2.0042381 68.720001
-13.583563 34.876003 0.86896574 68.720001
-2.1509886 5.522696 -2.0026519 68.720001
-20.545414 52.75066 2.639976 68.720001
-2.3129065 5.9384227 -1.9886118 68.720001
-20.54443 52.748138 3.958401 68.720001
-2.5153301 6.458148 -1.9873453 68.720001
-20.533737 52.72068 5.2784915 68.720001
-2.7441568 7.0456643 -1.9794133 68.720001
-20.519369 52.683792 6.6117625 68.720001
-3.0271859 7.7723455 -1.976354 68.720001
-20.520679 52.687157 7.9465055 68.720001
-3.3419247 8.5804424 -1.9572806 68.720001
-20.511242 52.662922 9.2852907 68.720001
-3.7241492 9.5618095 -1.9333582 68.720001
-3.8993948 10.100268 -1.7787863 68.889999
-4.2798553 11.085742 -1.6700772 68.889999
-4.8006282 12.434657 -1.5587424 68.889999
-5.6859994 14.727958 -1.4728945 68.889999
-9.1049318 23.583727 -1.7677685 68.889999
-1.6319501 4.2271008 -2.0174139 68.889999
-10.434011 27.026323 -1.3510126 68.889999
-1.7374406 4.5003438 -2.0149913 68.889999
-13.462741 34.871387 -0.86785161 68.889999
-1.8545833 4.8037686 -2.0107493 68.889999
-13.484377 34.927429 0 68.889999
-1.9825777 5.1353016 -2.0035541 68.889999
-13.480744 34.918018 0.86901212 68.889999
-2.134593 5.5290537 -2.0026519 68.889999
-20.378016 52.783432 2.6385784 68.889999
-2.2959642 5.9470401 -1.9892075 68.889999
-20.375618 52.777222 3.9560292 68.889999
-2.4954648 6.463789 -1.9867941 68.889999
-20.36718 52.755363 5.2758904 68.889999
-2.7267239 7.0627999 -1.9819459 68.889999
-20.348654 52.707378 6.6071162 68.889999
-3.0048125 7.7831087 -1.9768151 68.889999
-20.354277 52.721943 7.9426088 68.889999
-3.3150423 8.5866699 -1.956449 68.889999
-20.351343 52.714344 9.2836695 68.889999
-3.6950545 9.5709839 -1.9329879 68.889999
-3.8648245 10.105096 -1.7774893 69.07
-4.2457147 11.100983 -1.6703556 69.07
-4.7601209 12.445967 -1.5582777 69.07
-5.6546407 14.784807 -1.476796 69.07
-9.0322227 23.615942 -1.7680476 69.07
-1.6147461 4.2219677 -2.0125329 69.07
-10.318365 26.978731 -1.3470063 69.07
-1.7239531 4.5075035 -2.0157621 69.07
-13.343838 34.889229 -0.86724812 69.07
-1.8414793 4.8147912 -2.0129316 69.07
-13.359579 34.930389 0 69.07
-1.966435 5.1415048 -2.0035541 69.07
-13.353123 34.913509 0.86785161 69.07
-2.1158588 5.5321927 -2.0013714 69.07
-20.189253 52.787476 2.6355972 69.07
-2.2772698 5.9542236 -1.9892075 69.07
-20.191183 52.792522 3.9524019 69.07
-2.4730856 6.4662099 -1.9851402 69.07
-20.187117 52.781891 5.2721748 69.07
-2.7010663 7.0622954 -1.9794133 69.07
-20.169487 52.735794 6.6027026 69.07
-2.978956 7.7888746 -1.9758929 69.07
-20.166615 52.728283 7.93398 69.07
-3.2880499 8.5970421 -1.956449 69.07
-20.154615 52.696911 9.2694025 69.07
-3.6649683 9.5825453 -1.9329879 69.07
-3.8337586 10.119033 -1.7778136 69.25
-4.2122221 11.11797 -1.6709123 69.25
-4.7238126 12.468289 -1.559207 69.25
-5.6109872 14.809947 -1.4775391 69.25
-8.9544516 23.634872 -1.7673501 69.25
-1.6040637 4.2338538 -2.0157869 69.25
-10.208785 26.945627 -1.3437455 69.25
-1.7097839 4.5128975 -2.0157621 69.25
-13.222121 34.899193 -0.86645895 69.25
-1.8296443 4.8292637 -2.0165691 69.25
-13.249776 34.972187 0 69.25
-1.9496069 5.1458993 -2.0028698 69.25
-13.226372 34.910412 0.86673748 69.25
-2.0984685 5.5388126 -2.0013714 69.25
-20.014116 52.826355 2.6343861 69.25
-2.258553 5.9613485 -1.9892075 69.25
-20.001904 52.794125 3.9477978 69.25
-2.4548028 6.479341 -1.9867941 69.25
-20.003561 52.798496 5.26753 69.25
-2.6774952 7.0671277 -1.9784003 69.25
-19.989637 52.761745 6.5980568 69.25
-2.9551613 7.800015 -1.976354 69.25
-19.991741 52.7673 7.9303617 69.25
-3.2610254 8.6073294 -1.956449 69.25
-19.981274 52.73967 9.2658358 69.25
-3.6362383 9.5976868 -1.9337285 69.25
-3.8037181 10.130363 -1.7778136 69.419998
-4.1820006 11.137836 -1.6720257 69.419998
-4.685401 12.478531 -1.5587424 69.419998
-5.5719204 14.839581 -1.4788396 69.419998
-8.8870916 23.668808 -1.7679081 69.419998
-1.5927792 4.2420158 -2.0174139 69.419998
-10.118958 26.949614 -1.3424412 69.419998
-1.6963863 4.5179505 -2.0157621 69.419998
-13.10727 34.908321 -0.86571622 69.419998
-1.8126881 4.8276944 -2.0136592 69.419998
-13.127675 34.962666 0 69.419998
-1.9349908 5.1534209 -2.0035541 69.419998
-13.121326 34.945759 0.86664462 69.419998
-2.0793612 5.5379195 -1.9988105 69.419998
-19.838327 52.835007 2.6318705 69.419998
-2.2415264 5.969811 -1.9898033 69.419998
-19.831146 52.815884 3.9450076 69.419998
-2.4348915 6.484796 -1.9862428 69.419998
-19.823717 52.796093 5.2613993 69.419998
-2.6585553 7.0804749 -1.9799198 69.419998
-19.809261 52.757595 6.5901585 69.419998
-2.9320052 7.8087487 -1.976354 69.419998
-19.81699 52.778175 7.9231248 69.419998
-3.232722 8.6096411 -1.9547857 69.419998
-19.815685 52.774704 9.2616205 69.419998
-3.6070547 9.6065941 -1.9333582 69.419998
-3.7760015 10.153361 -1.779759 69.599998
-4.1511321 11.162057 -1.6736957 69.599998
-4.6447906 12.489466 -1.5582777 69.599998
-5.5412378 14.89994 -1.4831127 69.599998
-8.8064308 23.679781 -1.7666525 69.599998
-1.5768971 4.2401485 -2.0141599 69.599998
-10.026584 26.960672 -1.3414164 69.599998
-1.6821845 4.5232577 -2.0157621 69.599998
-12.986386 34.919342 -0.86497349 69.599998
-1.7981619 4.8351116 -2.0143867 69.599998
-19.672709 52.898319 0 69.599998
-1.9194463 5.1612358 -2.0042381 69.599998
-13.00381 34.96619 0.86613399 69.599998
-2.0665762 5.5568557 -2.0032921 69.599998
-19.661102 52.867111 2.6303797 69.599998
-2.2214296 5.9732447 -1.9886118 69.599998
-19.653301 52.846134 3.942636 69.599998
-2.4151771 6.4942155 -1.9867941 69.599998
-19.654285 52.848778 5.2604704 69.599998
-2.6362982 7.0887923 -1.9799198 69.599998
-19.638573 52.806534 6.588532 69.599998
-2.9088156 7.8215694 -1.9772762 69.599998
-19.624161 52.767776 7.9122691 69.599998
-3.2077038 8.6252556 -1.9560332 69.599998
-19.628466 52.779354 9.2515697 69.599998
-3.5768569 9.617878 -1.9333582 69.599998
-3.7431295 10.157113 -1.7784621 69.769997
-4.1152558 11.166891 -1.6725823 69.769997
-4.6083999 12.505055 -1.5585101 69.769997
-5.5073338 14.944344 -1.4858994 69.769997
-8.7361336 23.705805 -1.7666525 69.769997
-1.5630459 4.2413797 -2.0125329 69.769997
-9.9430923 26.98093 -1.3409505 69.769997
-1.6700325 4.531692 -2.0173037 69.769997
-12.874425 34.935204 -0.86441642 69.769997
-1.7844521 4.8421736 -2.0151141 69.769997
-12.89795 34.999043 0 69.769997
-1.9041243 5.1669083 -2.0042381 69.769997
-12.892401 34.983982 0.86562335 69.769997
-2.0507348 5.5647411 -2.0039322 69.769997
-19.489649 52.885845 2.6284232 69.769997
-2.2030368 5.9780178 -1.988016 69.769997
-19.475719 52.848053 3.9384506 69.769997
-2.3958976 6.5013528 -1.9867941 69.769997
-19.477425 52.852676 5.2550826 69.769997
-2.6152537 7.0965829 -1.9799198 69.769997
-19.457079 52.797466 6.5801692 69.769997
-2.8842499 7.8265133 -1.976354 69.769997
-19.459291 52.803471 7.9089289 69.769997
-3.1820982 8.6347351 -1.9560332 69.769997
-19.464956 52.818844 9.2483273 69.769997
-3.5476248 9.626605 -1.9329879 69.769997
-3.7140737 10.165673 -1.7781378 69.93
-4.0867743 11.185781 -1.6736957 69.93
-4.5748248 12.521607 -1.5589746 69.93
-5.4826636 15.006425 -1.490544 69.93
-8.6698999 23.730108 -1.7666525 69.93
-1.5518225 4.2474442 -2.0133464 69.93
-9.8656511 27.002962 -1.3406711 69.93
-1.6573712 4.5363379 -2.0173037 69.93
-12.766525 34.942848 -0.86372006 69.93
-1.7734805 4.8541374 -2.018024 69.93
-12.78781 35.00111 0 69.93
-1.890978 5.175736 -2.0056062 69.93
-12.77819 34.974777 0.86450922 69.93
-2.0312858 5.5597677 -2.0000908 69.93
-19.324747 52.893154 2.6260941 69.93
-2.1882999 5.9895263 -1.9898033 69.93
-19.314371 52.864754 3.9356604 69.93
-2.3757539 6.5026007 -1.9851402 69.93
-19.316088 52.86945 5.2513671 69.93
-2.5947621 7.1020412 -1.9794133 69.93
-19.304111 52.83667 6.578311 69.93
-2.8610473 7.8308811 -1.9754318 69.93
-19.309042 52.850163 7.9078155 69.93
-3.1566303 8.6399126 -1.9552015 69.93
-19.29571 52.813675 9.2379513 69.93
-3.5220773 9.6401663 -1.9337285 69.93
-3.6868191 10.190282 -1.7804075 70.110001
-4.057004 11.213464 -1.6759225 70.110001
-4.5361404 12.537786 -1.559207 70.110001
-5.4334602 15.017958 -1.4899867 70.110001
-8.5946283 23.755352 -1.766513 70.110001
-1.5378495 4.2505803 -2.0125329 70.110001
-9.7889271 27.056366 -1.341789 70.110001
-1.6406002 4.5345807 -2.0142202 70.110001
-12.647842 34.958344 -0.86311662 70.110001
-1.7575883 4.857933 -2.0172966 70.110001
-12.669622 35.018543 0 70.110001
-1.8740693 5.179884 -2.0049222 70.110001
-12.657366 34.984665 0.86376649 70.110001
-2.0138092 5.5661221 -2.0000908 70.110001
-19.144211 52.91415 2.6241376 70.110001
-2.1681736 5.9927807 -1.9886118 70.110001
-19.134621 52.887646 3.9328699 70.110001
-2.3559678 6.5118399 -1.9856915 70.110001
-19.137026 52.894295 5.2478371 70.110001
-2.5744123 7.1156158 -1.9809328 70.110001
-19.12248 52.854092 6.572968 70.110001
-2.8370938 7.841661 -1.9758929 70.110001
-19.129436 52.873318 7.9022489 70.110001
-3.1288061 8.6479473 -1.9547857 70.110001
-19.100824 52.794231 9.2240086 70.110001
-3.4917746 9.6511831 -1.9337285 70.110001
-3.655683 10.193107 -1.7791106 70.269997
-4.0263429 11.226614 -1.6762009 70.269997
-4.501781 12.552275 -1.5594393 70.269997
-5.3955345 15.044319 -1.4911014 70.269997
-8.5269108 23.775505 -1.7662339 70.269997
-1.5272074 4.2582979 -2.0141599 70.269997
-9.6748896 26.976404 -1.3364785 70.269997
-1.6298 4.5443559 -2.0165329 70.269997
-12.544097 34.976585 -0.86269879 70.269997
-1.7433866 4.8610687 -2.0165691 70.269997
-19.016342 53.023087 0 70.269997
-1.8615004 5.1904039 -2.0069742 70.269997
-19.001768 52.982452 1.3068142 70.269997
-1.9976182 5.5699401 -1.9994507 70.269997
-18.986256 52.939198 2.62274 70.269997
-2.1552973 6.0095949 -1.9921863 70.269997
-18.971365 52.897682 3.9296613 70.269997
-2.3364761 6.5147743 -1.984589 70.269997
-18.97916 52.919415 5.2450504 70.269997
-2.5538788 7.1209559 -1.9804263 70.269997
-18.959387 52.864277 6.567625 70.269997
-2.8151846 7.8495531 -1.9758929 70.269997
-18.964329 52.878059 7.8950119 70.269997
-3.102663 8.6511259 -1.9535383 70.269997
-18.951988 52.843651 9.2233601 70.269997
-3.4648099 9.6608963 -1.9337285 70.269997
-3.627605 10.215699 -1.7810559 70.449997
-3.9877398 11.229876 -1.6748091 70.449997
-4.4629898 12.568227 -1.5596715 70.449997
-5.3475785 15.059319 -1.4909155 70.449997
-8.4481697 23.790895 -1.7653968 70.449997
-1.5132107 4.261353 -2.0133464 70.449997
-9.5727119 26.957718 -1.3340561 70.449997
-1.6155155 4.5494537 -2.0165329 70.449997
-12.424116 34.98756 -0.86200249 70.449997
-1.7281066 4.8665218 -2.0165691 70.449997
-18.810184 52.971367 0 70.449997
-1.8451852 5.1962266 -2.0069742 70.449997
-18.79508 52.928837 1.3040289 70.449997
-1.9794759 5.5744028 -1.9988105 70.449997
-18.799791 52.942104 2.619945 70.449997
-2.1332126 6.0073404 -1.9892075 70.449997
-18.794407 52.926937 3.927429 70.449997
-2.3185711 6.5293293 -1.9867941 70.449997
-18.796156 52.931862 5.2404056 70.449997
-2.5321424 7.1307673 -1.9809328 70.449997
-18.786568 52.904861 6.5653019 70.449997
-2.7918131 7.8620262 -1.9768151 70.449997
-18.765638 52.845924 7.8813729 70.449997
-3.0787427 8.6700487 -1.9556173 70.449997
-18.763428 52.839699 9.2123365 70.449997
-3.4337845 9.6698818 -1.9333582 70.449997
-3.5972784 10.226418 -1.7810559 70.620003
-3.9583457 11.252868 -1.6764792 70.620003
-4.4283161 12.588909 -1.5606008 70.620003
-5.3041949 15.078876 -1.4912871 70.620003
-8.3722477 23.8008 -1.7642807 70.620003
-1.5066231 4.2830596 -2.021481 70.620003
-9.4668293 26.9125 -1.3304226 70.620003
-1.6032346 4.5577087 -2.0180745 70.620003
-12.310963 34.997864 -0.86135256 70.620003
-1.7148961 4.8751426 -2.018024 70.620003
-18.632359 52.96846 0 70.620003
-1.8310068 5.205224 -2.0083423 70.620003
-18.62734 52.954189 1.3032861 70.620003
-1.9648138 5.5856137 -2.0007312 70.620003
-18.635336 52.976917 2.6189203 70.620003
-2.1166461 6.0172458 -1.990399 70.620003
-18.624708 52.946709 3.9247782 70.620003
-2.2991881 6.53618 -1.9867941 70.620003
-18.625145 52.947948 5.2365041 70.620003
-2.5103319 7.1364241 -1.9804263 70.620003
-18.604465 52.88916 6.5564747 70.620003
-2.7684739 7.870275 -1.9768151 70.620003
-18.602188 52.882687 7.8785892 70.620003
-3.0523555 8.6772995 -1.9552015 70.620003
-18.609186 52.902584 9.2136335 70.620003
-3.4031217 9.6744652 -1.9322473 70.620003
-3.5636735 10.227728 -1.7794348 70.790001
-3.9262438 11.268303 -1.6770358 70.790001
-4.3948665 12.613248 -1.5619946 70.790001
-5.2692599 15.122754 -1.4940739 70.790001
-8.2996225 23.819883 -1.7638623 70.790001
-1.4903014 4.2771592 -2.0166004 70.790001
-9.3889093 26.946131 -1.3307022 70.790001
-1.5897046 4.5624456 -2.0180745 70.790001
-12.199831 35.013466 -0.86084193 70.790001
-1.7022628 4.8854871 -2.0202065 70.790001
-12.223519 35.081448 0 70.790001
-1.816173 5.2124085 -2.0090263 70.790001
-12.216936 35.062557 0.86204892 70.790001
-1.9501027 5.5967865 -2.0026519 70.790001
-18.466892 52.999905 2.6173365 70.790001
-2.1000397 6.0271053 -1.9915905 70.790001
-18.456371 52.969707 3.9224064 70.790001
-2.2797847 6.542973 -1.9867941 70.790001
-18.452892 52.959728 5.2322311 70.790001
-2.4910564 7.149322 -1.9819459 70.790001
-18.444189 52.93475 6.5553131 70.790001
-2.7431891 7.8729415 -1.9754318 70.790001
-18.435425 52.909595 7.874414 70.790001
-3.0265961 8.6863184 -1.9552015 70.790001
-18.447594 52.944519 9.2113638 70.790001
-3.3731086 9.6808081 -1.9315066 70.790001
-3.5383191 10.246967 -1.7810559 70.949997
-3.8960543 11.282968 -1.6775925 70.949997
-4.3622198 12.632982 -1.5629238 70.949997
-5.2263589 15.135528 -1.4938881 70.949997
-8.2311192 23.837311 -1.7634437 70.949997
-1.4777552 4.2795768 -2.0157869 70.949997
-9.3097124 26.960915 -1.3301432 70.949997
-1.5763553 4.5651226 -2.0173037 70.949997
-12.091566 35.017159 -0.8600992 70.949997
-1.6855729 4.8814168 -2.0165691 70.949997
-18.305433 53.012508 0 70.949997
-1.8028369 5.2210131 -2.0103943 70.949997
-18.305071 53.011456 1.3020792 70.949997
-1.9357028 5.6057925 -2.0039322 70.949997
-18.300558 52.998394 2.6147277 70.949997
-2.0819542 6.0293369 -1.990399 70.949997
-18.290798 52.970123 3.9186397 70.949997
-2.263387 6.5547657 -1.9884479 70.949997
-18.294531 52.980934 5.2292585 70.949997
-2.4710822 7.1562505 -1.9819459 70.949997
-18.282681 52.946617 6.5504346 70.949997
-2.7218282 7.8824105 -1.9758929 70.949997
-18.268856 52.906578 7.8663421 70.949997
-3.001689 8.6928864 -1.9547857 70.949997
-18.283569 52.949192 9.2032576 70.949997
-3.3505521 9.7031946 -1.9340988 70.949997
-3.5043194 10.258644 -1.7810559 71.139999
-3.8611782 11.303322 -1.6787059 71.139999
-4.3222299 12.653018 -1.5636207 71.139999
-5.173564 15.145238 -1.493145 71.139999
-8.1455774 23.845594 -1.7620485 71.139999
-1.4635555 4.2844539 -2.0157869 71.139999
-9.2163811 26.980295 -1.3295841 71.139999
-1.560015 4.5668321 -2.0157621 71.139999
-9.8237143 28.758221 -0.70556176 71.139999
-1.6699785 4.8887424 -2.0172966 71.139999
-11.996708 35.119503 0 71.139999
-1.7849059 5.2251844 -2.0097103 71.139999
-11.976025 35.058956 0.86014563 71.139999
-1.9164902 5.6103878 -2.0032921 71.139999
-18.113085 53.024757 2.6130507 71.139999
-2.0631833 6.0398211 -1.9915905 71.139999
-18.107302 53.007832 3.9169655 71.139999
-2.2403953 6.5585966 -1.9873453 71.139999
-18.106508 53.005505 5.2257285 71.139999
-2.4460866 7.1607437 -1.9809328 71.139999
-18.098656 52.982517 6.5474148 71.139999
-2.6956742 7.8913932 -1.9758929 71.139999
-18.077946 52.92189 7.8596616 71.139999
-2.9741106 8.7064953 -1.9556173 71.139999
-18.083641 52.938564 9.1909361 71.139999
-3.3164508 9.7086716 -1.9329879 71.139999
-3.4750257 10.266521 -1.7807318 71.300003
-3.8308682 11.317813 -1.6792626 71.300003
-4.2881527 12.668801 -1.5640852 71.300003
-5.1440196 15.197351 -1.4968606 71.300003
-8.0821543 23.877697 -1.7627461 71.300003
-1.4509995 4.2867937 -2.0149734 71.300003
-9.1365185 26.99268 -1.328932 71.300003
-1.549031 4.5764151 -2.0180745 71.300003
-9.7286234 28.741982 -0.70449406 71.300003
-1.6551255 4.8898573 -2.0158417 71.300003
-17.970358 53.091137 0 71.300003
-1.7703075 5.2301483 -2.0097103 71.300003
-17.953337 53.040848 1.300083 71.300003
-1.9038529 5.6246915 -2.0064933 71.300003
-17.952131 53.037285 2.6111875 71.300003
-2.0450845 6.0419421 -1.990399 71.300003
-17.947052 53.022282 3.9143147 71.300003
-2.2220714 6.5648274 -1.9873453 71.300003
-17.94565 53.018139 5.222013 71.300003
-2.42484 7.1638813 -1.9799198 71.300003
-17.940439 53.002743 6.5436978 71.300003
-2.6754987 7.9044204 -1.9772762 71.300003
-17.921833 52.947777 7.8560433 71.300003
-2.9491587 8.7129135 -1.9552015 71.300003
-17.927513 52.964554 9.1867208 71.300003
-3.2912166 9.7234802 -1.9340988 71.300003
-3.4390819 10.272373 -1.779759 71.489998
-3.7939446 11.332332 -1.679541 71.489998
-4.2505326 12.696138 -1.5657114 71.489998
-5.0980201 15.227544 -1.4981611 71.489998
-5.8829603 17.572123 -1.2957963 71.489998
-1.435616 4.2881165 -2.0133464 71.489998
-5.8826785 17.57128 -0.86412257 71.489998
-1.5326748 4.5780268 -2.0165329 71.489998
-5.8735199 17.543924 -0.42953897 71.489998
-1.6406753 4.900619 -2.018024 71.489998
-1.752954 5.23599 -2.0097103 71.489998
-17.762749 53.056484 1.2990153 71.489998
-1.8875965 5.6381607 -2.0090542 71.489998
-17.765371 53.06432 2.6096036 71.489998
-2.0280681 6.0577431 -1.9933778 71.489998
-17.757824 53.041775 3.9113851 71.489998
-2.2008998 6.5739827 -1.9878966 71.489998
-17.752035 53.024483 5.2168112 71.489998
-2.4022989 7.1755524 -1.9809328 71.489998
-17.743767 52.999783 6.5360322 71.489998
-2.6474185 7.9077129 -1.9758929 71.489998
-17.73358 52.969357 7.8504763 71.489998
-2.9208703 8.7245007 -1.9556173 71.489998
-17.735487 52.975056 9.1782913 71.489998
-3.2577064 9.7306137 -1.9333582 71.489998
-3.407346 10.278786 -1.7791106 71.660004
-3.7634203 11.352939 -1.6809328 71.660004
-4.215344 12.716236 -1.5666406 71.660004
-5.0528169 15.242602 -1.4981611 71.660004
-5.8370748 17.608437 -1.2971914 71.660004
-1.4240364 4.295826 -2.0149734 71.660004
-8.996913 27.140577 -1.3334041 71.660004
-1.5173427 4.5772986 -2.0142202 71.660004
-9.5270805 28.73991 -0.7029621 71.660004
-1.6261277 4.9054656 -2.018024 71.660004
-1.7374108 5.241168 -2.0097103 71.660004
-11.641623 35.118752 0.85898507 71.660004
-1.8643013 5.6239529 -2.0020115 71.660004
-17.59779 53.086456 2.6081128 71.660004
-2.0094848 6.0619216 -1.992782 71.660004
-17.576513 53.022266 3.9060836 71.660004
-2.1819897 6.5823092 -1.9884479 71.660004
-17.575832 53.020214 5.2112374 71.660004
-2.3828244 7.188158 -1.9824524 71.660004
-17.571434 53.006943 6.530457 71.660004
-2.6227195 7.9118385 -1.9749706 71.660004
-17.57073 53.004818 7.847971 71.660004
-2.8949714 8.7331285 -1.9556173 71.660004
-17.57202 53.008713 9.1750488 71.660004
-3.2306759 9.7458334 -1.9344691 71.660004
-3.3823721 10.305726 -1.7820287 71.830002
-3.7291012 11.362173 -1.6806544 71.830002
-4.1800733 12.736237 -1.5675699 71.830002
-5.0143995 15.27834 -1.5002048 71.830002
-7.8516049 23.923002 -1.7606534 71.830002
-1.416412 4.3156557 -2.0222945 71.830002
-8.9431343 27.248775 -1.3374102 71.830002
-1.5072079 4.5923014 -2.0188453 71.830002
-9.430542 28.733854 -0.7021265 71.830002
-1.6098229 4.9049582 -2.0158417 71.830002
-1.7212663 5.2445145 -2.0090263 71.830002
-11.52802 35.124645 0.85828876 71.830002
-1.8523333 5.6438618 -2.0071335 71.830002
-17.430235 53.108063 2.6066222 71.830002
-1.9926807 6.071485 -1.9939735 71.830002
-2.1600521 6.5814476 -1.9862428 71.830002
-17.409748 53.045639 5.2086368 71.830002
-2.3584695 7.1860046 -1.9799198 71.830002
-17.409744 53.045635 6.5288305 71.830002
-2.5998399 7.9214344 -1.9754318 71.830002
-17.394855 53.000267 7.8396206 71.830002
-2.8690469 8.7416801 -1.9556173 71.830002
-17.398046 53.009987 9.1662941 71.830002
-3.2005196 9.7516413 -1.9337285 71.830002
-3.3499792 10.316301 -1.7820287 72.010002
-3.6939993 11.375716 -1.6809328 72.010002
-4.1424947 12.756864 -1.568499 72.010002
-4.967607 15.297806 -1.5005764 72.010002
-7.7745614 23.941856 -1.7602348 72.010002
-1.3972039 4.3027067 -2.0141599 72.010002
-8.9481897 27.556059 -1.3511057 72.010002
-1.4922034 4.5952582 -2.0180745 72.010002
-9.3445482 28.776651 -0.70245147 72.010002
-1.5967071 4.9170794 -2.0187516 72.010002
-17.282684 53.222237 0 72.010002
-1.7030404 5.2445335 -2.0069742 72.010002
-17.266294 53.171768 1.2979476 72.010002
-1.8316675 5.6406426 -2.0039322 72.010002
-17.252815 53.130257 2.6050384 72.010002
-1.9706484 6.0686359 -1.9909948 72.010002
-2.1417401 6.5955153 -1.9884479 72.010002
-17.235018 53.075451 5.2062216 72.010002
-2.3346872 7.1896982 -1.9789069 72.010002
-17.231356 53.064167 6.5244169 72.010002
-2.5725369 7.9221592 -1.9735873 72.010002
-17.208078 52.992489 7.8304353 72.010002
-2.8415701 8.7506504 -1.9556173 72.010002
-17.218014 53.023087 9.1591606 72.010002
-3.1698682 9.7616482 -1.9337285 72.010002
-3.322366 10.329373 -1.7826772 72.169998
-3.6634309 11.389758 -1.6814893 72.169998
-4.1111126 12.781619 -1.5701251 72.169998
-4.9309654 15.330576 -1.5024341 72.169998
-7.7040076 23.952078 -1.7593977 72.169998
-1.3857425 4.308331 -2.0149734 72.169998
-8.8571339 27.537197 -1.3489629 72.169998
-1.47767 4.5941372 -2.0157621 72.169998
-1.5823995 4.9197454 -2.018024 72.169998
-17.118071 53.220791 0 72.169998
-1.6895391 5.2528472 -2.0083423 72.169998
-17.106112 53.183613 1.2970656 72.169998
-1.8176492 5.6511469 -2.0058529 72.169998
-17.094593 53.1478 2.6035478 72.169998
-1.9572014 6.0850201 -1.9945693 72.169998
-2.122725 6.5996399 -1.9878966 72.169998
-17.075151 53.087357 5.2026916 72.169998
-2.3175628 7.205399 -1.9814394 72.169998
-17.071548 53.076149 6.5200033 72.169998
-2.5521917 7.9348702 -1.9749706 72.169998
-17.051538 53.013943 7.8265386 72.169998
-2.8183208 8.7622757 -1.956449 72.169998
-17.069275 53.069084 9.1588364 72.169998
-3.143198 9.7723322 -1.9340988 72.169998
-3.2917037 10.339186 -1.7826772 72.339996
-3.632024 11.408127 -1.6826028 72.339996
-4.0767865 12.805118 -1.5715189 72.339996
-4.8914981 15.364114 -1.504292 72.339996
-7.6371431 23.98814 -1.7603744 72.339996
-1.3735076 4.3141646 -2.0157869 72.339996
-8.7378139 27.445328 -1.3431865 72.339996
-1.465152 4.6020184 -2.0173037 72.339996
-9.1616688 28.776648 -0.70115167 72.339996
-1.5677953 4.9244189 -2.018024 72.339996
-16.952198 53.246571 0 72.339996
-1.6745163 5.2596278 -2.0090263 72.339996
-16.934286 53.190311 1.295998 72.339996
-1.800874 5.6565151 -2.0058529 72.339996
-16.928341 53.171635 2.6022434 72.339996
-1.9379798 6.087162 -1.9933778 72.339996
-16.907877 53.107361 3.8972943 72.339996
-2.1043007 6.6095734 -1.9889991 72.339996
-16.911522 53.118809 5.2008338 72.339996
-2.2950001 7.2085567 -1.9804263 72.339996
-16.908569 53.109535 6.5179124 72.339996
-2.5292277 7.944262 -1.9754318 72.339996
-16.885757 53.03788 7.8226418 72.339996
-2.7911232 8.7668715 -1.9556173 72.339996
-16.908148 53.108212 9.1568909 72.339996
-3.116574 9.7891064 -1.93558 72.339996
-3.2597988 10.351358 -1.7830014 72.519997
-3.5973563 11.423259 -1.6831595 72.519997
-4.0389247 12.825441 -1.5724481 72.519997
-4.8432064 15.379405 -1.504292 72.519997
-7.55755 23.998693 -1.7593977 72.519997
-1.3577523 4.3114872 -2.0125329 72.519997
-8.5813379 27.249691 -1.332286 72.519997
-1.4495785 4.6030779 -2.0157621 72.519997
-9.0507994 28.740446 -0.69957334 72.519997
-1.5500787 4.9222121 -2.0151141 72.519997
-16.783033 53.293842 0 72.519997
-1.658549 5.266655 -2.0097103 72.519997
-11.072966 35.161751 0.85587484 72.519997
-1.7825255 5.6603374 -2.0052128 72.519997
-16.751612 53.194065 2.6007528 72.519997
-1.9205673 6.0986834 -1.995165 72.519997
-16.757133 53.211597 3.9010611 72.519997
-2.0823708 6.612484 -1.9878966 72.519997
-16.733196 53.135586 5.1973038 72.519997
-2.2723424 7.2157307 -1.9804263 72.519997
-16.73209 53.132076 6.5141959 72.519997
-2.5042577 7.9521685 -1.9754318 72.519997
-16.708342 53.056664 7.8176312 72.519997
-2.7635674 8.7755966 -1.9556173 72.519997
-16.729958 53.125301 9.1507301 72.519997
-3.0834439 9.7913513 -1.9340988 72.519997
-3.2320547 10.364189 -1.7836499 72.68
-3.567801 11.440823 -1.6842729 72.68
-4.0054588 12.844255 -1.5733774 72.68
-4.8049827 15.408078 -1.5057783 72.68
-7.4851575 24.002562 -1.7581421 72.68
-1.3484268 4.3239832 -2.0166004 72.68
-8.4629803 27.138134 -1.3256712 72.68
-1.4372681 4.6088696 -2.0165329 72.68
-8.9633627 28.742702 -0.69901627 72.68
-1.5374365 4.9300785 -2.0165691 72.68
-16.616282 53.283222 0 72.68
-1.6432757 5.2694721 -2.0090263 72.68
-10.971756 35.182991 0.85564274 72.68
-1.7684042 5.6707196 -2.0071335 72.68
-16.591106 53.202492 2.5988894 72.68
-1.9029608 6.1022005 -1.9945693 72.68
-2.0661867 6.6256146 -1.9901017 72.68
-16.574078 53.147888 5.1939597 72.68
-2.2527595 7.2238955 -1.9809328 72.68
-16.571825 53.140667 6.5095496 72.68
-2.4826207 7.9609885 -1.9758929 72.68
-16.551271 53.074753 7.8134561 72.68
-2.7396331 8.7851467 -1.9560332 72.68
-16.565676 53.120945 9.1419754 72.68
-3.0578446 9.8055525 -1.9352098 72.68
-3.1965055 10.371078 -1.7830014 72.870003
-3.5298421 11.452591 -1.6842729 72.870003
-3.9657693 12.866959 -1.5745388 72.870003
-4.7585535 15.439152 -1.5072645 72.870003
-7.403758 24.021532 -1.7577236 72.870003
-1.3335423 4.326685 -2.0157869 72.870003
-8.3499918 27.091591 -1.3220377 72.870003
-1.4214331 4.6118469 -2.0157621 72.870003
-8.8650541 28.762714 -0.69878417 72.870003
-1.521628 4.9369302 -2.0172966 72.870003
-16.433605 53.318916 0 72.870003
-1.6263461 5.2766881 -2.0097103 72.870003
-10.84619 35.190521 0.85494637 72.870003
-1.7507058 5.6801744 -2.008414 72.870003
-16.402821 53.219032 2.5970261 72.870003
-1.8821523 6.1066527 -1.9939735 72.870003
-2.0436375 6.6305928 -1.9895505 72.870003
-16.392464 53.185432 5.1922874 72.870003
-2.2287917 7.2313261 -1.9809328 72.870003
-16.382057 53.151665 6.5042067 72.870003
-2.4562075 7.9691777 -1.9758929 72.870003
-16.365845 53.099064 7.8090029 72.870003
-2.7110617 8.7960529 -1.956449 72.870003
-16.383615 53.156727 9.1387339 72.870003
-3.0224171 9.8062477 -1.9333582 72.870003
-3.1657197 10.380517 -1.7830014 73.040001
-3.4975793 11.468698 -1.6851079 73.040001
-3.9304724 12.888169 -1.5757004 73.040001
-4.7179518 15.470345 -1.5089366 73.040001
-7.3336163 24.047211 -1.7580026 73.040001
-1.3249627 4.344604 -2.0222945 73.040001
-8.2555857 27.070383 -1.3198017 73.040001
-1.4093583 4.6213398 -2.0180745 73.040001
-8.7750092 28.77359 -0.69841278 73.040001
-1.5075167 4.9432049 -2.018024 73.040001
-16.263083 53.327271 0 73.040001
-1.6106827 5.2814903 -2.0097103 73.040001
-10.739981 35.216808 0.85480714 73.040001
-1.7316339 5.6780944 -2.0058529 73.040001
-16.239599 53.250267 2.5961876 73.040001
-1.8679237 6.1249938 -1.9981438 73.040001
-2.0256376 6.6421437 -1.9912043 73.040001
-16.224712 53.201454 5.1891294 73.040001
-2.2073262 7.2379074 -1.9809328 73.040001
-16.220224 53.186737 6.5025806 73.040001
-2.4308486 7.9708457 -1.9745095 73.040001
-16.196093 53.107609 7.8031573 73.040001
-2.68381 8.8003159 -1.9556173 73.040001
-16.212584 53.161686 9.1312761 73.040001
-2.9973211 9.828331 -1.9359503 73.040001
-3.1371865 10.397422 -1.7842984 73.209999
-3.4669683 11.4904 -1.6867779 73.209999
-3.8950841 12.909284 -1.5768619 73.209999
-4.6720295 15.484276 -1.5089366 73.209999
-7.2553191 24.045942 -1.7563285 73.209999
-1.3120663 4.348516 -2.0222945 73.209999
-8.1613798 27.048855 -1.3175657 73.209999
-1.3951072 4.623734 -2.0173037 73.209999
-8.680934 28.770786 -0.69771647 73.209999
-1.4917669 4.9440889 -2.0165691 73.209999
-16.101896 53.365715 0 73.209999
-1.5950052 5.2862463 -2.0097103 73.209999
-10.623315 35.208321 0.8538323 73.209999
-1.7142317 5.6813931 -2.0052128 73.209999
-16.074028 53.273354 2.5949764 73.209999
-1.8464333 6.1195421 -1.9945693 73.209999
-2.0053658 6.6462841 -1.990653 73.209999
-16.057011 53.216949 5.1859708 73.209999
-2.1852822 7.2425723 -1.9804263 73.209999
-16.054886 53.209908 6.4995608 73.209999
-2.4077501 7.9798865 -1.9749706 73.209999
-16.032726 53.136467 7.800374 73.209999
-2.6582522 8.810113 -1.9560332 73.209999
-16.041098 53.164211 9.1234941 73.209999
-2.9692824 9.8409443 -1.9366909 73.209999
-3.1068876 10.408575 -1.7846227 73.379997
-3.4339933 11.504433 -1.6873347 73.379997
-3.8613098 12.936011 -1.5787203 73.379997
-4.6329012 15.520967 -1.511166 73.379997
-7.1856532 24.073099 -1.756747 73.379997
-1.2949774 4.3383837 -2.0157869 73.379997
-8.0965166 27.12464 -1.3200811 73.379997
-1.3824378 4.6313901 -2.0188453 73.379997
-8.5909557 28.78109 -0.69734514 73.379997
-1.4776239 4.9502788 -2.0172966 73.379997
-15.936622 53.390259 0 73.379997
-1.5782385 5.2873535 -2.0083423 73.379997
-10.517659 35.235855 0.85373944 73.379997
-1.6968253 5.6846385 -2.0045726 73.379997
-15.899893 53.267208 2.5923676 73.379997
-1.8293602 6.1286526 -1.9957608 73.379997
-15.904649 53.283142 3.8883653 73.379997
-1.9856371 6.652205 -1.990653 73.379997
-15.891638 53.239552 5.1835556 73.379997
-2.1643369 7.2508783 -1.9809328 73.379997
-15.889551 53.232563 6.496541 73.379997
-2.3846195 7.9888601 -1.9754318 73.379997
-15.865933 53.153439 7.7959204 73.379997
-2.6326599 8.8198357 -1.956449 73.379997
-15.879334 53.198334 9.1212244 73.379997
-2.9400706 9.8497114 -1.9366909 73.379997
-3.0758483 10.423963 -1.7855953 73.559998
-3.3983948 11.517063 -1.687613 73.559998
-3.823462 12.957604 -1.5798818 73.559998
-4.5886264 15.550725 -1.5126523 73.559998
-7.1122484 24.103209 -1.7573051 73.559998
-1.2818588 4.344183 -2.0166004 73.559998
-8.0084352 27.14036 -1.3196154 73.559998
-1.3684034 4.6374803 -2.0196164 73.559998
-1.4625921 4.9566832 -2.018024 73.559998
-15.758059 53.403614 0 73.559998
-1.5621519 5.2940884 -2.0090263 73.559998
-10.40012 35.245712 0.85318238 73.559998
-1.6789581 5.6899414 -2.0045726 73.559998
-15.727947 53.301567 2.5916224 73.559998
-1.8117186 6.1398625 -1.997548 73.559998
-15.723625 53.286919 3.8850172 73.559998
-1.9652729 6.660254 -1.9912043 73.559998
-15.722048 53.281574 5.1828127 73.559998
-2.1409993 7.2557859 -1.9804263 73.559998
-15.713243 53.251736 6.4928241 73.559998
-2.3595099 7.9963121 -1.9754318 73.559998
-15.712321 53.248611 7.8026009 73.559998
-2.6032777 8.8224344 -1.9552015 73.559998
-15.707661 53.232815 9.1186304 73.559998
-2.9096687 9.8607845 -1.9370612 73.559998
-3.0494936 10.441983 -1.7872165 73.720001
-3.3651094 11.522706 -1.6870563 73.720001
-3.7906041 12.979672 -1.5812756 73.720001
-4.5535564 15.592151 -1.515439 73.720001
-7.0415564 24.111485 -1.7564681 73.720001
-1.2686981 4.3442378 -2.0149734 73.720001
-7.9326143 27.162619 -1.3196154 73.720001
-1.3538958 4.6359692 -2.0173037 73.720001
-8.4082441 28.791258 -0.69637024 73.720001
-1.449267 4.9625363 -2.0187516 73.720001
-15.592047 53.389816 0 73.720001
-1.5478888 5.3002338 -2.0097103 73.720001
-10.299413 35.266937 0.85299671 73.720001
-1.6635934 5.6964264 -2.0052128 73.720001
-15.57176 53.320351 2.5904112 73.720001
-1.7934953 6.1412325 -1.9963565 73.720001
-15.56637 53.301895 3.8829243 73.720001
-1.9477443 6.6694069 -1.9923068 73.720001
-15.564823 53.296597 5.1800261 73.720001
-2.1207292 7.2617369 -1.9804263 73.720001
-15.55111 53.249641 6.4872489 73.720001
-2.3377163 8.0047379 -1.9758929 73.720001
-15.549682 53.244751 7.7956419 73.720001
-2.580276 8.8353033 -1.956449 73.720001
-15.550093 53.246159 9.1134424 73.720001
-2.8826718 9.8707581 -1.9374316 73.720001
-3.0190458 10.452882 -1.7875408 73.889999
-3.3320053 11.536446 -1.687613 73.889999
-3.7553833 13.002313 -1.5826694 73.889999
-4.5111418 15.618985 -1.5167395 73.889999
-6.9638953 24.111187 -1.7549334 73.889999
-1.256817 4.3514938 -2.0166004 73.889999
-7.8414536 27.149567 -1.3178451 73.889999
-1.3401346 4.6399655 -2.0173037 73.889999
-8.317234 28.796869 -0.69590604 73.889999
-1.4335026 4.9632349 -2.0172966 73.889999
-15.427463 53.414707 0 73.889999
-1.5316343 5.3029976 -2.0090263 73.889999
-15.419978 53.38879 1.2901952 73.889999
-1.6503649 5.7140799 -2.0096943 73.889999
-15.404617 53.335609 2.5889206 73.889999
-1.7747363 6.1446929 -1.9957608 73.889999
-15.397633 53.311428 3.8802736 73.889999
-1.9263468 6.6696157 -1.990653 73.889999
-15.403858 53.332977 5.1790972 73.889999
-2.0975633 7.2624207 -1.9789069 73.889999
-15.385881 53.270741 6.4842291 73.889999
-2.3144956 8.0135088 -1.976354 73.889999
-15.388885 53.281139 7.7942505 73.889999
-2.5535069 8.8410406 -1.9560332 73.889999
-15.382183 53.257935 9.1076059 73.889999
-2.8533721 9.8792677 -1.9374316 73.889999
-2.988359 10.469906 -1.7888378 74.07
-3.2973769 11.55257 -1.6884481 74.07
-3.7221496 13.040789 -1.5859216 74.07
-4.4664235 15.648399 -1.5182258 74.07
-6.8667579 24.058125 -1.7494924 74.07
-1.2426387 4.3536639 -2.0157869 74.07
-7.7654433 27.206726 -1.3194289 74.07
-1.3250446 4.6423783 -2.0165329 74.07
-8.2228842 28.809397 -0.69558108 74.07
-1.4168805 4.9641309 -2.0158417 74.07
-15.252444 53.437908 0 74.07
-1.5144511 5.3059764 -2.0083423 74.07
-10.076654 35.304203 0.85239321 74.07
-1.6292852 5.7083044 -2.0058529 74.07
-15.227113 53.349159 2.5872436 74.07
-1.7554234 6.150238 -1.9957608 74.07
-15.222408 53.332676 3.8783205 74.07
-1.9080224 6.6848779 -1.9934094 74.07
-15.225301 53.342812 5.1753812 74.07
-2.0768614 7.2764163 -1.9809328 74.07
-15.211363 53.29398 6.4812088 74.07
-2.2871726 8.0132551 -1.9745095 74.07
-15.214899 53.30637 7.7909102 74.07
-2.5257194 8.8490191 -1.9560332 74.07
-15.203418 53.266144 9.1007977 74.07
-2.8260975 9.901412 -1.9400237 74.07
-2.9578168 10.480626 -1.789162 74.239998
-3.2636232 11.564209 -1.6887264 74.239998
-3.6866777 13.063246 -1.5873154 74.239998
-4.427546 15.688413 -1.5208268 74.239998
-6.8153958 24.149437 -1.7546543 74.239998
-1.2292194 4.3555732 -2.0149734 74.239998
-7.6993365 27.281561 -1.3219445 74.239998
-1.3127683 4.6516175 -2.0188453 74.239998
-8.1357393 28.827896 -0.69544184 74.239998
-1.4036634 4.9736919 -2.018024 74.239998
-15.085132 53.452133 0 74.239998
-1.5012536 5.31949 -2.0117624 74.239998
-15.079439 53.431957 1.2889882 74.239998
-1.6143997 5.7204075 -2.008414 74.239998
-15.063872 53.376801 2.586405 74.239998
-1.7371676 6.1554193 -1.9957608 74.239998
-15.060307 53.364166 3.8773439 74.239998
-1.886613 6.6849589 -1.9917555 74.239998
-15.058849 53.359001 5.1725945 74.239998
-2.0578902 7.2918568 -1.9834653 74.239998
-15.040761 53.294907 6.4758658 74.239998
-2.2633867 8.0200052 -1.9745095 74.239998
-15.047524 53.318874 7.7861781 74.239998
-2.5010469 8.8621225 -1.9572806 74.239998
-15.044771 53.30912 9.1004734 74.239998
-2.7940378 9.9002962 -1.9381721 74.239998
-2.9259367 10.493669 -1.7898105 74.419998
-3.2283409 11.57822 -1.6892831 74.419998
-3.6525562 13.099639 -1.5903354 74.419998
-4.385191 15.727181 -1.523242 74.419998
-6.7416382 24.178415 -1.7552124 74.419998
-1.2160206 4.3611736 -2.0157869 74.419998
-7.631835 27.371044 -1.3251121 74.419998
-1.2981484 4.6557188 -2.0188453 74.419998
-7.6842546 27.559044 -0.6642465 74.419998
-1.3875308 4.9762826 -2.0172966 74.419998
-14.91391 53.487701 0 74.419998
-1.4825155 5.3169389 -2.0090263 74.419998
-9.8468437 35.315022 0.85118628 74.419998
-1.593876 5.7163253 -2.0052128 74.419998
-14.890207 53.402691 2.5853801 74.419998
-1.7167957 6.1571684 -1.9945693 74.419998
-14.881867 53.37278 3.8745537 74.419998
-1.8645697 6.687149 -1.990653 74.419998
-14.88419 53.381111 5.1701794 74.419998
-2.0318542 7.2871037 -1.9804263 74.419998
-14.873789 53.343811 6.4760985 74.419998
-2.239748 8.0327005 -1.9758929 74.419998
-14.871965 53.337269 7.7820029 74.419998
-2.4721425 8.8661671 -1.956449 74.419998
-14.86715 53.32 9.0943127 74.419998
-2.7613378 9.9033451 -1.9370612 74.419998
-2.8947885 10.502303 -1.7898105 74.589996
-3.1960785 11.595386 -1.6903964 74.589996
-3.616312 13.119993 -1.5914968 74.589996
-4.3469744 15.77084 -1.5262145 74.589996
-6.6666889 24.186771 -1.7543753 74.589996
-1.20259 4.3630009 -2.0149734 74.589996
-7.5882816 27.530315 -1.331727 74.589996
-1.2838385 4.6577711 -2.0180745 74.589996
-7.6205158 27.647261 -0.66582483 74.589996
-1.3742449 4.9857655 -2.019479 74.589996
-14.740263 53.47773 0 74.589996
-1.4687309 5.3285613 -2.0117624 74.589996
-14.736823 53.465248 1.2875956 74.589996
-1.5759014 5.7173762 -2.0039322 74.589996
-14.722669 53.413895 2.5837963 74.589996
-1.6990268 6.1640759 -1.995165 74.589996
-14.711248 53.372463 3.8713448 74.589996
-1.8452312 6.6945057 -1.9912043 74.589996
-14.720448 53.405842 5.1683216 74.589996
-2.0117664 7.298696 -1.9819459 74.589996
-14.704365 53.347492 6.47122 74.589996
-2.2148705 8.0355577 -1.9749706 74.589996
-14.704699 53.348701 7.7772713 74.589996
-2.4473848 8.8791208 -1.9576964 74.589996
-14.705735 53.352463 9.0923672 74.589996
-2.7340307 9.9190741 -1.9385425 74.589996
-2.8628173 10.515154 -1.7904589 74.769997
-3.1611958 11.611102 -1.6912315 74.769997
-3.5771639 13.138956 -1.5924261 74.769997
-4.3120546 15.838218 -1.5314164 74.769997
-6.5880504 24.197971 -1.7536777 74.769997
-1.1917571 4.3773351 -2.0198541 74.769997
-7.5505638 27.733292 -1.3403915 74.769997
-1.2682298 4.6582198 -2.0165329 74.769997
-7.5572581 27.757881 -0.66791379 74.769997
-1.3590643 4.9918561 -2.0202065 74.769997
-14.573236 53.527634 0 74.769997
-1.4505024 5.3277092 -2.0097103 74.769997
-14.563532 53.491989 1.2871314 74.769997
-1.5584297 5.7241268 -2.0045726 74.769997
-14.540096 53.40591 2.5811877 74.769997
-1.6781489 6.1638565 -1.9933778 74.769997
-14.537736 53.39724 3.8698101 74.769997
-1.8252008 6.7039795 -1.9923068 74.769997
-14.549458 53.440296 5.1672068 74.769997
-1.9898435 7.3087139 -1.9829588 74.769997
-14.530435 53.370422 6.4684324 74.769997
-2.189615 8.0424767 -1.9749706 74.769997
-14.529222 53.365967 7.7730961 74.769997
-2.4194782 8.8867655 -1.9576964 74.769997
-14.524572 53.348888 9.0839367 74.769997
-2.7038882 9.931407 -1.939283 74.769997
-2.8300672 10.517885 -1.7894863 74.940002
-3.1303332 11.633818 -1.69318 74.940002
-3.541261 13.161022 -1.5938199 74.940002
-4.2748737 15.887479 -1.5349463 74.940002
-6.5125961 24.203926 -1.7527012 74.940002
-1.1782893 4.3790874 -2.0190406 74.940002
-7.4713588 27.767147 -1.3409505 74.940002
-1.2558415 4.6673083 -2.0188453 74.940002
-7.4514875 27.693295 -0.66582483 74.940002
-1.3437631 4.9940672 -2.019479 74.940002
-14.407597 53.545528 0 74.940002
-1.4351767 5.3338041 -2.0103943 74.940002
-14.396961 53.506004 1.2864351 74.940002
-1.5404544 5.7250662 -2.0032921 74.940002
-14.374825 53.423737 2.5799766 74.940002
-1.6623333 6.1780267 -1.9963565 74.940002
-14.374056 53.420876 3.8684151 74.940002
-1.8058012 6.7112217 -1.9928581 74.940002
-14.379451 53.440926 5.1631193 74.940002
-1.9671439 7.3108487 -1.9819459 74.940002
-14.363759 53.382607 6.4647155 74.940002
-2.1672599 8.0545759 -1.976354 74.940002
-14.363099 53.380154 7.7689209 74.940002
-2.3925917 8.8920164 -1.9572806 74.940002
-14.363655 53.382221 9.0823154 74.940002
-2.6764522 9.9469776 -1.9407643 74.940002
-2.8016996 10.529561 -1.7901348 75.099998
-3.0998704 11.650169 -1.6942934 75.099998
-3.5096025 13.190056 -1.5961429 75.099998
-4.2356114 15.918598 -1.5368042 75.099998
-6.4424157 24.212378 -1.7520036 75.099998
-1.1632372 4.3717666 -2.0141599 75.099998
-7.3824878 27.745428 -1.3389008 75.099998
-1.241854 4.6672306 -2.0173037 75.099998
-7.682086 28.871403 -0.69363141 75.099998
-1.3298118 4.9978004 -2.019479 75.099998
-14.245671 53.539169 0 75.099998
-1.4188266 5.3323426 -2.0083423 75.099998
-14.238749 53.513149 1.285646 75.099998
-1.5293331 5.7476563 -2.0096943 75.099998
