# .PCD v0.7 - Point Cloud Data file format
VERSION 0.7
FIELDS x y z intensity
SIZE 4 4 4 4
TYPE F F F F
COUNT 1 1 1 1
WIDTH 1222
HEIGHT 1
VIEWPOINT 0 0 0 1 0 0 0
POINTS 1222
DATA ascii
2.5926185 -1.206755 -1.1166787 204.96001
7.7206278 -3.5936279 0 204.96001
7.743926 -3.6044722 0.19831303 204.96001
2.9494467 -1.3728436 -1.0992818 204.96001
4.9399734 -2.2993503 -1.7002691 204.96001
5.2724681 -2.4541125 -1.667606 204.96001
5.6394172 -2.624912 -1.6284068 204.96001
6.0905514 -2.8348958 -1.5917811 204.96001
6.6190095 -3.0808709 -1.5518528 204.96001
7.1024728 -3.3059027 -1.4760325 204.96001
7.6894965 -3.6085718 -1.3955334 205.14
8.222353 -3.8586338 -1.2764957 205.14
8.3818312 -3.9334748 -1.0827568 205.14
10.81089 -5.0733976 -1.1141459 205.14
13.379844 -6.2789712 -1.0335119 205.14
18.959337 -8.8973484 -0.97666812 205.14
2.6179278 -1.2285564 -1.2079155 205.14
7.732564 -3.6287827 -0.19831303 205.14
3.0171916 -1.4159254 -1.3014582 205.14
7.7219739 -3.6238129 0 205.14
7.7072229 -3.6168907 0.19766313 205.14
2.9485497 -1.3837126 -1.1005622 205.14
4.9223552 -2.3099916 -1.6966945 205.14
5.2682133 -2.4722979 -1.6687086 205.14
5.6276402 -2.6409717 -1.6273938 205.14
6.0622358 -2.8449214 -1.5867088 205.14
6.6146107 -3.1041431 -1.5531003 205.14
7.0973897 -3.3307045 -1.4771434 205.14
7.7090855 -3.6457143 -1.4010454 205.31
10.444248 -4.9392037 -1.3510649 205.31
9.863287 -4.6644607 -1.0179098 205.31
2.6245587 -1.2411838 -1.2926091 205.31
10.455241 -4.9444027 -0.53934294 205.31
2.6643207 -1.2599876 -1.231041 205.31
7.7777963 -3.6782086 -0.19975209 205.31
2.8007722 -1.324517 -1.209796 205.31
7.6931076 -3.6381581 0 205.31
2.9290402 -1.3851764 -1.1792854 205.31
2.9153125 -1.3786844 -1.0896783 205.31
3.1947167 -1.5108179 -1.1027323 205.31
5.2521648 -2.4838085 -1.6659522 205.31
5.6162815 -2.6560035 -1.6263808 205.31
6.0678425 -2.8695517 -1.5903978 205.31
6.6071401 -3.1245916 -1.5535161 205.31
7.0217361 -3.3206589 -1.4634422 205.31
7.6626029 -3.6515913 -1.3945607 205.48
7.8649735 -3.7480304 -1.224445 205.48
8.1377726 -3.878032 -1.0541837 205.48
13.789015 -6.5711155 -1.0681112 205.48
2.6159165 -1.2466074 -1.2901686 205.48
10.721873 -5.1094775 -0.55387694 205.48
2.7472017 -1.3091711 -1.2711248 205.48
7.721724 -3.6797655 -0.19859156 205.48
2.7951481 -1.3320198 -1.2090685 205.48
7.723805 -3.680757 0 205.48
2.8774128 -1.3712229 -1.1601323 205.48
7.7072845 -3.6728842 0.19822018 205.48
2.859895 -1.3628747 -1.0704712 205.48
3.1988375 -1.5243968 -1.1057111 205.48
5.2326231 -2.4935915 -1.6620933 205.48
5.608376 -2.6726556 -1.6263808 205.48
6.0575447 -2.8867056 -1.5899366 205.48
6.5978398 -3.1441817 -1.5535161 205.48
7.0402408 -3.3550065 -1.469367 205.48
7.6523762 -3.6729751 -1.3945607 205.64
10.741072 -5.1554823 -1.1115448 205.64
2.5910118 -1.2436297 -1.2795935 205.64
10.58869 -5.0823426 -0.54772794 205.64
2.8816268 -1.3831186 -1.3351051 205.64
10.734338 -5.1522503 -0.27644056 205.64
2.8502018 -1.3680353 -1.2345302 205.64
7.7351332 -3.7126968 0 205.64
2.8430746 -1.3646145 -1.1478196 205.64
7.7150235 -3.7030447 0.19868439 205.64
4.8985672 -2.3512065 -1.695503 205.64
5.2412386 -2.5156813 -1.6670548 205.64
5.609612 -2.6924927 -1.6289133 205.64
6.0634956 -2.910347 -1.5936257 205.64
6.5749249 -3.1558218 -1.5501896 205.64
7.0503349 -3.3840084 -1.4734404 205.64
7.5963864 -3.6755085 -1.3864547 205.82001
7.7962408 -3.772208 -1.2172079 205.82001
7.8624878 -3.8042614 -1.0214292 205.82001
10.827771 -5.2390127 -0.84112358 205.82001
2.5772238 -1.2469888 -1.2747127 205.82001
10.597848 -5.1277647 -0.54903227 205.82001
2.8789287 -1.3929685 -1.335876 205.82001
7.7465482 -3.7481642 -0.19979852 205.82001
2.8190577 -1.364 -1.2228906 205.82001
7.7216306 -3.7361081 0 205.82001
2.8353901 -1.3719023 -1.1464515 205.82001
2.9506819 -1.4276862 -1.1076047 205.82001
4.9031868 -2.3724051 -1.6996733 205.82001
5.2454233 -2.5379961 -1.6709137 205.82001
5.5906758 -2.7050464 -1.6258743 205.82001
6.0333009 -2.9192102 -1.5880922 205.82001
6.5737829 -3.1807222 -1.5522686 205.82001
7.0750532 -3.4232616 -1.4808464 205.82001
7.6078615 -3.710602 -1.3906698 206
10.792588 -5.2638969 -1.1202767 206
2.6094215 -1.2727 -1.2926091 206
11.960735 -5.8336406 -0.62058443 206
2.8546338 -1.392298 -1.3266258 206
7.7365317 -3.7733588 -0.19984494 206
2.7477806 -1.3401821 -1.1937914 206
41.313969 -20.150167 0 206
2.8259985 -1.3783317 -1.1443994 206
7.7041841 -3.7575817 0.19900936 206
2.7571497 -1.3447517 -1.0365388 206
2.7472944 -1.339945 -0.95379496 206
5.2287846 -2.5502486 -1.6681572 206
5.5925841 -2.7276855 -1.6289133 206
6.0590835 -2.9552124 -1.5973146 206
6.5707912 -3.2047892 -1.553932 206
7.074863 -3.4506412 -1.4830682 206
7.5861912 -3.727936 -1.3887243 206.17
10.270882 -5.0472221 -1.3382883 206.17
10.500115 -5.1598701 -0.81810391 206.17
7.7781649 -3.8222742 -0.40415782 206.17
2.8306146 -1.3909945 -1.3173757 206.17
12.69426 -6.2380962 -0.32838631 206.17
2.7003195 -1.3269662 -1.174877 206.17
7.7255888 -3.7964377 0 206.17
2.7729814 -1.362673 -1.1245623 206.17
2.7531476 -1.3529264 -1.0365388 206.17
2.7450202 -1.3489325 -0.9543907 206.17
5.2229204 -2.5665994 -1.6687086 206.17
5.5740476 -2.7391472 -1.6258743 206.17
6.0485415 -2.9723186 -1.5968535 206.17
6.5489635 -3.2182312 -1.5510212 206.17
7.0028553 -3.4412787 -1.4701077 206.17
7.5768652 -3.7513039 -1.3890486 206.34
7.85043 -3.8867459 -1.2311252 206.34
2.646033 -1.3100502 -1.3145728 206.34
12.334121 -6.1066198 -0.64182645 206.34
2.7470889 -1.3600831 -1.280375 206.34
7.7785115 -3.8511391 -0.20151612 206.34
2.7664926 -1.3696898 -1.2054311 206.34
41.41592 -20.505011 0 206.34
2.7554519 -1.3642236 -1.11909 206.34
7.7229638 -3.8236372 0.20007704 206.34
2.7508192 -1.3619299 -1.037179 206.34
4.850656 -2.4015586 -1.6889498 206.34
5.2221737 -2.5854969 -1.6709137 206.34
5.5780334 -2.7616827 -1.6294198 206.34
6.0431843 -2.9919789 -1.5977757 206.34
6.5376325 -3.2367802 -1.5506054 206.34
7.0789208 -3.5047719 -1.4882525 206.34
7.653337 -3.8191493 -1.4052607 206.52
10.099441 -5.0397978 -1.3199365 206.52
10.734395 -5.3566508 -0.83889133 206.52
2.6484437 -1.3216197 -1.3178267 206.52
7.7850604 -3.8848817 -0.40574166 206.52
2.7411513 -1.3678825 -1.2796042 206.52
12.691698 -6.3333797 -0.32931474 206.52
2.7855136 -1.3900201 -1.2156157 206.52
7.770257 -3.8774943 0 206.52
2.7561975 -1.3753909 -1.121142 206.52
7.6948113 -3.8398459 0.19965926 206.52
2.7482224 -1.3714112 -1.0378193 206.52
4.8670039 -2.4287202 -1.6972903 206.52
5.2054243 -2.5975978 -1.6681572 206.52
5.5658674 -2.7774653 -1.6284068 206.52
6.0354962 -3.0118184 -1.5982368 206.52
6.5431857 -3.2651644 -1.5543478 206.52
7.0731511 -3.5296264 -1.4893634 206.52
7.5844493 -3.811264 -1.3945607 206.67999
7.65557 -3.847003 -1.2041256 206.67999
8.9120789 -4.4784112 -1.1663853 206.67999
11.695533 -5.8771257 -1.2211574 206.67999
7.826067 -3.9326794 -0.61246186 206.67999
2.7198403 -1.3667479 -1.3552465 206.67999
10.726764 -5.3903098 -0.55983961 206.67999
2.7538106 -1.3838183 -1.2873126 206.67999
12.159429 -6.1102386 -0.31594533 206.67999
2.7466636 -1.3802267 -1.2003387 206.67999
7.7165093 -3.8776255 0 206.67999
2.7254775 -1.3695805 -1.1101974 206.67999
2.7443821 -1.3790803 -1.0378193 206.67999
4.8550849 -2.4397302 -1.695503 206.67999
5.208457 -2.6173034 -1.6714649 206.67999
5.5632758 -2.7956035 -1.6299263 206.67999
6.0270619 -3.0286608 -1.5982368 206.67999
6.5357904 -3.284302 -1.5547637 206.67999
7.0632672 -3.5493646 -1.4893634 206.67999
7.6228228 -3.8622613 -1.4039637 206.87
7.7894077 -3.946665 -1.2272284 206.87
7.7542429 -3.928848 -1.0165509 206.87
10.652799 -5.3974619 -1.1141459 206.87
9.5571108 -4.8423085 -0.74918455 206.87
2.6826966 -1.3592439 -1.338977 206.87
10.384482 -5.2615137 -0.54288328 206.87
2.7804849 -1.4087905 -1.3019587 206.87
7.7336373 -3.9184079 -0.20128401 206.87
2.7537045 -1.3952216 -1.2054311 206.87
2.7142148 -1.3752133 -1.1074612 206.87
7.7193689 -3.9111784 0.20091264 206.87
4.5499845 -2.3053441 -1.7235099 206.87
4.8452649 -2.4549539 -1.6949073 206.87
5.2014642 -2.6354299 -1.6720161 206.87
5.5557008 -2.8149111 -1.6304328 206.87
6.0152493 -3.0477509 -1.5977757 206.87
6.5300984 -3.30861 -1.5560111 206.87
7.0286665 -3.5612197 -1.4845495 206.87
7.585638 -3.8700798 -1.3991001 207.03
8.4988089 -4.3359661 -1.1157436 207.03
7.8161154 -3.9876661 -0.61357796 207.03
2.5551991 -1.3036246 -1.277153 207.03
10.432034 -5.3222694 -0.54614407 207.03
2.6516039 -1.352809 -1.2433745 207.03
10.64538 -5.4311152 -0.27746183 207.03
2.7431595 -1.3995193 -1.2025212 207.03
7.7461247 -3.9519577 0 207.03
2.6819043 -1.3682678 -1.0958326 207.03
4.8434925 -2.4710779 -1.6966945 207.03
5.190659 -2.6481972 -1.6709137 207.03
5.5460949 -2.8295352 -1.6299263 207.03
6.0119157 -3.0671902 -1.599159 207.03
6.5312891 -3.3321669 -1.558506 207.03
7.0362015 -3.5897655 -1.4882525 207.03
7.569932 -3.892087 -1.3984516 207.21001
7.7588053 -3.9891961 -1.226115 207.21001
8.1636171 -4.197331 -1.0734648 207.21001
7.8106465 -4.0158505 -0.61413598 207.21001
2.5510912 -1.3116456 -1.277153 207.21001
10.344193 -5.3184757 -0.54241741 207.21001
2.6916547 -1.3839166 -1.2641872 207.21001
2.7768567 -1.4277232 -1.2192532 207.21001
12.109207 -6.2259588 0 207.21001
2.6525214 -1.3637961 -1.0855719 207.21001
4.813632 -2.4749331 -1.6889498 207.21001
5.1754751 -2.6609747 -1.6687086 207.21001
5.5423403 -2.8495989 -1.6314459 207.21001
5.9970579 -3.0833924 -1.5977757 207.21001
6.5329676 -3.3589306 -1.5614167 207.21001
7.0511079 -3.6253331 -1.4938071 207.21001
7.5951524 -3.9335899 -1.4052607 207.38
7.7803493 -4.0295053 -1.2314036 207.38
8.0770426 -4.1831651 -1.0637081 207.38
7.7644873 -4.0212898 -0.81577694 207.38
7.6622815 -3.9683568 -0.6033935 207.38
2.6769812 -1.3864299 -1.3422309 207.38
7.780869 -4.0297742 -0.4086298 207.38
2.7793064 -1.439425 -1.3073547 207.38
7.7712474 -4.0247912 -0.2031873 207.38
2.7130535 -1.405112 -1.193064 207.38
2.6434567 -1.3690673 -1.0835198 207.38
7.6931267 -3.9843318 0.20114474 207.38
3.0032587 -1.5554117 -1.1428176 207.38
5.1624355 -2.6736665 -1.6670548 207.38
5.5372968 -2.8678102 -1.6324588 207.38
5.9792423 -3.0966973 -1.5954701 207.38
6.5507669 -3.3926945 -1.5680699 207.38
7.017632 -3.6344879 -1.4889932 207.38
7.6779346 -4.0053997 -1.4227697 207.55
7.9281516 -4.135932 -1.2567331 207.55
7.7772393 -4.0572047 -0.81837797 207.55
7.814981 -4.0768933 -0.61636817 207.55
2.8753448 -1.5000005 -1.4439151 207.55
2.7799318 -1.4502257 -1.3096672 207.55
7.8337264 -4.0866728 -0.205137 207.55
2.6840961 -1.4002304 -1.1821518 207.55
12.05077 -6.2866058 0 207.55
2.6627109 -1.3890742 -1.0930964 207.55
2.9835112 -1.5564283 -1.1370555 207.55
3.2618713 -1.7016423 -1.1480093 207.55
5.145957 -2.684526 -1.6642983 207.55
5.5184712 -2.8788579 -1.6294198 207.55
5.9700279 -3.1144245 -1.5954701 207.55
6.5493441 -3.41664 -1.5701491 207.55
6.9266601 -3.6134772 -1.4719591 207.55
7.7016635 -4.0451784 -1.4292544 207.71001
7.8159299 -4.105195 -0.6173448 207.71001
2.8161483 -1.4791379 -1.416257 207.71001
7.8017478 -4.0977464 -0.41095901 207.71001
2.7350256 -1.4365295 -1.2903961 207.71001
11.097057 -5.8285565 -0.29101694 207.71001
2.6455393 -1.3895283 -1.1668748 207.71001
12.073892 -6.3416233 0 207.71001
2.9583132 -1.5538079 -1.2162236 207.71001
7.719615 -4.0546074 0.20244455 207.71001
3.2942922 -1.7302755 -1.1611158 207.71001
5.1367383 -2.6979918 -1.6637471 207.71001
4.893765 -2.5703738 -1.4470788 207.71001
5.9544158 -3.1274641 -1.5936257 207.71001
6.543241 -3.4367354 -1.5709808 207.71001
6.9652624 -3.6583955 -1.4823277 207.71001
7.8694825 -4.1666765 -1.2514446 207.89999
10.44846 -5.5321746 -1.1029989 207.89999
7.8340116 -4.1478958 -0.619856 207.89999
2.8209162 -1.4935982 -1.4211378 207.89999
7.7969446 -4.1282697 -0.41142482 207.89999
2.6829486 -1.4205482 -1.2680415 207.89999
11.063532 -5.8578386 -0.29064557 207.89999
2.6211596 -1.3878325 -1.1581451 207.89999
7.7629972 -4.1102953 0 207.89999
2.9049773 -1.5381062 -1.1963865 207.89999
3.2602909 -1.7262352 -1.2465355 207.89999
2.9920449 -1.5842062 -0.9707948 207.89999
5.5042024 -2.914325 -1.6304328 207.89999
5.9422922 -3.1462817 -1.5931644 207.89999
6.5318084 -3.4584146 -1.5709808 207.89999
7.0069389 -3.7099831 -1.4938071 207.89999
7.5211101 -4.0108395 -1.4003971 208.07001
7.8483472 -4.1853476 -1.2500528 208.07001
7.8332729 -4.177309 -1.038155 208.07001
10.460114 -5.5781441 -1.1059713 208.07001
2.8229208 -1.5054004 -1.4243917 208.07001
10.404228 -5.5483418 -0.54987079 208.07001
2.6640663 -1.4206868 -1.2611039 208.07001
11.063745 -5.9000473 -0.29110977 208.07001
2.6400442 -1.4078764 -1.1683297 208.07001
2.9103508 -1.5520248 -1.2004907 208.07001
7.7645578 -4.1406646 0.20430142 208.07001
2.9834902 -1.5910286 -1.0550723 208.07001
2.9856348 -1.5921721 -0.97024351 208.07001
5.4989452 -2.9324644 -1.6314459 208.07001
5.9552546 -3.1758037 -1.599159 208.07001
6.524971 -3.4796207 -1.5718124 208.07001
6.9698868 -3.7168844 -1.4882525 208.07001
7.5126538 -4.0350051 -1.4010454 208.24001
7.8488445 -4.2155709 -1.0418718 208.24001
10.315451 -5.5403719 -1.0924091 208.24001
11.783317 -6.3287544 -0.93529481 208.24001
2.7637148 -1.484376 -1.3967336 208.24001
2.6630909 -1.4303315 -1.2626456 208.24001
7.746954 -4.1608462 -0.20416215 208.24001
2.7212007 -1.4615419 -1.2061585 208.24001
12.007667 -6.4492517 0 208.24001
2.9487808 -1.5837739 -1.2182758 208.24001
7.7082014 -4.1400323 0.20314087 208.24001
2.9895902 -1.6056924 -1.146659 208.24001
2.9821205 -1.6016804 -1.0562638 208.24001
2.9842851 -1.602843 -0.97134602 208.24001
5.4782891 -2.9423587 -1.6279004 208.24001
5.9578071 -3.1999052 -1.6023868 208.24001
6.5197883 -3.5017424 -1.5730598 208.24001
7.014235 -3.767307 -1.5001023 208.24001
7.5770268 -4.0985923 -1.4153121 208.41
7.8460193 -4.2440968 -1.2536713 208.41
7.7768965 -4.2067065 -1.0339736 208.41
10.517907 -5.689384 -1.1156322 208.41
8.5478544 -4.6237359 -0.67956758 208.41
2.7609055 -1.4934388 -1.3975471 208.41
10.323676 -5.5843196 -0.54735529 208.41
3.0289297 -1.6384195 -1.4383985 208.41
12.078458 -6.5335221 -0.31882349 208.41
2.7283225 -1.475814 -1.2112509 208.41
7.7208261 -4.1763768 0 208.41
2.9291914 -1.5844686 -1.2121193 208.41
2.9748135 -1.6091467 -1.1428176 208.41
2.9807136 -1.6123382 -1.0574553 208.41
5.091557 -2.754143 -1.6598881 208.41
5.4508152 -2.9484744 -1.6223288 208.41
5.1968336 -2.8110898 -1.3999559 208.41
6.5007663 -3.5164177 -1.5709808 208.41
7.004755 -3.7890372 -1.5004725 208.41
7.6490254 -4.1686525 -1.4311999 208.59
10.410807 -5.673799 -1.1061572 208.59
2.3904181 -1.302757 -1.2120752 208.59
2.6958635 -1.4692222 -1.1988838 208.59
12.098001 -6.5933051 0 208.59
2.9984593 -1.6341342 -1.2429012 208.59
7.7091026 -4.2013941 0.2038372 208.59
2.9597611 -1.613044 -1.1389762 208.59
4.7878366 -2.6093292 -1.7014606 208.59
5.0457411 -2.7498851 -1.6477602 208.59
5.9227695 -3.2278578 -1.5982368 208.59
6.5017114 -3.5433762 -1.5738915 208.59
6.9772849 -3.8025599 -1.4971398 208.59
7.5629535 -4.1491785 -1.4172575 208.75
7.9335613 -4.3525009 -1.2717638 208.75
9.1973124 -5.0458183 -1.2267836 208.75
7.8503299 -4.3068385 -0.6261341 208.75
2.3835669 -1.3076696 -1.2104483 208.75
8.473999 -4.6489949 -0.45074123 208.75
2.7165914 -1.490373 -1.2942502 208.75
10.18482 -5.5875835 -0.26970944 208.75
2.7162502 -1.490186 -1.209796 208.75
11.81477 -6.4818048 0 208.75
2.9246805 -1.6045346 -1.2141715 208.75
7.7639532 -4.2594509 0.20560122 208.75
4.7688141 -2.616261 -1.6972903 208.75
5.085237 -2.7898567 -1.6631958 208.75
5.4450965 -2.9872823 -1.6258743 208.75
5.9137325 -3.2443848 -1.5982368 208.75
6.4952211 -3.5634005 -1.5747231 208.75
7.013164 -3.8475535 -1.507138 208.75
7.5740628 -4.1862831 -1.4217969 208.92999
7.976583 -4.408761 -1.0657988 208.92999
10.41704 -5.7576337 -1.1104302 208.92999
7.9135914 -4.3739452 -0.63227266 208.92999
7.8123984 -4.3180141 -0.41626951 208.92999
2.5875266 -1.4301596 -1.2348951 208.92999
10.534706 -5.822669 -0.27945796 208.92999
2.8159087 -1.5563893 -1.2563546 208.92999
11.897623 -6.5759711 0 208.92999
2.9245598 -1.6164423 -1.2162236 208.92999
7.7277842 -4.2712469 0.20499773 208.92999
2.9700367 -1.641578 -1.146659 208.92999
4.7689261 -2.6358476 -1.7002691 208.92999
5.1016865 -2.8197687 -1.6714649 208.92999
5.4187512 -2.9950144 -1.6208093 208.92999
5.9086204 -3.2657714 -1.5996201 208.92999
6.4702973 -3.5762174 -1.5713966 208.92999
7.0044823 -3.8714685 -1.5078787 208.92999
7.6892161 -4.2797627 -1.4457908 209.10001
8.1387177 -4.529952 -1.3090622 209.10001
7.9409022 -4.4198494 -1.0627788 209.10001
7.8325906 -4.3595643 -0.62683165 209.10001
2.7363346 -1.5230243 -1.3942932 209.10001
8.6339712 -4.8056068 -0.46080327 209.10001
2.5719841 -1.431548 -1.2294992 209.10001
10.239598 -5.6992874 -0.27207693 209.10001
2.7282586 -1.5185292 -1.2192532 209.10001
11.797672 -6.5665002 0 209.10001
2.7900207 -1.5529056 -1.1621845 209.10001
7.7465243 -4.3116603 0.20583333 209.10001
2.9502528 -1.6420896 -1.1408969 209.10001
4.7627525 -2.6509142 -1.7008648 209.10001
5.1067367 -2.8423731 -1.6758751 209.10001
5.3692675 -2.9884958 -1.6086532 209.10001
5.9023056 -3.2851813 -1.6005424 209.10001
6.469914 -3.6011078 -1.5738915 209.10001
7.0084205 -3.9008367 -1.5112114 209.10001
7.6816487 -4.3054528 -1.4467635 209.27
10.29236 -5.7687192 -1.1007694 209.27
2.7604923 -1.5472161 -1.4089358 209.27
2.5757747 -1.4436845 -1.2333535 209.27
12.197056 -6.8362737 -0.32462618 209.27
2.6116061 -1.4637674 -1.1690571 209.27
11.799073 -6.6132102 0 209.27
2.744415 -1.5382049 -1.1450834 209.27
11.808104 -6.6182714 0.31427416 209.27
4.7631936 -2.6697011 -1.7038436 209.27
5.0680933 -2.8405931 -1.6659522 209.27
5.4515166 -3.0554962 -1.6360043 209.27
5.899323 -3.3064852 -1.6023868 209.27
6.4557877 -3.6183758 -1.5730598 209.27
7.0019588 -3.9244969 -1.5123223 209.27
7.7179222 -4.3577037 -1.4561665 209.45
7.8280563 -4.4198875 -1.2634134 209.45
11.693954 -6.6026559 -0.93906164 209.45
2.8335772 -1.5998982 -1.4487959 209.45
8.2930527 -4.6824346 -0.4441264 209.45
2.6017597 -1.469009 -1.2479995 209.45
2.5534596 -1.4417378 -1.1450504 209.45
8.0477953 -4.5439572 0 209.45
2.6119189 -1.4747452 -1.0917283 209.45
7.725265 -4.3618493 0.2059726 209.45
4.7581081 -2.6865294 -1.7050351 209.45
5.0909524 -2.8744605 -1.6764264 209.45
5.44526 -3.0745101 -1.6370174 209.45
5.8685703 -3.3135202 -1.5968535 209.45
6.4358711 -3.6338301 -1.5709808 209.45
6.9895954 -3.9464748 -1.5123223 209.45
7.7358403 -4.3981414 -1.4620028 209.62
7.7873602 -4.4274325 -1.2589599 209.62
7.8350825 -4.4545646 -0.8408578 209.62
9.9780588 -5.6729341 -0.80261797 209.62
2.9002926 -1.648935 -1.4854022 209.62
8.1575499 -4.6379004 -0.43760473 209.62
2.5877638 -1.4712495 -1.2433745 209.62
10.705429 -6.0864739 -0.28591058 209.62
2.5556488 -1.4529908 -1.1479603 209.62
11.788013 -6.7019668 0 209.62
2.6206021 -1.4899194 -1.0972006 209.62
7.8026743 -4.4361391 0.20838651 209.62
2.5580301 -1.4543446 -0.99428338 209.62
4.7534356 -2.7025223 -1.7062266 209.62
4.9771099 -2.8296905 -1.6416961 209.62
5.4445238 -3.0954342 -1.6395499 209.62
5.8688641 -3.336689 -1.5996201 209.62
6.4080544 -3.6432407 -1.5668225 209.62
6.9761467 -3.9662244 -1.511952 209.62
7.7185597 -4.4204607 -1.4613544 209.8
8.3482866 -4.7811089 -1.1250356 209.8
8.0267849 -4.596983 -0.43136254 209.8
2.5959404 -1.4867091 -1.2495412 209.8
10.5648 -6.0505185 -0.28266105 209.8
2.5753212 -1.4749004 -1.1588725 209.8
39.314983 -22.515902 0 209.8
2.5800292 -1.4775968 -1.0821518 209.8
7.7175617 -4.4198895 0.20648323 209.8
2.548516 -1.4595488 -0.99236268 209.8
4.7101302 -2.6975169 -1.6937158 209.8
5.0416007 -2.887352 -1.6659522 209.8
5.4414883 -3.1163697 -1.6415759 209.8
5.8566637 -3.3541429 -1.599159 209.8
6.3863916 -3.657521 -1.5643276 209.8
6.9534187 -3.9822605 -1.5097302 209.8
7.7138004 -4.4445939 -1.4626513 209.95
8.3623514 -4.8182807 -1.3563811 209.95
10.342227 -5.9590602 -1.1135886 209.95
7.9502983 -4.5808611 -0.64162004 209.95
2.7846794 -1.604497 -1.4308995 209.95
8.0822334 -4.6568799 -0.43499604 209.95
2.6112278 -1.5045563 -1.2587913 209.95
10.522938 -6.0631828 -0.28196472 209.95
2.5682228 -1.4797773 -1.1574175 209.95
12.151255 -7.0013986 0 209.95
2.5631249 -1.47684 -1.0766795 209.95
7.7544727 -4.4680285 0.20778303 209.95
2.5578201 -1.4737834 -0.99748456 209.95
4.7212486 -2.7203236 -1.7002691 209.95
5.100656 -2.9389334 -1.6880032 209.95
5.4316344 -3.1296387 -1.6410694 209.95
5.8579803 -3.3752937 -1.6019257 209.95
6.3835745 -3.6781344 -1.5659908 209.95
6.956593 -4.0083008 -1.5126926 209.95
7.7382741 -4.4929409 -1.4701089 210.14
8.4405298 -4.9006796 -1.37169 210.14
7.9040375 -4.5891857 -1.0688187 210.14
2.6055357 -1.5128075 -1.3414174 210.14
7.826592 -4.54422 -0.42204586 210.14
2.612608 -1.5169138 -1.2618748 210.14
22.885118 -13.287393 -0.61438972 210.14
2.5778015 -1.4967047 -1.1639649 210.14
10.52117 -6.1087265 0 210.14
2.5468364 -1.4787258 -1.0718912 210.14
7.732697 -4.4897032 0.20759735 210.14
4.4602342 -2.589669 -1.7427169 210.14
4.7022953 -2.7302129 -1.6966945 210.14
5.0908823 -2.9558315 -1.6880032 210.14
5.4212265 -3.1476336 -1.6410694 210.14
5.8484378 -3.395678 -1.6023868 210.14
6.3459649 -3.6845489 -1.5597535 210.14
6.9670587 -4.0451636 -1.5178769 210.14
7.7163901 -4.5109015 -1.4684876 210.31
8.3541393 -4.8837214 -1.3599995 210.31
8.5883617 -5.0206447 -1.1633654 210.31
7.8857384 -4.6099 -0.85219061 210.31
2.6073451 -1.52422 -1.3446714 210.31
9.9172583 -5.7975001 -0.53570938 210.31
2.6080959 -1.5246588 -1.2618748 210.31
2.5813911 -1.5090476 -1.1676022 210.31
7.752501 -4.532011 0 210.31
2.5359478 -1.482482 -1.069155 210.31
7.733151 -4.5206995 0.20796871 210.31
4.4492593 -2.6009791 -1.7414364 210.31
4.700767 -2.7480071 -1.6990775 210.31
5.08043 -2.9699531 -1.6874518 210.31
5.4185448 -3.1676106 -1.6430954 210.31
5.851778 -3.4208732 -1.6060758 210.31
6.3670936 -3.72212 -1.5676541 210.31
6.961813 -4.0697851 -1.519358 210.31
7.6604519 -4.50875 -1.4603816 210.48
8.2696323 -4.8672981 -1.3485874 210.48
7.8184595 -4.6017494 -1.0609205 210.48
7.9901166 -4.7027822 -0.64831668 210.48
2.6169825 -1.5402904 -1.3519926 210.48
8.016428 -4.7182684 -0.43378487 210.48
2.5812943 -1.5192851 -1.2510829 210.48
22.700754 -13.361094 -0.61155802 210.48
2.5736914 -1.5148102 -1.1661472 210.48
10.495077 -6.1771393 0 210.48
2.5866065 -1.5224118 -1.0924124 210.48
7.767952 -4.572022 0.20926853 210.48
4.4415226 -2.6141686 -1.7414364 210.48
4.712337 -2.7735634 -1.7062266 210.48
5.0682817 -2.9830637 -1.6863494 210.48
5.420794 -3.1905437 -1.6466409 210.48
5.8382478 -3.4362464 -1.6051536 210.48
6.3560219 -3.7409952 -1.5676541 210.48
6.964951 -4.0993958 -1.5226908 210.48
7.459507 -4.4220905 -1.424715 210.66
8.4263716 -4.9952598 -1.3767003 210.66
8.7139206 -5.1657224 -0.94508255 210.66
2.6199892 -1.5531628 -1.3560599 210.66
2.5860336 -1.5330335 -1.255708 210.66
7.9977837 -4.7411876 -0.21586038 210.66
2.5625093 -1.519088 -1.1632373 210.66
7.7590804 -4.5996814 0 210.66
7.77247 -4.6076188 0.20977916 210.66
4.4283981 -2.6252105 -1.7395157 210.66
4.6871772 -2.7786181 -1.7002691 210.66
5.0605392 -2.9999518 -1.6869006 210.66
5.3990936 -3.2006512 -1.6430954 210.66
5.8207273 -3.4506011 -1.6033092 210.66
6.3459206 -3.7619424 -1.5680699 210.66
6.9266782 -4.1062226 -1.5171362 210.66
7.5192242 -4.4876952 -1.4386574 210.83
8.462533 -5.0506897 -1.3850507 210.83
8.014349 -4.7832003 -0.65264159 210.83
2.773829 -1.655503 -1.4382207 210.83
8.1298447 -4.8521314 -0.44151771 210.83
2.6147523 -1.5605614 -1.2718958 210.83
2.5995843 -1.5515087 -1.1821518 210.83
8.1764622 -4.8799539 0 210.83
3.1307962 -1.8685516 -1.3270382 210.83
7.7553306 -4.6286101 0.20968632 210.83
4.4205894 -2.6383383 -1.7395157 210.83
4.6674361 -2.7856638 -1.6960988 210.83
5.0582194 -3.0188947 -1.6891057 210.83
5.3912349 -3.217648 -1.6436019 210.83
5.8104639 -3.4678564 -1.6033092 210.83
6.3296914 -3.7777467 -1.5668225 210.83
6.9364042 -4.1398506 -1.5219502 210.83
7.4365182 -4.4683108 -1.4253635 211
7.6648936 -4.6055326 -1.2567331 211
8.1317768 -4.8860645 -0.88507438 211
8.0155134 -4.8162065 -0.65389717 211
3.0085216 -1.8077021 -1.5626822 211
8.0503378 -4.837131 -0.43797737 211
2.5800548 -1.5502533 -1.2572497 211
8.1957397 -4.9244971 -0.22198804 211
3.0612655 -1.8393939 -1.3945754 211
3.1622901 -1.9000956 -1.3427711 211
7.7638435 -4.664988 0.21028979 211
4.402997 -2.6455877 -1.7356743 211
4.7049727 -2.827033 -1.7127798 211
5.0475917 -3.0328991 -1.6885544 211
5.3700552 -3.2266545 -1.6400564 211
5.7918081 -3.4800694 -1.6010035 211
6.330193 -3.8035636 -1.5697333 211
6.930829 -4.1644626 -1.5234314 211
7.2618852 -4.3910279 -1.3942364 211.16
8.0148754 -4.8463368 -1.095301 211.16
10.227716 -6.1843705 -1.1150748 211.16
7.9354486 -4.7983098 -0.64845616 211.16
2.8518033 -1.7243935 -1.4837753 211.16
7.922256 -4.7903328 -0.43173519 211.16
2.5504479 -1.5421736 -1.2449161 211.16
2.7819114 -1.682132 -1.2694491 211.16
7.9599605 -4.8131313 0 211.16
4.1412134 -2.5040581 -1.7614037 211.16
7.778162 -4.7032037 0.21103254 211.16
4.3972135 -2.6588533 -1.7363145 211.16
4.7019615 -2.8431244 -1.7145671 211.16
5.0440383 -3.0499671 -1.6902083 211.16
5.3693018 -3.2466435 -1.6425889 211.16
5.7953901 -3.5042853 -1.6046925 211.16
6.3111763 -3.8161647 -1.5676541 211.16
6.9259005 -4.1878686 -1.5249126 211.16
7.274251 -4.4315133 -1.3994243 211.35001
7.8497319 -4.7820992 -1.2918047 211.35001
7.8342052 -4.7726402 -1.0727679 211.35001
7.8262773 -4.7678103 -0.85497737 211.35001
7.8274851 -4.7685466 -0.64092249 211.35001
2.7181211 -1.6558942 -1.4170705 211.35001
2.5358636 -1.5448618 -1.240291 211.35001
7.8222871 -4.7653799 -0.2126573 211.35001
2.6888123 -1.638039 -1.2294378 211.35001
2.6915927 -1.639733 -1.1471356 211.35001
2.6877162 -1.6373713 -1.0634286 211.35001
4.7022901 -2.8646607 -1.7181416 211.35001
5.0355382 -3.0676773 -1.6907595 211.35001
5.3618107 -3.2664442 -1.6436019 211.35001
5.7837377 -3.5234842 -1.6046925 211.35001
6.3018284 -3.839108 -1.5684857 211.35001
6.9035826 -4.2056999 -1.5230612 211.35001
7.5100598 -4.6057773 -1.447412 211.52
7.879405 -4.8322897 -1.2990417 211.52
7.8301702 -4.8020949 -1.0741616 211.52
7.8392568 -4.8076677 -0.85794991 211.52
7.8133025 -4.79175 -0.64092249 211.52
2.6244175 -1.6095054 -1.3707025 211.52
7.7932234 -4.7794361 -0.42633152 211.52
2.5407078 -1.5581679 -1.2449161 211.52
7.9103808 -4.8512864 -0.2154426 211.52
2.7014096 -1.6567233 -1.2374401 211.52
7.7897587 -4.7773113 0 211.52
2.6963284 -1.653607 -1.1512398 211.52
7.7637978 -4.7613897 0.21145034 211.52
2.7103047 -1.6621784 -1.0743126 211.52
4.690515 -2.8766038 -1.7169501 211.52
5.0280528 -3.0836096 -1.6913108 211.52
5.3504462 -3.2813272 -1.6430954 211.52
5.7832117 -3.5467341 -1.6074592 211.52
6.3054185 -3.8669937 -1.5722282 211.52
6.8843718 -4.2220545 -1.5215799 211.52
7.519002 -4.6402054 -1.4516271 211.67999
8.0787525 -4.9856443 -1.1101683 211.67999
7.8901968 -4.8692808 -0.86500973 211.67999
2.6136932 -1.6129898 -1.3674486 211.67999
10.194047 -6.2910571 -0.55862844 211.67999
2.5567632 -1.5778564 -1.2549372 211.67999
7.8899965 -4.8691573 -0.21525691 211.67999
2.7221391 -1.679915 -1.2490798 211.67999
2.7748661 -1.7124544 -1.1868099 211.67999
7.7521725 -4.784102 0.21149676 211.67999
2.9410667 -1.8150219 -1.1677867 211.67999
4.6808386 -2.8886883 -1.7163543 211.67999
5.01615 -3.0956192 -1.6902083 211.67999
5.3280902 -3.2881267 -1.6390433 211.67999
5.7799091 -3.5669582 -1.6093036 211.67999
6.3129082 -3.8958879 -1.5768023 211.67999
6.8876076 -4.2505527 -1.5249126 211.67999
7.3242383 -4.553618 -1.4169333 211.87
8.0318089 -4.9935279 -1.105987 211.87
8.1107674 -5.0426178 -0.89101946 211.87
8.3023596 -5.1617341 -0.68361342 211.87
2.6253982 -1.6322598 -1.3763968 211.87
8.1456289 -5.064292 -0.44729406 211.87
2.6204767 -1.6292 -1.2888544 211.87
10.422563 -6.4799051 -0.28493571 211.87
2.5709953 -1.5984366 -1.1821518 211.87
7.7553353 -4.8216391 0 211.87
2.9144139 -1.8119465 -1.2490575 211.87
7.7753201 -4.834064 0.21256445 211.87
2.9318135 -1.822764 -1.1665063 211.87
4.6728554 -2.9052026 -1.7169501 211.87
5.0140204 -3.1173117 -1.6929647 211.87
5.3220863 -3.3088419 -1.6405629 211.87
5.7829237 -3.5953534 -1.6134537 211.87
6.3099222 -3.9229984 -1.5792972 211.87
6.8417611 -4.2536526 -1.5178769 211.87
7.3248787 -4.5824265 -1.4195272 212.03
9.8186283 -6.1425109 -1.080519 212.03
8.3691006 -5.2356896 -0.69031006 212.03
2.8454282 -1.7800931 -1.4943504 212.03
2.9350836 -1.8361814 -1.4461069 212.03
10.197627 -6.379611 -0.27927229 212.03
2.4954488 -1.5611469 -1.1494153 212.03
10.451315 -6.5383177 0 212.03
2.9109361 -1.8210747 -1.2497416 212.03
7.7465348 -4.8462138 0.21214665 212.03
2.8769162 -1.7997919 -1.146659 212.03
4.6631055 -2.9172277 -1.7163543 212.03
5.0036659 -3.1302817 -1.6924133 212.03
5.3243074 -3.3308742 -1.6441084 212.03
5.7778106 -3.6145847 -1.6148371 212.03
6.2989426 -3.9406037 -1.5792972 212.03
6.8515167 -4.2862926 -1.5226908 212.03
7.3789086 -4.6485457 -1.4328212 212.21001
7.8675613 -4.9563856 -1.3068354 212.21001
7.9112754 -4.9839244 -1.0934427 212.21001
9.125329 -5.7487512 -1.0062054 212.21001
2.8707399 -1.8085011 -1.5106199 212.21001
10.755781 -6.7758989 -0.5928207 212.21001
2.7013273 -1.7017752 -1.3335634 212.21001
2.4905322 -1.5689789 -1.1494153 212.21001
9.7284594 -6.1287093 0 212.21001
2.9020205 -1.8282071 -1.2483735 212.21001
7.7600317 -4.8886442 0.21293584 212.21001
88.662933 -55.855644 4.8867879 212.21001
4.6571488 -2.9338982 -1.7175457 212.21001
5.0051937 -3.1531589 -1.6962723 212.21001
5.3269134 -3.3558347 -1.6481605 212.21001
5.76478 -3.631681 -1.6143759 212.21001
6.288187 -3.9614155 -1.579713 212.21001
6.852984 -4.317225 -1.5260236 212.21001
7.4467511 -4.7222066 -1.4487089 212.38
7.9080162 -5.0147085 -1.3160208 212.38
9.3394861 -5.9224463 -0.77332026 212.38
2.3438253 -1.4862894 -1.2356659 212.38
2.6573029 -1.6850748 -1.3142923 212.38
2.5409324 -1.6112809 -1.174877 212.38
10.534479 -6.6802268 0 212.38
2.8299222 -1.7945378 -1.2196438 212.38
7.7826414 -4.9352045 0.2139571 212.38
2.9554491 -1.8741381 -1.0920088 212.38
2.9452097 -1.8676451 -1.0000123 212.38
5.3267365 -3.3778422 -1.6511995 212.38
5.7556229 -3.6498115 -1.6148371 212.38
6.2764058 -3.9800556 -1.579713 212.38
6.7986484 -4.3112254 -1.516766 212.38
7.4809504 -4.775074 -1.4581119 212.55
7.8730693 -5.025363 -1.3126807 212.55
8.0453148 -5.1353068 -0.8904621 212.55
7.9193034 -5.0548739 -0.65696645 212.55
2.334785 -1.490288 -1.2332255 212.55
8.1523132 -5.2036037 -0.45102075 212.55
2.7876284 -1.779337 -1.3813559 212.55
9.2713318 -5.9178705 -0.25536516 212.55
10.335913 -6.5973902 0 212.55
2.851516 -1.8201164 -1.2312725 212.55
7.7258291 -4.9313798 0.21279657 212.55
2.9291401 -1.8696636 -1.1741891 212.55
2.9257357 -1.8674905 -1.0830725 212.55
4.9831533 -3.1807358 -1.6951697 212.55
5.3101673 -3.389468 -1.6491735 212.55
5.7513299 -3.671061 -1.6166816 212.55
6.2645688 -3.9986606 -1.579713 212.55
6.8587217 -4.3779068 -1.5330594 212.55
7.4293933 -4.7714171 -1.4506544 212.71001
7.8606715 -5.048399 -1.3129591 212.71001
8.113184 -5.2105713 -1.127591 212.71001
10.7909 -6.9302945 -0.89678925 212.71001
2.3675103 -1.5204983 -1.2527488 212.71001
2.874265 -1.8459537 -1.4268358 212.71001
18.877981 -12.124102 -0.52089667 212.71001
10.233307 -6.5721889 0 212.71001
2.8938627 -1.8585402 -1.2517937 212.71001
7.7860527 -5.0004764 0.21483912 212.71001
2.9175305 -1.8737404 -1.1716282 212.71001
2.926935 -1.8797803 -1.0854555 212.71001
4.9532223 -3.1811333 -1.6880032 212.71001
5.3055654 -3.4074202 -1.6506929 212.71001
5.7246809 -3.6765909 -1.6120703 212.71001
6.2550244 -4.0171962 -1.5801289 212.71001
6.8497767 -4.3991671 -1.5338 212.71001
7.4267859 -4.8046036 -1.4532483 212.89999
7.9020886 -5.1120906 -1.3227011 212.89999
8.0691738 -5.2201829 -1.1238742 212.89999
7.9753399 -5.1594787 -0.88618904 212.89999
8.0809193 -5.2277813 -0.67301047 212.89999
2.4376242 -1.5769699 -1.2926091 212.89999
7.7999878 -5.0460386 -0.43322587 212.89999
2.8634791 -1.8524678 -1.4245232 212.89999
18.731909 -12.118216 -0.51797211 212.89999
2.8578176 -1.8488052 -1.3291024 212.89999
21.349854 -13.81184 0 212.89999
2.8876836 -1.8681263 -1.2517937 212.89999
7.7459249 -5.0110636 0.21418922 212.89999
2.9081192 -1.8813467 -1.1703477 212.89999
2.9238913 -1.8915501 -1.086647 212.89999
4.915205 -3.1797888 -1.6786315 212.89999
5.2974858 -3.4270973 -1.651706 212.89999
5.7124577 -3.6955545 -1.6120703 212.89999
6.2482386 -4.0421667 -1.5817921 212.89999
6.8401017 -4.4250603 -1.5349109 212.89999
7.3529596 -4.7878499 -1.4415756 213.07001
7.888546 -5.1365948 -1.3229795 213.07001
7.9487762 -5.1758132 -1.1092392 213.07001
7.9833589 -5.1983318 -0.88879001 213.07001
2.4788678 -1.6141047 -1.3170133 213.07001
10.746623 -6.9976201 -0.59803802 213.07001
2.4790726 -1.614238 -1.2356659 213.07001
2.8788602 -1.8745581 -1.3414695 213.07001
7.749866 -5.0462937 0 213.07001
2.8774033 -1.8736094 -1.2497416 213.07001
7.7980447 -5.0776653 0.21604608 213.07001
2.9168146 -1.899272 -1.1761098 213.07001
4.6269875 -3.0128443 -1.7229075 213.07001
4.9476371 -3.2216337 -1.6929647 213.07001
5.2905369 -3.4449117 -1.6527189 213.07001
5.7210379 -3.7252305 -1.6176038 213.07001
6.2378573 -4.0617552 -1.5822079 213.07001
6.8368244 -4.4517703 -1.5371327 213.07001
7.3073597 -4.7890916 -1.435415 213.24001
7.8699574 -5.1578064 -1.3224229 213.24001
8.2224751 -5.3888392 -1.1496596 213.24001
2.4847648 -1.6284631 -1.3227075 213.24001
10.466817 -6.8597341 -0.58359718 213.24001
2.4711852 -1.6195633 -1.2341243 213.24001
18.830244 -12.340951 -0.5227071 213.24001
2.9091237 -1.9065791 -1.3582015 213.24001
19.004269 -12.455002 0 213.24001
2.8388219 -1.8605049 -1.2353767 213.24001
7.734448 -5.068996 0.21469985 213.24001
2.8984885 -1.8996092 -1.170988 213.24001
4.8930335 -3.2067924 -1.677529 213.24001
5.2819104 -3.4616544 -1.6532254 213.24001
5.7115874 -3.7432554 -1.6180649 213.24001
6.2355952 -4.0866795 -1.5847028 213.24001
6.8055034 -4.4601855 -1.5330594 213.24001
7.2626281 -4.792459 -1.4295787 213.42
7.8173475 -5.1585073 -1.3162992 213.42
7.9265242 -5.2305503 -0.88600326 213.42
7.9981713 -5.2778292 -0.67008066 213.42
2.5436864 -1.6785263 -1.3568734 213.42
10.286802 -6.7880492 -0.57474631 213.42
2.7171605 -1.7929983 -1.3597722 213.42
19.096783 -12.601575 -0.53120226 213.42
2.9388838 -1.9393091 -1.3749335 213.42
7.7556205 -5.1177745 0 213.42
2.8141394 -1.8569927 -1.2271683 213.42
7.7451868 -5.1108894 0.2154426 213.42
2.9099026 -1.920185 -1.1780305 213.42
4.6037164 -3.0378978 -1.7211202 213.42
4.9310741 -3.2539146 -1.6940672 213.42
5.2726245 -3.4792964 -1.6537319 213.42
5.7062964 -3.7654679 -1.6199094 213.42
6.2096634 -4.0976291 -1.5813763 213.42
6.7258396 -4.4382434 -1.5182471 213.42
7.2434444 -4.8107109 -1.428606 213.59
7.8482027 -5.2123594 -1.3240929 213.59
7.6896663 -5.1070676 -1.0795046 213.59
7.8562284 -5.2176895 -0.87987238 213.59
7.9974346 -5.311471 -0.67133629 213.59
2.5843549 -1.7163911 -1.3812777 213.59
10.200047 -6.7743292 -0.57101965 213.59
2.8855455 -1.9164259 -1.4468777 213.59
7.7499752 -5.1471219 -0.21599965 213.59
2.8787999 -1.9119459 -1.3494717 213.59
35.684818 -23.699959 0 213.59
2.819576 -1.8726126 -1.2319566 213.59
7.7766247 -5.1648211 0.2167424 213.59
2.8363228 -1.8837349 -1.1505004 213.59
4.5978632 -3.0536566 -1.7223117 213.59
4.9101872 -3.2610855 -1.6902083 213.59
5.2703366 -3.5002775 -1.6562644 213.59
5.6918569 -3.7802289 -1.6189871 213.59
6.2056265 -4.1214471 -1.5834554 213.59
6.7830424 -4.5049362 -1.5341703 213.59
7.2151709 -4.824667 -1.426012 213.77
7.8136787 -5.2248793 -1.3210311 213.77
7.6438603 -5.1113248 -1.0753231 213.77
7.9624653 -5.3243704 -0.66980165 213.77
2.4984527 -1.6706744 -1.3381636 213.77
2.7168956 -1.8167437 -1.3651681 213.77
11.097864 -7.4209604 -0.30995694 213.77
2.8340623 -1.8950913 -1.3312848 213.77
7.7425013 -5.1772842 0 213.77
2.8339889 -1.8950421 -1.2408491 213.77
7.7620225 -5.1903377 0.21678881 213.77
4.5898347 -3.0691473 -1.7229075 213.77
4.8711514 -3.2572596 -1.6802853 213.77
5.2464471 -3.5082135 -1.6522125 213.77
5.6831884 -3.8002553 -1.6199094 213.77
6.7835608 -4.536056 -1.537503 213.77
7.2360573 -4.8679299 -1.4328212 213.92999
7.8302803 -5.2676835 -1.3263197 213.92999
8.0037003 -5.3843489 -1.1280556 213.92999
7.9475656 -5.3465848 -0.66980165 213.92999
2.5316768 -1.703141 -1.3585004 213.92999
10.30554 -6.9328709 -0.57921833 213.92999
2.7072182 -1.8212334 -1.3628556 213.92999
18.602291 -12.514364 -0.52052528 213.92999
7.7495861 -5.2133975 0 213.92999
2.8458388 -1.9144881 -1.2483735 213.92999
7.7707243 -5.2276182 0.21743873 213.92999
4.5733252 -3.0766242 -1.7199287 213.92999
4.8556561 -3.2665572 -1.6780802 213.92999
5.2542887 -3.5347302 -1.657784 213.92999
5.6790128 -3.820456 -1.6217538 213.92999
6.8165283 -4.5856996 -1.5478715 213.92999
7.2043881 -4.8795714 -1.4295787 214.11
7.6907072 -5.2089577 -1.3054436 214.11
8.2696371 -5.6010704 -1.1680114 214.11
7.8794479 -5.3367934 -0.88786113 214.11
10.27146 -6.9569159 -0.86749148 214.11
2.7060671 -1.8328341 -1.3651681 214.11
10.603342 -7.1817017 -0.29733029 214.11
2.8057995 -1.9003834 -1.3232825 214.11
35.459976 -24.017237 0 214.11
3.4777951 -2.3555295 -1.5288301 214.11
7.7310863 -5.2363067 0.21678881 214.11
2.9195125 -1.9774017 -1.1914754 214.11
4.5620565 -3.0899057 -1.7193331 214.11
4.8756137 -3.3022797 -1.6885544 214.11
5.2319446 -3.5436246 -1.6542385 214.11
5.6557035 -3.8306389 -1.618526 214.11
6.1695857 -4.1786942 -1.5838712 214.11
6.7760515 -4.5894566 -1.5419466 214.11
7.2494469 -4.9396772 -1.4412514 214.27
7.7170486 -5.2582946 -1.3124024 214.27
7.8649044 -5.3590417 -1.112956 214.27
10.213037 -6.9590292 -0.57633018 214.27
22.1959 -15.123992 -0.62358123 214.27
7.7168603 -5.2581663 0 214.27
7.7841797 -5.3040371 0.21869211 214.27
2.9061501 -1.9802122 -1.1882743 214.27
4.5581436 -3.1058586 -1.7211202 214.27
4.8790832 -3.3245425 -1.6929647 214.27
5.2316217 -3.5647581 -1.6572775 214.27
5.6546335 -3.8529925 -1.6212927 214.27
6.1756759 -4.208024 -1.5884453 214.27
6.7502151 -4.5995073 -1.5389842 214.27
7.2201104 -4.9511199 -1.4383332 214.44
7.7471476 -5.3125305 -1.320196 214.44
7.9685631 -5.4643645 -1.129914 214.44
8.286334 -5.6822724 -0.70258719 214.44
3.2186024 -2.2071252 -1.737579 214.44
10.136325 -6.9508858 -0.5731625 214.44
22.297689 -15.290421 -0.62771273 214.44
3.8088663 -2.6118929 -1.803418 214.44
35.575073 -24.395258 0 214.44
2.8519347 -1.9556863 -1.2586341 214.44
7.76511 -5.3248482 0.21859926 214.44
3.2440429 -2.2245708 -1.3291258 214.44
4.5426097 -3.1150503 -1.7187372 214.44
4.8628554 -3.3346555 -1.6907595 214.44
5.2258091 -3.5835474 -1.658797 214.44
5.6383619 -3.8664515 -1.6199094 214.44
6.6554923 -4.5639391 -1.520469 214.44
7.1947756 -4.967051 -1.4363878 214.62
7.9252014 -5.471314 -1.1261972 214.62
3.3454716 -2.3096101 -1.809978 214.62
10.501152 -7.249671 -0.29626259 214.62
3.2349153 -2.2332854 -1.5349786 214.62
7.7389097 -5.3427043 0 214.62
2.8535097 -1.9699749 -1.2620543 214.62
7.7861881 -5.3753438 0.21966696 214.62
4.4888086 -3.0989349 -1.7020563 214.62
3.3002977 -2.2784235 -1.1499591 214.62
5.2065639 -3.594451 -1.6562644 214.62
5.6261873 -3.8841457 -1.6199094 214.62
6.1192675 -4.2245531 -1.5805447 214.62
6.7511063 -4.6607552 -1.5456496 214.62
7.2002029 -5.0042715 -1.4406029 214.8
7.2338524 -5.027658 -1.238084 214.8
7.9210234 -5.5052543 -1.1280556 214.8
8.2740993 -5.7506485 -0.9400664 214.8
7.8507233 -5.4563947 -0.66854602 214.8
3.3291974 -2.3138525 -1.8050972 214.8
7.8498669 -5.4557996 -0.4458034 214.8
7.7709045 -5.400919 -0.21971337 214.8
3.2844858 -2.2827771 -1.5618954 214.8
44.305927 -30.793421 0 214.8
7.7610531 -5.3940725 0.21943486 214.8
3.2268898 -2.2427468 -1.3278452 214.8
4.5276513 -3.1467996 -1.7205245 214.8
3.2883875 -2.2854888 -1.1483052 214.8
5.2031898 -3.6163113 -1.658797 214.8
5.6219473 -3.9073551 -1.6222149 214.8
6.0722308 -4.2203102 -1.5718124 214.8
6.7009249 -4.6572642 -1.537503 214.8
7.1772375 -5.0199571 -1.4389817 214.97
7.7317567 -5.4078035 -1.3260413 214.97
10.174387 -7.1162457 -1.1583624 214.97
8.321703 -5.8204284 -0.71012092 214.97
3.4091558 -2.3844573 -1.8522787 214.97
10.127257 -7.0832825 -0.57633018 214.97
3.5841103 -2.5068252 -1.8269048 214.97
21.635904 -15.132746 -0.61299706 214.97
3.2899115 -2.3010545 -1.5677152 214.97
7.7536573 -5.423121 0 214.97
3.1987181 -2.2372713 -1.4207517 214.97
7.7892532 -5.4480176 0.22068824 214.97
3.2124579 -2.2468815 -1.3246441 214.97
4.4791818 -3.132863 -1.7056308 214.97
3.2752903 -2.290828 -1.1461002 214.97
5.1908517 -3.6306245 -1.6582905 214.97
5.6167083 -3.9284801 -1.6240594 214.97
6.1173935 -4.2786732 -1.586782 214.97
6.6371493 -4.6422048 -1.5260236 214.97
7.1477866 -5.0310073 -1.4360635 215.14
7.7950368 -5.4865775 -1.3396803 215.14
8.161664 -5.7446303 -0.93114877 215.14
8.2097692 -5.7784891 -0.70202917 215.14
3.3751721 -2.3756325 -1.8376361 215.14
2.4780042 -1.7441562 -1.265729 215.14
3.3043981 -2.3258181 -1.5778998 215.14
43.82312 -30.845133 0 215.14
7.7485285 -5.4538422 0.21999191 215.14
4.2392492 -2.9838178 -1.7516801 215.14
80.336578 -56.545326 4.581387 215.14
4.5213881 -3.1824026 -1.7252905 215.14
4.8296137 -3.399349 -1.6935159 215.14
5.1895499 -3.6526918 -1.6613295 215.14
5.611393 -3.9496086 -1.625904 215.14
6.0134854 -4.2326231 -1.5630801 215.14
6.7181721 -4.728621 -1.5478715 215.14
7.1337094 -5.0509477 -1.4360635 215.3
7.8055472 -5.5266356 -1.3441339 215.3
8.1512651 -5.7714171 -0.69840181 215.3
2.4708481 -1.749458 -1.3479252 215.3
8.2095833 -5.8127093 -0.46909511 215.3
7.7920141 -5.5170536 -0.22166309 215.3
7.7631006 -5.4965816 0 215.3
3.1029522 -2.1970127 -1.3838135 215.3
7.7610092 -5.495101 0.22078107 215.3
3.1190517 -2.2084117 -1.2913519 215.3
3.0789597 -2.1800251 -1.177201 215.3
2.9701996 -2.1030185 -1.043563 215.3
5.1809082 -3.6682875 -1.661836 215.3
5.5987535 -3.9641385 -1.6254427 215.3
6.0974383 -4.3172269 -1.5880295 215.3
6.660028 -4.7155623 -1.537503 215.3
7.1265621 -5.0814509 -1.438009 215.49001
7.7984653 -5.5605378 -1.3460822 215.49001
7.8784132 -5.6175432 -1.1315401 215.49001
8.1418285 -5.805366 -0.6992389 215.49001
8.0308495 -5.7262349 -0.45996475 215.49001
2.4522774 -1.7485468 -1.2580205 215.49001
8.0227594 -5.7204661 -0.22876559 215.49001
27.948809 -19.928331 0 215.49001
3.1231935 -2.2269299 -1.3961263 215.49001
7.7346044 -5.5150032 0.22054897 215.49001
3.1086257 -2.2165427 -1.2900715 215.49001
2.9491212 -2.1028111 -1.0386015 215.49001
5.1702909 -3.6865711 -1.6623425 215.49001
5.5903311 -3.9860723 -1.6268262 215.49001
6.03371 -4.3022151 -1.5751389 215.49001
6.7099652 -4.7844048 -1.5526855 215.49001
7.1153731 -5.1072669 -1.4389817 215.67
7.7439518 -5.5584478 -1.3396803 215.67
8.3190403 -5.9712343 -1.1975137 215.67
8.1008587 -5.8146281 -0.69728571 215.67
2.4847324 -1.7834893 -1.3617543 215.67
8.1978436 -5.8842421 -0.47058576 215.67
2.4617646 -1.7670035 -1.265729 215.67
8.3101244 -5.9648347 -0.23749284 215.67
2.4155173 -1.7338083 -1.161055 215.67
7.7713127 -5.5780869 0 215.67
3.1177089 -2.2378268 -1.3968103 215.67
7.7578487 -5.5684228 0.2217095 215.67
3.112422 -2.2340319 -1.2945532 215.67
3.0431032 -2.1842763 -1.1688606 215.67
4.7901535 -3.4382727 -1.6907595 215.67
5.1602554 -3.7039242 -1.6628491 215.67
5.5841045 -4.0081544 -1.6286706 215.67
3.5504351 -2.5484285 -0.92894942 215.67
6.7188516 -4.8226523 -1.5582401 215.67
7.1058831 -5.1305828 -1.4399544 215.83
7.7123423 -5.5684576 -1.3368968 215.83
8.136447 -5.8746696 -1.1735866 215.83
9.7548313 -7.0431738 -1.1225061 215.83
8.0910597 -5.8418989 -0.69784379 215.83
2.478261 -1.7893515 -1.3609408 215.83
8.0566587 -5.8170609 -0.46341193 215.83
2.440362 -1.7619877 -1.2572497 215.83
10.316541 -7.4487381 -0.29542699 215.83
2.8819244 -2.0808041 -1.388028 215.83
27.335497 -19.736748 0 215.83
3.0794494 -2.2234209 -1.3824455 215.83
7.7503738 -5.5959172 0.22194162 215.83
3.047796 -2.2005668 -1.2702242 215.83
3.2475071 -2.3447618 -1.2498825 215.83
4.7774158 -3.4493849 -1.689657 215.83
5.1530294 -3.7205851 -1.663862 215.83
5.5744681 -4.0248718 -1.6291318 215.83
3.5417185 -2.557188 -0.92853361 215.83
6.7085452 -4.8436971 -1.5589806 215.83
7.1040978 -5.1633239 -1.4428726 216.00999
7.7893333 -5.6613593 -1.3533193 216.00999
8.0777788 -5.8710046 -1.1677791 216.00999
8.0477247 -5.8491607 -0.92817622 216.00999
8.085578 -5.8766727 -0.69895989 216.00999
2.4770613 -1.8003509 -1.3633813 216.00999
8.0625858 -5.8599615 -0.46480942 216.00999
2.4243646 -1.7620506 -1.2518537 216.00999
7.9883037 -5.8059731 -0.22927622 216.00999
7.7574892 -5.6382146 0 216.00999
3.0754895 -2.2352941 -1.3838135 216.00999
7.7327557 -5.6202383 0.22194162 216.00999
2.9535041 -2.1466341 -1.2337309 216.00999
3.1783493 -2.3100536 -1.2260524 216.00999
4.7836623 -3.47681 -1.695721 216.00999
5.138185 -3.7344804 -1.6628491 216.00999
3.5451922 -2.5766785 -1.0384389 216.00999
6.1051898 -4.4373083 -1.6042466 216.00999
6.6837559 -4.8578157 -1.5567588 216.00999
7.102397 -5.1924601 -1.4454665 216.17
7.7830863 -5.6901026 -1.3549893 216.17
7.9763613 -5.8314028 -1.1554672 216.17
8.0602951 -5.892766 -0.93152034 216.17
2.472024 -1.8072611 -1.3633813 216.17
7.9687762 -5.8258576 -0.46033743 216.17
2.4373121 -1.7818838 -1.2611039 216.17
7.9962707 -5.8459582 -0.22997256 216.17
3.0139046 -2.2034223 -1.457866 216.17
27.579554 -20.163013 0 216.17
3.0859244 -2.2560749 -1.391338 216.17
7.7670679 -5.6783915 0.22338068 216.17
2.9582052 -2.1627011 -1.2382125 216.17
3.0208437 -2.2084954 -1.1676691 216.17
4.7770386 -3.4924242 -1.6968236 216.17
5.1292982 -3.7499561 -1.6633555 216.17
3.5411251 -2.5888655 -1.0393611 216.17
6.0738239 -4.440485 -1.5992568 216.17
6.6955504 -4.8950205 -1.5626837 216.17
7.091496 -5.220664 -1.4467635 216.36
7.7530098 -5.7076616 -1.3530409 216.36
7.9717531 -5.8686972 -0.92353159 216.36
8.0125751 -5.8987498 -0.69575107 216.36
2.4586604 -1.8100327 -1.3593138 216.36
2.8237412 -2.0788002 -1.4646072 216.36
7.7965007 -5.7396789 -0.22477333 216.36
2.8775563 -2.1184182 -1.3953029 216.36
7.7615576 -5.713954 0 216.36
2.9331315 -2.159332 -1.3256701 216.36
7.7626867 -5.7147856 0.22379848 216.36
2.9739051 -2.1893487 -1.247816 216.36
3.0857661 -2.2716994 -1.1956692 216.36
4.7545934 -3.5002677 -1.6929647 216.36
5.1074862 -3.7600625 -1.6603165 216.36
6.0748196 -4.4722004 -1.603415 216.36
6.6745329 -4.9137011 -1.5615728 216.36
7.0778041 -5.2392116 -1.4467635 216.50999
7.8112664 -5.7821431 -1.3658448 216.50999
7.9730506 -5.9019008 -0.69365835 216.50999
2.4627247 -1.8229855 -1.3641948 216.50999
2.8019729 -2.0741079 -1.4561279 216.50999
7.7718048 -5.7529325 -0.2244948 216.50999
2.8645134 -2.1204023 -1.3916655 216.50999
10.127288 -7.4965348 0 216.50999
2.9108522 -2.1547036 -1.3181456 216.50999
7.7701979 -5.7517428 0.22444838 216.50999
2.8402381 -2.102433 -1.1940364 216.50999
4.7500491 -3.5161347 -1.6946185 216.50999
3.1226451 -2.3114793 -1.0170578 216.50999
3.1252658 -2.3134193 -0.92131484 216.50999
6.0473666 -4.4764495 -1.5992568 216.50999
6.677443 -4.9428515 -1.5652758 216.50999
7.049315 -5.2543974 -1.4444938 216.7
7.7809339 -5.7997293 -1.3638964 216.7
8.0893126 -6.0295873 -1.1798588 216.7
7.9934268 -5.9581165 -0.69714618 216.7
2.5797188 -1.9228631 -1.4325265 216.7
9.2856951 -6.9213438 -0.54008824 216.7
2.8764608 -2.144048 -1.4985244 216.7
7.7767315 -5.796597 -0.22519113 216.7
2.8470101 -2.1220961 -1.3865731 216.7
7.7547741 -5.7802305 0 216.7
3.0408139 -2.2665527 -1.3803933 216.7
7.7655096 -5.7882328 0.22486618 216.7
2.8742683 -2.1424136 -1.2113227 216.7
3.1214006 -2.3266203 -1.1163313 216.7
3.116514 -2.322978 -1.0175643 216.7
3.2798533 -2.4447274 -0.96927112 216.7
6.0497427 -4.5093389 -1.6038308 216.7
6.643681 -4.9520473 -1.5612024 216.7
7.0589552 -5.2942362 -1.4496816 216.87
7.6955609 -5.7716923 -1.3519275 216.87
7.9773097 -5.9830046 -0.69728571 216.87
2.4614537 -1.8460971 -1.369889 216.87
22.122009 -16.591568 -0.64201057 216.87
2.824307 -2.1182382 -1.3785709 216.87
27.489563 -20.617249 0 216.87
2.9032705 -2.1774609 -1.3208818 216.87
7.772295 -5.8292432 0.2255625 216.87
3.1574173 -2.3680718 -1.3336073 216.87
3.1097169 -2.3322964 -1.2129459 216.87
3.1129458 -2.334718 -1.11578 216.87
3.080199 -2.3101578 -1.0079408 216.87
5.5518737 -4.1639209 -1.6443486 216.87
6.0175562 -4.5131836 -1.598841 216.87
6.6415377 -4.9811716 -1.5641649 216.87
7.063695 -5.3306117 -1.4538968 217.03999
7.785903 -5.8756251 -1.3708551 217.03999
7.9571757 -6.0048761 -0.93003404 217.03999
8.0184469 -6.0511141 -0.70244771 217.03999
2.4122128 -1.8203745 -1.3454849 217.03999
7.8809938 -5.9473858 -0.46043059 217.03999
2.7502594 -2.0754809 -1.4391693 217.03999
22.087048 -16.667973 -0.6424284 217.03999
2.7808328 -2.0985532 -1.3603839 217.03999
27.544809 -20.786667 0 217.03999
2.8127885 -2.1226685 -1.2825755 217.03999
