# .PCD v0.7 - Point Cloud Data file format
VERSION 0.7
FIELDS x y z intensity
SIZE 4 4 4 4
TYPE F F F F
COUNT 1 1 1 1
WIDTH 1216
HEIGHT 1
VIEWPOINT 0 0 0 1 0 0 0
POINTS 1216
DATA ascii
2.3688452 -3.7226419 -1.964538 237.53
15.110088 -23.745514 -1.3125347 237.53
2.5601254 -4.0232391 -1.9918658 237.53
2.7514603 -4.3239217 -2.001292 237.53
2.9370909 -4.6156406 -1.9912412 237.53
3.1645553 -4.9731011 -1.9917679 237.53
3.3998404 -5.3428516 -1.976101 237.53
3.7135746 -5.8358855 -1.9834864 237.53
4.0852594 -6.4199882 -1.9920759 237.53
4.492589 -7.0601068 -1.9828097 237.53
4.9687452 -7.8083868 -1.9672604 237.53
5.6883202 -8.9391994 -1.9963099 237.53
6.3980565 -10.120725 -1.9671704 237.7
7.3435726 -11.616383 -1.9314443 237.7
8.5926104 -13.592165 -1.8804798 237.7
11.49849 -18.188812 -2.0075805 237.7
14.436079 -22.835619 -1.8891448 237.7
2.3568132 -3.7281096 -1.9637245 237.7
14.968041 -23.677101 -1.3062924 237.7
2.5531077 -4.0386171 -1.99572 237.7
19.985804 -31.614416 -0.86836225 237.7
2.7435963 -4.3399401 -2.0049295 237.7
19.994396 -31.628008 0 237.7
2.9243875 -4.6259236 -1.9919254 237.7
19.911015 -31.496111 0.86511272 237.7
3.1507983 -4.9840703 -1.9924082 237.7
19.965218 -31.581852 1.7424065 237.7
3.3829527 -5.3513021 -1.9755054 237.7
19.913708 -31.50037 2.6059623 237.7
3.6993248 -5.8517532 -1.9851402 237.7
4.0703282 -6.4386225 -1.9941019 237.7
4.474741 -7.0783405 -1.984193 237.7
4.9507818 -7.8313627 -1.9693395 237.7
5.6691236 -8.9676666 -1.998902 237.7
6.3729191 -10.143565 -1.9681431 237.86
7.3037295 -11.625106 -1.9294959 237.86
8.5556765 -13.617789 -1.8807122 237.86
11.470959 -18.257948 -2.0116677 237.86
14.406218 -22.929903 -1.8936093 237.86
2.3463931 -3.7346766 -1.9637245 237.86
14.880608 -23.684973 -1.3044292 237.86
2.5369108 -4.0379176 -1.9918658 237.86
2.728493 -4.3428526 -2.0027471 237.86
19.884716 -31.649849 0 237.86
2.9134576 -4.6372547 -1.9932934 237.86
19.921907 -31.709044 0.86942995 237.86
3.1419079 -5.0008712 -1.9956093 237.86
19.948156 -31.750822 1.7486486 237.86
3.3700273 -5.3639612 -1.9766968 237.86
3.6829693 -5.862061 -1.9851402 237.86
4.0513029 -6.4483256 -1.9935954 237.86
4.4611692 -7.1006961 -1.9869597 237.86
4.9278526 -7.8435011 -1.9689237 237.86
5.6471958 -8.9884558 -2.0000129 237.86
6.3392467 -10.164643 -1.9681431 238.05
8.5041647 -13.635973 -1.8793182 238.05
11.411404 -18.297575 -2.0118535 238.05
14.364942 -23.033415 -1.8982131 238.05
2.337863 -3.7486382 -1.9669784 238.05
14.781897 -23.701981 -1.3026589 238.05
2.5244832 -4.047874 -1.9926367 238.05
15.036274 -24.109859 -0.65969718 238.05
2.7170341 -4.3566189 -2.0049295 238.05
2.8990586 -4.6484852 -1.9939774 238.05
19.490761 -31.252392 0.8551321 238.05
3.1222992 -5.0064397 -1.9936886 238.05
19.67889 -31.554047 1.7342079 238.05
3.3572729 -5.3832073 -1.9796755 238.05
3.6665618 -5.8791356 -1.9867941 238.05
4.0339928 -6.4682918 -1.9956214 238.05
4.4386277 -7.1171021 -1.9874208 238.05
4.9049215 -7.864779 -1.9701712 238.05
5.6163177 -9.0054655 -1.9996426 238.05
6.3142567 -10.191795 -1.9697642 238.22
6.980207 -11.266701 -1.8626928 238.22
8.4626217 -13.659456 -1.879086 238.22
11.361259 -18.338125 -2.0125966 238.22
14.322805 -23.118336 -1.901701 238.22
2.3276925 -3.7571115 -1.9677919 238.22
14.697828 -23.723658 -1.3014477 238.22
2.5192654 -4.066328 -1.9980326 238.22
2.7040958 -4.3646612 -2.0049295 238.22
2.8882227 -4.661859 -1.9960296 238.22
19.656994 -31.728209 0.86655182 238.22
3.1074309 -5.0156817 -1.9936886 238.22
19.787197 -31.93837 1.7520958 238.22
3.3422911 -5.3947678 -1.9802713 238.22
3.6521397 -5.8948917 -1.9884479 238.22
4.0158024 -6.4818769 -1.996128 238.22
4.4195414 -7.1335492 -1.9883431 238.22
4.883625 -7.8826237 -1.9710028 238.22
5.5864682 -9.0170774 -1.9985317 238.22
6.2891612 -10.218889 -1.9713855 238.39
6.9436331 -11.282302 -1.8618578 238.39
8.4220562 -13.684505 -1.879086 238.39
11.312017 -18.380232 -2.0135255 238.39
14.262515 -23.174322 -1.9028171 238.39
2.31845 -3.7671134 -1.9694189 238.39
14.616903 -23.750149 -1.3005161 238.39
2.5120258 -4.0816431 -2.0018868 238.39
2.6930866 -4.3758383 -2.0063844 238.39
2.8733931 -4.6688075 -1.9953455 238.39
3.0955148 -5.0297203 -1.9956093 238.39
19.762505 -32.110935 1.758338 238.39
3.329272 -5.4095387 -1.9820585 238.39
19.710693 -32.026749 2.6296794 238.39
3.6356406 -5.9073391 -1.9889991 238.39
3.9995947 -6.4987068 -1.9976474 238.39
4.4014163 -7.1516027 -1.9897264 238.39
4.8632917 -7.9020767 -1.9722503 238.39
5.4855189 -8.9130974 -1.9718698 238.39
6.267808 -10.248197 -1.9736551 238.55
6.9389672 -11.345577 -1.8690947 238.55
8.3807001 -13.702887 -1.8783891 238.55
11.260646 -18.411751 -2.0135255 238.55
14.215441 -23.242996 -1.9051888 238.55
2.306968 -3.7720144 -1.9686054 238.55
14.538014 -23.770422 -1.2993981 238.55
2.4929149 -4.0760474 -1.99572 238.55
2.6798844 -4.3817525 -2.005657 238.55
2.8623052 -4.6800199 -1.9967136 238.55
19.211033 -31.411055 0.85485357 238.55
3.0834343 -5.0415778 -1.9968898 238.55
3.3141527 -5.4188147 -1.9820585 238.55
19.742973 -32.280804 2.6460025 238.55
3.6211362 -5.9207487 -1.9901017 238.55
3.9794123 -6.5065494 -1.9966345 238.55
4.3793974 -7.1605458 -1.9888042 238.55
4.8442678 -7.9206338 -1.9734977 238.55
5.3447299 -8.7389154 -1.9300255 238.55
6.2348137 -10.270613 -1.9739794 238.74001
6.9095273 -11.38207 -1.8713216 238.74001
8.3238745 -13.711924 -1.8758337 238.74001
11.201595 -18.452394 -2.0138972 238.74001
14.138286 -23.290009 -1.9051888 238.74001
2.297291 -3.7843292 -1.9710457 238.74001
14.455999 -23.813377 -1.2991186 238.74001
2.4880035 -4.0984898 -2.0026577 238.74001
2.6653392 -4.3906155 -2.005657 238.74001
2.84677 -4.689486 -1.9967136 238.74001
3.0686655 -5.0550146 -1.9981703 238.74001
3.296165 -5.4297748 -1.9820585 238.74001
3.6074684 -5.942585 -1.9934094 238.74001
3.9628341 -6.5279794 -1.999167 238.74001
4.3606772 -7.1833467 -1.9911097 238.74001
4.8200059 -7.9399991 -1.9743295 238.74001
5.3136816 -8.753231 -1.9292848 238.74001
6.2061081 -10.287983 -1.9739794 238.89999
6.8449793 -11.347053 -1.8624145 238.89999
8.2845249 -13.733415 -1.8756015 238.89999
11.158252 -18.497246 -2.0153835 238.89999
14.081437 -23.343065 -1.906305 238.89999
2.2857707 -3.7891653 -1.9702322 238.89999
14.382219 -23.841679 -1.2984664 238.89999
2.470829 -4.0959401 -1.9980326 238.89999
2.6549926 -4.4012318 -2.0071118 238.89999
2.839488 -4.7070732 -2.0008178 238.89999
19.29352 -31.983232 0.86720169 238.89999
3.0535586 -5.0619416 -1.99753 238.89999
3.2819755 -5.4405932 -1.9826543 238.89999
3.5908594 -5.9526358 -1.9934094 238.89999
3.9455886 -6.5406766 -1.9996735 238.89999
4.3406005 -7.1954961 -1.9911097 238.89999
4.7988248 -7.9551029 -1.9747453 238.89999
5.2922626 -8.7730837 -1.9303957 238.89999
6.1841235 -10.328826 -1.9778703 239.09
6.8174877 -11.386681 -1.8651979 239.09
7.5185156 -12.557549 -1.7115967 239.09
11.110149 -18.556356 -2.0177987 239.09
14.022399 -23.420444 -1.9088161 239.09
2.27507 -3.7998595 -1.9718592 239.09
14.297948 -23.880671 -1.2980006 239.09
2.4638689 -4.1151948 -2.0034285 239.09
2.640383 -4.4100118 -2.0071118 239.09
2.8277249 -4.7229133 -2.0035541 239.09
3.0406489 -5.0785427 -2.0000908 239.09
3.2688196 -5.4596372 -1.985633 239.09
3.5730753 -5.9678097 -1.994512 239.09
3.9268589 -6.5587049 -2.001193 239.09
4.3227139 -7.2198687 -1.9938765 239.09
4.7764382 -7.9776864 -1.9764085 239.09
5.26617 -8.7956448 -1.9315066 239.09
6.1564765 -10.352218 -1.978843 239.25999
6.78266 -11.405156 -1.8649195 239.25999
7.4345164 -12.501264 -1.7009108 239.25999
11.054025 -18.587528 -2.0176129 239.25999
13.951828 -23.460232 -1.9086766 239.25999
2.2647192 -3.8081634 -1.9726727 239.25999
14.227029 -23.922987 -1.2980006 239.25999
2.451648 -4.1224871 -2.0034285 239.25999
2.6358571 -4.4322376 -2.0136592 239.25999
2.8060141 -4.7183595 -1.9980817 239.25999
3.0275042 -5.0907989 -2.0013714 239.25999
3.253582 -5.4709525 -1.9862288 239.25999
3.5563354 -5.9800372 -1.9950632 239.25999
3.9113374 -6.5769792 -2.0032189 239.25999
4.3032627 -7.2360082 -1.9947988 239.25999
4.7577467 -8.0002308 -1.9784876 239.25999
5.2581325 -8.8416376 -1.9381721 239.25999
6.1317558 -10.380634 -1.9807885 239.42999
6.7568488 -11.438873 -1.8671464 239.42999
11.00389 -18.628817 -2.0185418 239.42999
13.885203 -23.506678 -1.9090952 239.42999
2.252481 -3.813293 -1.9718592 239.42999
14.15497 -23.963375 -1.2979075 239.42999
2.4412827 -4.1329212 -2.0049701 239.42999
2.6160622 -4.4288106 -2.0085669 239.42999
2.7939138 -4.7299008 -1.9994497 239.42999
3.0114226 -5.0981278 -2.0007312 239.42999
3.2412193 -5.4871573 -1.9886118 239.42999
3.5395544 -5.992218 -1.9956144 239.42999
3.8957419 -6.5952187 -2.005245 239.42999
4.2867231 -7.2571225 -1.9971043 239.42999
4.7339888 -8.0143118 -1.9784876 239.42999
5.2548666 -8.896121 -1.9466891 239.42999
6.0999303 -10.397079 -1.9804642 239.60001
6.7078462 -11.433247 -1.8629712 239.60001
7.4597187 -12.714783 -1.7239087 239.60001
10.947561 -18.659666 -2.0183558 239.60001
13.818425 -23.552935 -1.9095137 239.60001
2.243006 -3.8231113 -1.9734862 239.60001
14.091894 -24.019053 -1.2986528 239.60001
2.4271417 -4.1369629 -2.0034285 239.60001
2.6047957 -4.4397669 -2.0100217 239.60001
2.7827208 -4.7430329 -2.0015018 239.60001
3.0001183 -5.1135774 -2.0032921 239.60001
3.2258904 -5.4983969 -1.9892075 239.60001
3.5246782 -6.0076685 -1.9972683 239.60001
3.8741982 -6.6034112 -2.0042319 239.60001
4.268126 -7.2748451 -1.9984877 239.60001
4.7181087 -8.0418215 -1.9818143 239.60001
5.2503285 -8.9489679 -1.9548358 239.60001
6.0722036 -10.424719 -1.9820855 239.78
6.6988091 -11.500471 -1.8704865 239.78
7.4357347 -12.765619 -1.7276255 239.78
10.892895 -18.70085 -2.019099 239.78
13.737334 -23.584164 -1.9085371 239.78
2.2309844 -3.8301389 -1.9734862 239.78
14.02039 -24.07011 -1.2990254 239.78
2.4169197 -4.1493516 -2.0057411 239.78
14.248215 -24.461241 -0.65723687 239.78
2.5889595 -4.4447083 -2.0085669 239.78
2.7668605 -4.7501273 -2.0008178 239.78
2.9811776 -5.1180658 -2.0013714 239.78
3.2124445 -5.5151033 -1.9915905 239.78
3.5038519 -6.0153894 -1.9961658 239.78
3.8553817 -6.6188931 -2.005245 239.78
4.2511277 -7.2983074 -2.0012543 239.78
4.692821 -8.0566034 -1.9818143 239.78
5.2380166 -8.9925919 -1.9607607 239.78
6.0481639 -10.454647 -1.9843551 239.95
6.5565548 -11.333434 -1.8401468 239.95
7.4943147 -12.954413 -1.7501587 239.95
10.843344 -18.743429 -2.0202138 239.95
13.660304 -23.61273 -1.9075606 239.95
2.2223551 -3.8414862 -1.9759266 239.95
13.957914 -24.127167 -1.2998639 239.95
2.4055219 -4.158102 -2.0065119 239.95
14.199604 -24.544945 -0.65835094 239.95
2.5832236 -4.465271 -2.0143867 239.95
2.7546365 -4.7615695 -2.0021858 239.95
2.9707229 -5.1350889 -2.0045726 239.95
3.1970227 -5.5262632 -1.9921863 239.95
3.4956155 -6.0424004 -2.0016785 239.95
3.8376637 -6.6336527 -2.006258 239.95
4.2314034 -7.3142581 -2.0021765 239.95
4.6718349 -8.075572 -1.9830617 239.95
5.2211537 -9.0251055 -1.9644637 239.95
6.0197892 -10.468735 -1.9840308 240.10001
6.5110655 -11.32309 -1.8356932 240.10001
7.3346157 -12.755287 -1.7206564 240.10001
7.5313473 -13.097415 -1.4095422 240.10001
13.594461 -23.641493 -1.9070024 240.10001
2.210469 -3.8441234 -1.9742997 240.10001
13.906652 -24.18441 -1.300982 240.10001
2.3891079 -4.1547861 -2.0018868 240.10001
14.107389 -24.533503 -0.65705115 240.10001
2.5659528 -4.4623284 -2.0100217 240.10001
2.744035 -4.7720232 -2.0035541 240.10001
2.9582136 -5.1444912 -2.0052128 240.10001
3.1815925 -5.532959 -1.9915905 240.10001
3.4778678 -6.0481977 -2.000576 240.10001
3.8241417 -6.6503863 -2.0082841 240.10001
4.2093301 -7.3202496 -2.0007932 240.10001
4.6555533 -8.0962553 -1.9851408 240.10001
5.1975083 -9.038744 -1.9644637 240.10001
5.9889531 -10.495496 -1.9853278 240.28999
6.496057 -11.384183 -1.8420951 240.28999
7.2499433 -12.70535 -1.7106675 240.28999
10.756601 -18.850683 -2.0248585 240.28999
13.515988 -23.686443 -1.9070024 240.28999
2.1977093 -3.8514323 -1.9742997 240.28999
13.838259 -24.251215 -1.3020999 240.28999
2.3771465 -4.1658916 -2.0034285 240.28999
14.153789 -24.804173 -0.66303957 240.28999
2.5548341 -4.4772854 -2.0129316 240.28999
2.7281954 -4.7810965 -2.0035541 240.28999
2.9420767 -5.1559186 -2.0058529 240.28999
43.141586 -75.604584 4.0593729 240.28999
3.1622808 -5.5418205 -1.9909948 240.28999
3.4635091 -6.069716 -2.0038836 240.28999
3.8039849 -6.6663918 -2.0092969 240.28999
4.1927481 -7.3476901 -2.0044823 240.28999
4.6325574 -8.1184454 -1.9868041 240.28999
5.1733508 -9.0661716 -1.9666855 240.28999
5.9685965 -10.536582 -1.989543 240.47
6.3870482 -11.27529 -1.8212192 240.47
6.4100785 -11.315948 -1.5208772 240.47
10.676716 -18.847998 -2.020957 240.47
13.433642 -23.714901 -1.9058864 240.47
2.1892009 -3.8646767 -1.9775536 240.47
13.791544 -24.346718 -1.3048949 240.47
2.3649569 -4.1749449 -2.0041993 240.47
2.5398376 -4.4836683 -2.0122042 240.47
2.7159407 -4.7945495 -2.0056062 240.47
2.9258645 -5.1651359 -2.0058529 240.47
3.1467371 -5.5550504 -1.9921863 240.47
3.4415808 -6.0755486 -2.0022297 240.47
3.7868376 -6.6850433 -2.011323 240.47
4.1696444 -7.3608255 -2.0044823 240.47
4.6070299 -8.1329594 -1.9868041 240.47
5.1506553 -9.0926409 -1.9689074 240.47
5.9411778 -10.561125 -1.99084 240.64
6.360363 -11.306274 -1.8231677 240.64
10.641249 -18.91604 -2.0248585 240.64
13.358329 -23.74596 -1.9051888 240.64
2.1759329 -3.8679702 -1.9759266 240.64
13.756467 -24.453697 -1.3084353 240.64
2.3570831 -4.1899858 -2.0080535 240.64
22.261257 -39.571938 -1.0541414 240.64
2.5265231 -4.4911847 -2.0122042 240.64
2.7007816 -4.8009491 -2.0049222 240.64
2.9114552 -5.1754456 -2.0064933 240.64
3.1330492 -5.5693545 -1.9939735 240.64
3.4329653 -6.1024895 -2.0077424 240.64
3.7688832 -6.6996222 -2.012336 240.64
4.1525569 -7.3816457 -2.0067878 240.64
4.5886335 -8.1568222 -1.9892991 240.64
5.1313634 -9.1215868 -1.9718698 240.64
5.9136662 -10.585598 -1.9921368 240.81
6.3886075 -11.435754 -1.8409817 240.81
7.3581319 -13.171224 -1.7643291 240.81
10.581192 -18.940577 -2.0241153 240.81
13.277111 -23.766333 -1.9036542 240.81
2.1644468 -3.8744094 -1.9759266 240.81
13.801748 -24.705444 -1.3197085 240.81
2.3410406 -4.1905165 -2.0049701 240.81
22.114492 -39.585449 -1.0527488 240.81
2.5159123 -4.5035405 -2.0143867 240.81
2.6874416 -4.8105817 -2.0056062 240.81
2.8997829 -5.1906776 -2.0090542 240.81
42.238319 -75.607559 4.0387831 240.81
3.1174421 -5.5802927 -1.9945693 240.81
3.4223447 -6.1260753 -2.0121527 240.81
3.7499323 -6.7124643 -2.0128424 240.81
4.1315856 -7.3956327 -2.0072489 240.81
4.5653658 -8.1721096 -1.9897149 240.81
5.1061935 -9.1402035 -1.9726105 240.81
5.8879766 -10.613452 -1.9940823 240.98
6.2643352 -11.291862 -1.8148172 240.98
10.53654 -18.992785 -2.0263448 240.98
13.18234 -23.762005 -1.9001664 240.98
2.1556008 -3.8856075 -1.9783671 240.98
21.940218 -39.548637 -2.1091113 240.98
2.3357589 -4.2103543 -2.011137 240.98
21.981424 -39.622913 -1.052006 240.98
2.5016351 -4.5093565 -2.0136592 240.98
2.6740682 -4.820178 -2.0062902 240.98
2.8852882 -5.2009158 -2.0096943 240.98
3.1027236 -5.5928564 -1.9957608 240.98
3.409749 -6.1462893 -2.0154603 240.98
3.7328153 -6.7286367 -2.0143621 240.98
4.1115127 -7.4112625 -2.0081711 240.98
4.5458436 -8.1941719 -1.991794 240.98
5.0809584 -9.1587505 -1.973351 240.98
5.8622203 -10.645727 -1.9966763 241.16
6.270865 -11.387821 -1.8270645 241.16
10.475861 -19.024048 -2.0261588 241.16
13.102813 -23.794563 -1.8994688 241.16
2.1477897 -3.9003627 -1.9824344 241.16
21.820683 -39.626118 -2.1095772 241.16
2.3243008 -4.2209044 -2.0126786 241.16
21.820187 -39.625217 -1.0502421 241.16
2.4874563 -4.5171933 -2.0136592 241.16
2.6616316 -4.8334937 -2.0083423 241.16
41.50214 -75.367432 1.9975674 241.16
2.8716769 -5.2149334 -2.011615 241.16
3.0888216 -5.6092663 -1.9981438 241.16
3.3950601 -6.1653914 -2.0182166 241.16
3.7135248 -6.7437201 -2.0153751 241.16
4.0938416 -7.434371 -2.0109379 241.16
4.524797 -8.2169809 -1.9938731 241.16
5.0559525 -9.1815538 -1.9748323 241.16
5.8343635 -10.665519 -1.9973247 241.32001
6.2095742 -11.351424 -1.8184358 241.32001
7.2806425 -13.309393 -1.7740858 241.32001
10.419827 -19.047985 -2.0256016 241.32001
13.017164 -23.796053 -1.8966786 241.32001
2.1377664 -3.907948 -1.9832479 241.32001
21.682135 -39.63607 -2.1068752 241.32001
2.3071907 -4.2176642 -2.0080535 241.32001
21.68066 -39.633373 -1.0488493 241.32001
2.4757264 -4.5257564 -2.0143867 241.32001
2.6472216 -4.8392587 -2.0076582 241.32001
2.8589215 -5.2262568 -2.0128956 241.32001
3.0731456 -5.6178699 -1.9981438 241.32001
3.382443 -6.1832814 -2.0209732 241.32001
3.697464 -6.7591562 -2.0168946 241.32001
4.0749331 -7.4491892 -2.0118601 241.32001
4.5027719 -8.2313013 -1.9942889 241.32001
5.0359526 -9.2059832 -1.9770541 241.32001
5.8102283 -10.696657 -1.9999187 241.49001
6.0964584 -11.223608 -1.7950547 241.49001
10.354711 -19.06307 -2.0239296 241.49001
12.935076 -23.813532 -1.8950044 241.49001
2.1270339 -3.9158792 -1.9840614 241.49001
21.537737 -39.651073 -2.1042666 241.49001
2.3025942 -4.2390866 -2.0149913 241.49001
21.53434 -39.644817 -1.0474567 241.49001
2.4622872 -4.533082 -2.0143867 241.49001
2.6346457 -4.8503947 -2.0090263 241.49001
2.8443067 -5.2363815 -2.013536 241.49001
3.0591974 -5.6319962 -1.999931 241.49001
3.3677526 -6.200048 -2.0231781 241.49001
3.67924 -6.7734976 -2.0179076 241.49001
4.0546703 -7.4646668 -2.0127823 241.49001
4.483932 -8.2549391 -1.9967839 241.49001
5.0114303 -9.2260656 -1.978165 241.49001
5.7747221 -10.711383 -1.9992702 241.67
6.0950036 -11.305465 -1.8050752 241.67
7.0172687 -13.01615 -1.7292516 241.67
10.296661 -19.09901 -2.0243011 241.67
12.857359 -23.848783 -1.8945858 241.67
2.1173227 -3.927367 -1.9865018 241.67
21.392206 -39.679852 -2.102217 241.67
2.2918928 -4.2511725 -2.0173037 241.67
21.38122 -39.659473 -1.0460641 241.67
2.4498022 -4.544075 -2.0158417 241.67
2.6229622 -4.8652649 -2.0117624 241.67
2.8305397 -5.2502947 -2.0154567 241.67
3.0433009 -5.6449404 -2.0011225 241.67
3.3491702 -6.2122893 -2.0237296 241.67
41.00993 -76.06826 8.0624628 241.67
3.6606967 -6.790132 -2.0194271 241.67
4.0330467 -7.4807944 -2.0137045 241.67
4.4589047 -8.2707071 -1.9971997 241.67
4.9861517 -9.2486839 -1.9796462 241.67
5.7382584 -10.71977 -1.997649 241.84
6.0464778 -11.295562 -1.8006216 241.84
6.1611333 -11.509752 -1.5266848 241.84
10.240888 -19.131233 -2.0244868 241.84
12.787483 -23.888586 -1.8947253 241.84
2.1047983 -3.9320211 -1.9856883 241.84
21.253637 -39.704399 -2.1001673 241.84
2.2792692 -4.2579541 -2.0173037 241.84
21.254961 -39.706871 -1.0456463 241.84
2.4380672 -4.5546083 -2.0172966 241.84
21.256914 -39.710522 0 241.84
2.6085153 -4.8730264 -2.0117624 241.84
21.310635 -39.810879 1.0483851 241.84
2.8158433 -5.2603407 -2.0160968 241.84
3.0265386 -5.653945 -2.0011225 241.84
3.3343525 -6.2289791 -2.0259345 241.84
3.6432731 -6.8060808 -2.0209465 241.84
4.0145068 -7.4995909 -2.0155489 241.84
4.4389615 -8.2925243 -1.9992788 241.84
4.9596157 -9.2651701 -1.9800165 241.84
5.7036271 -10.736002 -1.9973247 242.02
6.0118914 -11.316251 -1.8009 242.02
10.181669 -19.165071 -2.0246725 242.02
12.695523 -23.896927 -1.8922141 242.02
2.0941496 -3.9418411 -1.9873153 242.02
21.100677 -39.718044 -2.0973723 242.02
2.2658813 -4.2650938 -2.0173037 242.02
21.109476 -39.734604 -1.044625 242.02
2.4246206 -4.5638905 -2.018024 242.02
21.093584 -39.704689 0 242.02
2.594075 -4.8828568 -2.0124466 242.02
2.8001926 -5.270834 -2.016737 242.02
3.0114486 -5.6684837 -2.0029099 242.02
3.3156693 -6.2411213 -2.0264859 242.02
3.6245966 -6.822619 -2.0224662 242.02
3.9954915 -7.5207586 -2.0178547 242.02
4.4128881 -8.3064289 -1.9992788 242.02
4.9323282 -9.2841768 -1.9807571 242.02
5.6634612 -10.737167 -1.9944066 242.19
5.8720288 -11.132584 -1.7688901 242.19
6.9544563 -13.184722 -1.7431897 242.19
10.144271 -19.232183 -2.028574 242.19
12.61991 -23.925667 -1.8915166 242.19
2.0892639 -3.9609659 -1.9938231 242.19
20.948254 -39.715096 -2.093925 242.19
2.2557995 -4.2766948 -2.0196164 242.19
20.948578 -39.71571 -1.0424896 242.19
2.4119377 -4.5727124 -2.0187516 242.19
20.951424 -39.721107 0 242.19
2.5804527 -4.8921943 -2.0131307 242.19
2.7863095 -5.2824712 -2.0180175 242.19
2.996398 -5.6807714 -2.0041013 242.19
3.2980337 -6.2526321 -2.0270371 242.19
3.6052401 -6.8350544 -2.0229726 242.19
3.9704356 -7.5274167 -2.0164714 242.19
4.3909612 -8.3246765 -2.0005262 242.19
4.9084277 -9.3057241 -1.9822383 242.19
5.6068583 -10.706718 -1.9856521 242.36
5.8334589 -11.13943 -1.76722 242.36
5.8518381 -11.174526 -1.4751139 242.36
10.087163 -19.262197 -2.028574 242.36
12.544238 -23.954168 -1.890819 242.36
2.0749595 -3.9622915 -1.9913826 242.36
20.806227 -39.731056 -2.0915027 242.36
2.2413881 -4.2800994 -2.0180745 242.36
20.803747 -39.726326 -1.0411434 242.36
2.399224 -4.5814991 -2.019479 242.36
20.813993 -39.745888 0 242.36
2.5667977 -4.901494 -2.0138147 242.36
39.711521 -75.832146 1.987401 242.36
2.7723818 -5.2940722 -2.0192981 242.36
2.9830725 -5.6964021 -2.0064843 242.36
3.2830348 -6.2692027 -2.0292423 242.36
3.5858419 -6.8474355 -2.023479 242.36
3.9571123 -7.5564041 -2.0210824 242.36
4.3716874 -8.3480663 -2.0030212 242.36
4.8862662 -9.3306932 -1.9844601 242.36
5.4812989 -10.542952 -1.9522552 242.53
6.0370016 -11.611813 -1.8393117 242.53
6.1127968 -11.7576 -1.5496826 242.53
10.034559 -19.300877 -2.0295031 242.53
12.464827 -23.975349 -1.8895633 242.53
2.063194 -3.9684308 -1.9913826 242.53
20.667055 -39.751846 -2.0893598 242.53
2.2329352 -4.2949181 -2.0219288 242.53
20.658115 -39.734653 -1.0397507 242.53
2.3864791 -4.5902505 -2.0202065 242.53
20.667374 -39.75246 0 242.53
2.5531104 -4.9107556 -2.0144987 242.53
2.7592838 -5.3073177 -2.0212188 242.53
2.9696805 -5.7120037 -2.0088673 242.53
3.2644193 -6.2789159 -2.0292423 242.53
3.5681868 -6.8631945 -2.0249987 242.53
3.9310837 -7.5612049 -2.019238 242.53
4.3514109 -8.3696795 -2.0051003 242.53
4.860373 -9.3486385 -1.9852008 242.53
5.4310102 -10.517885 -1.9447978 242.69
6.920249 -13.401998 -1.7638645 242.69
9.9906721 -19.348286 -2.0315466 242.69
12.399656 -24.013611 -1.8898424 242.69
2.0529423 -3.9758 -1.9921961 242.69
20.533051 -39.765026 -2.0870306 242.69
2.2192395 -4.2978573 -2.0203872 242.69
20.529646 -39.758434 -1.0388688 242.69
2.3727968 -4.5952415 -2.019479 242.69
20.53059 -39.760262 0 242.69
2.5393872 -4.9178662 -2.0144987 242.69
2.746191 -5.3183699 -2.0224991 242.69
2.956346 -5.7253633 -2.0106544 242.69
3.2459905 -6.2862992 -2.0286911 242.69
3.5516703 -6.8782897 -2.0265181 242.69
3.9170966 -7.5859866 -2.022927 242.69
4.332509 -8.3904896 -2.0071795 242.69
4.8378549 -9.3691597 -1.9866819 242.69
5.3943024 -10.532324 -1.9441493 242.88
5.7899036 -11.304731 -1.7850342 242.88
6.8639965 -13.401887 -1.7608446 242.88
6.8799825 -13.4331 -1.4080559 242.88
12.319957 -24.054598 -1.8898424 242.88
2.0405798 -3.9842124 -1.9930096 242.88
20.372839 -39.777775 -2.0841424 242.88
2.207499 -4.3101206 -2.0226996 242.88
20.373079 -39.778244 -1.0376153 242.88
2.3575454 -4.6030846 -2.019479 242.88
20.374924 -39.781841 0 242.88
2.5247784 -4.9296055 -2.0158668 242.88
2.7259483 -5.3223877 -2.0205784 242.88
2.940825 -5.7419329 -2.0130374 242.88
3.2286322 -6.3038735 -2.0308959 242.88
3.5323696 -6.8969178 -2.0285442 242.88
3.8901448 -7.5954704 -2.0220046 242.88
4.3064451 -8.4082928 -2.0080111 242.88
4.8103428 -9.392148 -1.9881632 242.88
5.371973 -10.565875 -1.9473916 243.05
5.824554 -11.456035 -1.8061885 243.05
5.7564573 -11.322099 -1.4853351 243.05
9.8815422 -19.435528 -2.0341475 243.05
12.241297 -24.076817 -1.8887262 243.05
2.0320616 -3.9967639 -1.9962634 243.05
20.229376 -39.788181 -2.0815339 243.05
2.1955373 -4.3182964 -2.0234704 243.05
20.228687 -39.786827 -1.0362692 243.05
2.3438773 -4.6100593 -2.019479 243.05
20.232325 -39.793983 0 243.05
2.5109925 -4.9387503 -2.0165508 243.05
16.827787 -33.097763 0.86204892 243.05
2.7118618 -5.3338304 -2.0218589 243.05
2.9263713 -5.7557387 -2.0148249 243.05
3.2107854 -6.3151388 -2.0314474 243.05
3.5127673 -6.9090929 -2.0290506 243.05
3.8720014 -7.615653 -2.0243104 243.05
4.2885714 -8.4349842 -2.0113378 243.05
4.7877994 -9.4168911 -1.9903851 243.05
5.3708329 -10.641671 -1.9584159 243.22
5.759305 -11.411383 -1.7964464 243.22
6.744966 -13.364353 -1.7506233 243.22
6.8459072 -13.564356 -1.4175309 243.22
12.169806 -24.113031 -1.8887262 243.22
2.0218403 -4.0060377 -1.9978904 243.22
20.097731 -39.821278 -2.0801363 243.22
2.1827149 -4.3247914 -2.0234704 243.22
20.089827 -39.805618 -1.0352014 243.22
2.3301888 -4.6169934 -2.019479 243.22
20.094339 -39.81456 0 243.22
2.4971747 -4.9478569 -2.0172348 243.22
16.693476 -33.076149 0.86019206 243.22
2.696878 -5.343545 -2.0224991 243.22
2.9144423 -5.7746224 -2.0183992 243.22
3.1963649 -6.3332191 -2.0342038 243.22
3.4957392 -6.926394 -2.0310767 243.22
3.8520188 -7.6323204 -2.0256937 243.22
4.2617621 -8.4441786 -2.0105062 243.22
4.7678075 -9.446847 -1.9937178 243.22
5.3638849 -10.711431 -1.9681431 243.39999
5.7970314 -11.576405 -1.8195491 243.39999
6.6638117 -13.307324 -1.7404021 243.39999
6.6926961 -13.365005 -1.3944937 243.39999
12.088633 -24.140442 -1.8878891 243.39999
2.0108814 -4.0156374 -1.9995173 243.39999
19.945692 -39.830627 -2.0773413 243.39999
2.1715965 -4.3365779 -2.0257831 243.39999
19.937817 -39.814899 -1.0338088 243.39999
2.3198435 -4.6326203 -2.0231164 243.39999
19.95125 -39.841724 0 243.39999
2.4816184 -4.9556775 -2.0172348 243.39999
16.150795 -32.252392 0.83744544 243.39999
2.6826227 -5.3570733 -2.0244198 243.39999
16.125086 -32.201054 1.6794257 243.39999
2.8971412 -5.7854571 -2.018995 243.39999
3.1773136 -6.3449488 -2.034755 243.39999
15.792836 -31.537565 3.2906039 243.39999
3.4765611 -6.9425321 -2.0325961 243.39999
3.8288937 -7.6461239 -2.0261548 243.39999
4.240469 -8.4680204 -2.013001 243.39999
4.740746 -9.4670515 -1.9948287 243.39999
5.3531623 -10.769713 -1.9759248 243.57001
5.6083879 -11.283186 -1.7708385 243.57001
6.7150569 -13.509628 -1.4074986 243.57001
12.02317 -24.188709 -1.8888658 243.57001
2.0030241 -4.0297666 -2.0035846 243.57001
19.811419 -39.85743 -2.0756643 243.57001
2.1578987 -4.3413496 -2.0250123 243.57001
19.802687 -39.839863 -1.0329268 243.57001
2.3069172 -4.6411514 -2.0238438 243.57001
19.809803 -39.854179 0 243.57001
2.4660671 -4.9613357 -2.0165508 243.57001
16.06304 -32.316288 0.83786327 243.57001
2.6692462 -5.3700995 -2.0263405 243.57001
16.063265 -32.316738 1.682966 243.57001
2.8808124 -5.7957373 -2.0195909 243.57001
3.1584737 -6.3543482 -2.034755 243.57001
15.660193 -31.505823 3.2824295 243.57001
3.4576693 -6.9562817 -2.0336092 243.57001
3.8105216 -7.6661644 -2.0284603 243.57001
4.2179375 -8.4858208 -2.0142484 243.57001
4.713511 -9.4828358 -1.995199 243.57001
5.3307896 -10.805017 -1.9794915 243.74001
5.7843161 -11.724274 -1.8373632 243.74001
9.6626329 -19.585262 -2.0374918 243.74001
11.946052 -24.213541 -1.8880287 243.74001
1.9886336 -4.0307765 -2.0011442 243.74001
19.663019 -39.855118 -2.0724967 243.74001
2.146641 -4.3510432 -2.0265539 243.74001
19.668468 -39.866169 -1.0320911 243.74001
2.2923121 -4.6463051 -2.0231164 243.74001
19.664036 -39.857182 0 243.74001
2.4554935 -4.9770579 -2.0199709 243.74001
15.917544 -32.26339 0.83526367 243.74001
2.6541393 -5.3796949 -2.0269809 243.74001
15.897477 -32.222717 1.6756059 243.74001
2.8644483 -5.8059716 -2.0201864 243.74001
3.142158 -6.3688636 -2.0364089 243.74001
15.633606 -31.687872 3.2965491 243.74001
3.4370143 -6.9665103 -2.0336092 243.74001
15.794732 -32.014462 4.1746883 243.74001
3.7868977 -7.6756916 -2.0279992 243.74001
4.1962032 -8.5053158 -2.0159118 243.74001
4.6905713 -9.5073547 -1.9974208 243.74001
5.3084097 -10.835813 -1.9824097 243.89999
5.7079873 -11.651452 -1.8234459 243.89999
11.879266 -24.248598 -1.8881682 243.89999
1.9781736 -4.0379548 -2.0019577 243.89999
19.526157 -39.857845 -2.0697949 243.89999
2.1344824 -4.3570204 -2.0265539 243.89999
19.535954 -39.877842 -1.030977 243.89999
2.2809675 -4.656034 -2.0245714 243.89999
19.541218 -39.888588 0 243.89999
2.4415853 -4.9838958 -2.0199709 243.89999
15.779885 -32.210754 0.83275688 243.89999
2.6399395 -5.3887873 -2.027621 243.89999
2.8515835 -5.820806 -2.0225694 243.89999
15.743055 -32.135574 2.5023043 243.89999
3.1243606 -6.3776135 -2.0364089 243.89999
15.407512 -31.450645 3.267381 243.89999
3.4141421 -6.969131 -2.0315831 243.89999
15.738479 -32.126232 4.183516 243.89999
3.7714417 -7.6984701 -2.0312271 243.89999
4.1707144 -8.5134869 -2.0150802 243.89999
4.6691918 -9.5310059 -1.9996426 243.89999
5.275897 -10.860456 -1.9837066 244.09
5.6433558 -11.616873 -1.8150955 244.09
6.3746109 -13.122164 -1.7060214 244.09
6.5173407 -13.415974 -1.3915212 244.09
11.796173 -24.282475 -1.8877497 244.09
1.9655708 -4.0461359 -2.0027711 244.09
12.743599 -26.232754 -1.3600497 244.09
2.1248605 -4.3740349 -2.031179 244.09
19.379143 -39.892048 -1.0296773 244.09
2.2655151 -4.6635723 -2.0245714 244.09
19.384365 -39.902798 0 244.09
2.422581 -4.9868932 -2.0179188 244.09
15.63891 -32.192764 0.83094645 244.09
2.6220553 -5.397512 -2.027621 244.09
15.803355 -32.531273 1.6865995 244.09
2.8347681 -5.835382 -2.0243568 244.09
15.596301 -32.105053 2.4958866 244.09
3.1057148 -6.393127 -2.0380626 244.09
15.541552 -31.99235 3.3182857 244.09
3.3952401 -6.9891162 -2.0341156 244.09
15.643142 -32.201473 4.1865358 244.09
3.7467422 -7.7126851 -2.0316882 244.09
4.1416049 -8.5255108 -2.0146642 244.09
4.6375599 -9.5464373 -1.9996426 244.09
5.2479358 -10.884952 -1.9853278 244.25999
5.5624166 -11.537229 -1.8000649 244.25999
6.3045912 -13.076603 -1.6976587 244.25999
11.726673 -24.322758 -1.8881682 244.25999
1.9551439 -4.0552416 -2.0043981 244.25999
12.658768 -26.256052 -1.3593044 244.25999
2.1118731 -4.3803201 -2.031179 244.25999
19.237251 -39.900745 -1.0284239 244.25999
2.2557135 -4.6786647 -2.0282087 244.25999
15.570095 -32.294552 0 244.25999
2.4110386 -5.0008311 -2.0206549 244.25999
15.48775 -32.123756 0.82797545 244.25999
2.6093204 -5.4120951 -2.0301819 244.25999
15.761424 -32.691395 1.6924691 244.25999
2.8190999 -5.8472071 -2.0255482 244.25999
15.539099 -32.230259 2.5020251 244.25999
3.0850625 -6.39885 -2.0369601 244.25999
15.598768 -32.354023 3.3509836 244.25999
3.3786893 -7.0078731 -2.0366483 244.25999
15.574273 -32.303215 4.193737 244.25999
3.729758 -7.7360387 -2.0349159 244.25999
4.1188397 -8.5430489 -2.0159118 244.25999
4.6186042 -9.5796299 -2.003716 244.25999
5.2198753 -10.909375 -1.9869491 244.42999
5.4973869 -11.489366 -1.7900444 244.42999
6.1808834 -12.917852 -1.6746608 244.42999
11.653594 -24.355646 -1.8880287 244.42999
1.9446805 -4.064321 -2.0060251 244.42999
19.109205 -39.937641 -2.0646706 244.42999
2.1012568 -4.391561 -2.0334914 244.42999
15.388054 -32.160549 -0.82774335 244.42999
2.2418215 -4.6853366 -2.0282087 244.42999
15.460395 -32.311741 0 244.42999
2.3961904 -5.0079627 -2.0206549 244.42999
15.362164 -32.106441 0.82635069 244.42999
2.5940688 -5.4215221 -2.0308223 244.42999
15.555709 -32.510944 1.68073 244.42999
2.8000906 -5.8521013 -2.0243568 244.42999
15.460624 -32.312218 2.5048153 244.42999
3.0685525 -6.4131784 -2.0386138 244.42999
15.527629 -32.452255 3.3563714 244.42999
3.3595519 -7.0213575 -2.0376611 244.42999
15.374616 -32.132465 4.1656284 244.42999
3.7059484 -7.7453156 -2.0344548 244.42999
4.0985398 -8.5658197 -2.0184066 244.42999
4.591857 -9.596837 -2.0044565 244.42999
5.1898079 -10.934635 -1.9885702 244.61
5.5325985 -11.656876 -1.8134255 244.61
6.1445293 -12.946179 -1.6758223 244.61
6.0913448 -12.834123 -1.3253821 244.61
11.579587 -24.397543 -1.8884473 244.61
1.9358195 -4.0786633 -2.0100925 244.61
15.276175 -32.186047 -1.6614445 244.61
2.08745 -4.3981404 -2.0334914 244.61
18.955431 -39.938034 -1.0263814 244.61
2.2286887 -4.6957226 -2.0296638 244.61
18.957968 -39.943375 0 244.61
2.3780282 -5.0103722 -2.0186028 244.61
15.321236 -32.280987 0.82960021 244.61
2.5802736 -5.436492 -2.0333831 244.61
15.166528 -31.955025 1.6495191 244.61
2.7849662 -5.8677683 -2.0267398 244.61
3.0508628 -6.4279971 -2.0402677 244.61
15.448654 -32.54945 3.3613875 244.61
3.3391361 -7.0353732 -2.0386741 244.61
3.6841009 -7.7621946 -2.0358384 244.61
4.0791588 -8.5945597 -2.0221491 244.61
4.5650558 -9.6183176 -2.0059378 244.61
5.1642995 -10.959797 -1.9905157 244.77
6.1659307 -13.085482 -1.6916188 244.77
6.3746376 -13.528404 -1.3952368 244.77
11.519916 -24.447832 -1.8898424 244.77
1.9267585 -4.0890117 -2.0125329 244.77
18.848883 -40.001537 -2.0621552 244.77
2.0783067 -4.4106302 -2.0365748 244.77
18.844683 -39.992622 -1.0264277 244.77
2.2163613 -4.7036133 -2.0303912 244.77
18.826742 -39.954548 0 244.77
2.3680327 -5.0254936 -2.0220232 244.77
15.321371 -32.515369 0.83452088 244.77
2.5666971 -5.4471045 -2.0346637 244.77
15.182829 -32.221352 1.6610718 244.77
2.7701972 -5.8789768 -2.0279312 244.77
3.03372 -6.438231 -2.0408189 244.77
3.3203015 -7.0464206 -2.0391808 244.77
3.6673877 -7.7830148 -2.038605 244.77
4.0593119 -8.6147652 -2.0242283 244.77
4.5365033 -9.6274719 -2.0051973 244.77
5.1340213 -10.984906 -1.9921368 244.95
6.0432057 -12.930225 -1.6690855 244.95
9.2932711 -19.884163 -2.0477097 244.95
11.443054 -24.483902 -1.8898424 244.95
1.9193183 -4.1066313 -2.0182273 244.95
18.888918 -40.415298 -2.0804157 244.95
2.0620959 -4.4121222 -2.0342624 244.95
18.889959 -40.417526 -1.0358049 244.95
2.2031512 -4.7139287 -2.031846 244.95
18.862871 -40.359566 0 244.95
2.3514371 -5.0312057 -2.0213389 244.95
15.142953 -32.400318 0.83034295 244.95
2.5503743 -5.4568577 -2.0353038 244.95
2.7533309 -5.8911095 -2.0291228 244.95
14.719859 -31.495054 2.4310131 244.95
3.0175488 -6.4564381 -2.0435753 244.95
3.301425 -7.063828 -2.0412066 244.95
3.6453905 -7.799787 -2.0399883 244.95
4.0355411 -8.6345644 -2.0258915 244.95
4.5112286 -9.65236 -2.0074191 244.95
5.1091399 -11.011732 -1.9944066 245.11
5.9191318 -12.757507 -1.9765364 245.11
6.0271397 -12.990297 -1.6746608 245.11
9.2477655 -19.931713 -2.0499392 245.11
11.383874 -24.535669 -1.891377 245.11
1.9124569 -4.1219192 -2.023108 245.11
14.546553 -31.352192 -1.6117866 245.11
2.0552039 -4.4295816 -2.0396583 245.11
18.937752 -40.816544 -1.0446714 245.11
2.190763 -4.7217526 -2.0325737 245.11
18.916759 -40.771301 0 245.11
2.3397512 -5.0428672 -2.0233912 245.11
14.971628 -32.26836 0.82588649 245.11
2.5367208 -5.4673958 -2.0365844 245.11
14.741628 -31.772638 1.6334013 245.11
2.7352622 -5.8953118 -2.0279312 245.11
14.601622 -31.470882 2.4259906 245.11
3.0003164 -6.4665837 -2.0441267 245.11
3.2816863 -7.07302 -2.0412066 245.11
3.6276906 -7.8187633 -2.042294 245.11
4.0097661 -8.642251 -2.0250599 245.11
4.4941826 -9.6863146 -2.0118628 245.11
5.0786452 -11.036693 -1.9960278 245.28999
5.8806791 -12.779638 -1.9770931 245.28999
5.9846392 -13.005559 -1.6741961 245.28999
5.9702334 -12.974254 -1.3324419 245.28999
11.311741 -24.582188 -1.8922141 245.28999
1.9048444 -4.1395254 -2.0288024 245.28999
18.985321 -41.25808 -2.1179621 245.28999
2.0389633 -4.4309869 -2.0373456 245.28999
18.988297 -41.264542 -1.0546056 245.28999
2.1774759 -4.7319965 -2.0340285 245.28999
18.958298 -41.199356 0 245.28999
2.3254683 -5.0536075 -2.0247593 245.28999
14.935375 -32.456913 0.82950735 245.28999
2.521116 -5.4787807 -2.0378647 245.28999
14.781207 -32.12188 1.6489601 245.28999
2.7191222 -5.9090791 -2.0297184 245.28999
2.9815936 -6.4794703 -2.0452292 245.28999
3.2618759 -7.0885677 -2.0427263 245.28999
3.6039228 -7.8318896 -2.0427551 245.28999
3.9858673 -8.6619139 -2.0267231 245.28999
4.4629087 -9.6985998 -2.0114923 245.28999
5.0480442 -11.06157 -1.997649 245.47
5.8380351 -12.792645 -1.976258 245.47
5.9660187 -13.07309 -1.6804683 245.47
9.1355772 -20.018412 -2.0529118 245.47
11.236943 -24.623047 -1.8926326 245.47
1.8948646 -4.1521382 -2.0320563 245.47
19.023157 -41.684654 -2.1367817 245.47
2.0319288 -4.4524813 -2.0442834 245.47
19.012968 -41.662327 -1.0632401 245.47
2.1649196 -4.7438984 -2.036211 245.47
19.004805 -41.644444 0 245.47
2.311141 -5.0643077 -2.0261273 245.47
2.505465 -5.4901214 -2.0391452 245.47
14.637919 -32.075466 1.6442087 245.47
2.7045081 -5.9262767 -2.0326972 245.47
2.9604249 -6.4870563 -2.044678 245.47
3.2387872 -7.0970201 -2.0422196 245.47
3.5841484 -7.8537955 -2.0455217 245.47
3.961072 -8.6797323 -2.0279706 245.47
4.4389453 -9.7268772 -2.0144548 245.47
5.0187635 -11.079219 -1.9982975 245.63
5.8169985 -12.841371 -1.9812683 245.63
5.8999805 -13.024558 -1.6721054 245.63
9.0936079 -20.07468 -2.0560701 245.63
11.173079 -24.665236 -1.8934697 245.63
1.8908013 -4.1740565 -2.0401909 245.63
19.083916 -42.12888 -2.1568127 245.63
2.0187256 -4.4564567 -2.0435126 245.63
19.065681 -42.088627 -1.0727565 245.63
2.1547387 -4.7567134 -2.0391209 245.63
19.06917 -42.096325 0 245.63
2.2985408 -5.0741658 -2.0274954 245.63
2.4924693 -5.5022745 -2.0410659 245.63
2.6887362 -5.935545 -2.033293 245.63
14.429011 -31.852901 2.4452434 245.63
2.9438846 -6.4988008 -2.0457804 245.63
3.2197542 -7.1077991 -2.0427263 245.63
3.5613995 -7.8620009 -2.0450606 245.63
3.940047 -8.6978884 -2.029634 245.63
4.4117656 -9.7392349 -2.0144548 245.63
4.9828043 -11.097601 -1.9986217 245.82001
5.7630258 -12.835295 -1.9773715 245.82001
5.8242106 -12.971564 -1.6628134 245.82001
9.0229101 -20.095642 -2.0551412 245.82001
11.09531 -24.71125 -1.8941673 245.82001
1.8799428 -4.1869707 -2.0434449 245.82001
19.123318 -42.591068 -2.1772163 245.82001
2.0024245 -4.4597597 -2.0419707 245.82001
19.110279 -42.562027 -1.0832014 245.82001
2.1397159 -4.7655325 -2.0398483 245.82001
19.110514 -42.56255 0 245.82001
2.2832413 -5.0851889 -2.0288634 245.82001
19.549257 -43.539711 1.1080834 245.82001
2.4757617 -5.5139666 -2.0423465 245.82001
2.6721663 -5.951395 -2.035676 245.82001
2.9238927 -6.5120349 -2.0468831 245.82001
3.1993363 -7.1254973 -2.0447521 245.82001
3.5392942 -7.8826447 -2.0473661 245.82001
3.9183939 -8.7269678 -2.0333765 245.82001
4.3891053 -9.7753267 -2.0188985 245.82001
4.9538703 -11.12135 -2.0002429 245.99001
5.6951003 -12.785398 -1.9670726 245.99001
5.9125981 -13.273678 -1.6992847 245.99001
8.9656763 -20.127783 -2.0556986 245.99001
11.015448 -24.729483 -1.8930511 245.99001
1.8704853 -4.1992064 -2.0466988 245.99001
1.9936888 -4.4757962 -2.0465958 245.99001
19.172659 -43.042278 -1.0939711 245.99001
2.1263249 -4.773562 -2.040576 245.99001
19.159109 -43.01186 0 245.99001
2.2704372 -5.0970912 -2.0309155 245.99001
2.4609325 -5.5247493 -2.0436268 245.99001
14.846965 -33.331173 1.7015994 245.99001
2.6537197 -5.9575534 -2.0350802 245.99001
2.9053404 -6.5224376 -2.0474343 245.99001
3.1789677 -7.1367259 -2.0452588 245.99001
3.5166821 -7.8948889 -2.0478272 245.99001
3.8932793 -8.7403431 -2.0337923 245.99001
4.3656802 -9.8008747 -2.0214906 245.99001
4.9256368 -11.146832 -2.0021884 246.16
5.6283221 -12.737024 -1.9570521 246.16
5.8057451 -13.138536 -1.6797714 246.16
6.03896 -13.666306 -1.3939364 246.16
10.940413 -24.758408 -1.8927722 246.16
1.8617102 -4.2130938 -2.0507662 246.16
1.9863675 -4.4951959 -2.0527627 246.16
19.21781 -43.490353 -1.1039054 246.16
2.1136582 -4.783258 -2.0420308 246.16
19.205206 -43.461826 0 246.16
2.2560637 -5.1055245 -2.0315998 246.16
2.4429977 -5.5285606 -2.0423465 246.16
14.40482 -32.598446 1.6620035 246.16
2.6375749 -5.9688935 -2.0362718 246.16
2.8867524 -6.5327878 -2.0479856 246.16
3.1624708 -7.156745 -2.0482976 246.16
3.4971752 -7.9141889 -2.050133 246.16
3.8673291 -8.7518559 -2.0337923 246.16
4.3365812 -9.8137846 -2.0214906 246.16
4.8925419 -11.161397 -2.0021884 246.33
5.5865302 -12.744598 -1.9556605 246.33
5.8313346 -13.303072 -1.6985878 246.33
8.8596687 -20.211637 -2.058857 246.33
10.866904 -24.79076 -1.8927722 246.33
1.8602043 -4.2436996 -2.0629683 246.33
1.9715394 -4.4976892 -2.0512209 246.33
19.263681 -43.946396 -1.1140252 246.33
2.1002047 -4.7912145 -2.0427582 246.33
19.268871 -43.958237 0 246.33
2.2431688 -5.1173596 -2.0336518 246.33
2.4288654 -5.5409908 -2.0442672 246.33
14.215798 -32.430618 1.6512893 246.33
2.6244524 -5.987185 -2.0398462 246.33
2.8704438 -6.5483675 -2.0501907 246.33
3.1404457 -7.1643248 -2.0477912 246.33
3.4744592 -7.9263129 -2.0505941 246.33
3.8429155 -8.7668753 -2.0346239 246.33
4.3137565 -9.8410082 -2.0244529 246.33
4.8676524 -11.189493 -2.0047822 246.49001
5.5564494 -12.772861 -1.9576088 246.49001
5.6848087 -13.067927 -1.6665303 246.49001
8.8031931 -20.2363 -2.058857 246.49001
10.79047 -24.804543 -1.8915166 246.49001
1.8629233 -4.2823863 -2.0792377 246.49001
1.9619166 -4.5099463 -2.0543044 246.49001
13.690861 -31.471802 -0.7968266 246.49001
2.0860736 -4.795352 -2.0420308 246.49001
19.338316 -44.453865 0 246.49001
2.2296195 -5.1253271 -2.0343359 246.49001
2.4141386 -5.5494895 -2.0449073 246.49001
2.6100075 -5.9997425 -2.0416336 246.49001
2.8529131 -6.5581207 -2.0507419 246.49001
3.1211987 -7.1748409 -2.0482976 246.49001
3.4554167 -7.9431224 -2.0524385 246.49001
3.8231013 -8.7883358 -2.0371187 246.49001
4.2901788 -9.8620281 -2.0263045 246.49001
4.8344264 -11.214635 -2.0064034 246.67999
5.5415034 -12.854874 -1.967351 246.67999
5.9166737 -13.725172 -1.7478358 246.67999
8.7486515 -20.29464 -2.0618293 246.67999
10.702628 -24.827364 -1.89054 246.67999
1.8573916 -4.3086743 -2.0889995 246.67999
1.950603 -4.5249014 -2.0581586 246.67999
2.0708978 -4.8039541 -2.0427582 246.67999
19.368143 -44.92915 0 246.67999
2.216331 -5.1413221 -2.037756 246.67999
2.3994727 -5.5661645 -2.0481086 246.67999
2.5893414 -6.0066113 -2.0410378 246.67999
2.8326719 -6.5710759 -2.0518444 246.67999
3.1012185 -7.1940351 -2.0508301 246.67999
3.4259756 -7.9473891 -2.0505941 246.67999
3.8009069 -8.8171339 -2.0408611 246.67999
4.2558951 -9.872591 -2.025564 246.67999
4.799171 -11.229768 -2.0064034 246.86
5.5368934 -12.955994 -1.9801549 246.86
5.8391771 -13.66332 -1.7376144 246.86
8.6942415 -20.343998 -2.0640588 246.86
10.616737 -24.84252 -1.8891448 246.86
1.8467183 -4.3212085 -2.0922532 246.86
1.9407295 -4.5411887 -2.0627837 246.86
19.427586 -45.459366 -1.1477737 246.86
2.0601883 -4.8207154 -2.0471232 246.86
19.421818 -45.445869 0 246.86
2.2023838 -5.1534438 -2.039808 246.86
19.932034 -46.639748 1.1775764 246.86
2.3819745 -5.5736752 -2.0481086 246.86
2.5727093 -6.0199833 -2.042825 246.86
2.8157918 -6.5887818 -2.054601 246.86
3.0786026 -7.2037425 -2.0508301 246.86
3.4063447 -7.9706397 -2.0538218 246.86
3.7731884 -8.829031 -2.0408611 246.86
4.2333546 -9.9057922 -2.0296373 246.86
4.7716451 -11.252211 -2.0080247 247.02
5.5200224 -13.01699 -1.9871136 247.02
5.8289185 -13.74541 -1.7459773 247.02
8.6389523 -20.371862 -2.0644305 247.02
10.54187 -24.859213 -1.8881682 247.02
1.8339307 -4.3246665 -2.0914397 247.02
1.9294815 -4.5499887 -2.0643253 247.02
19.508986 -46.004932 -1.1601683 247.02
2.0459909 -4.8247342 -2.0463958 247.02
19.51112 -46.009964 0 247.02
2.1945877 -5.1751461 -2.0459645 247.02
2.3678799 -5.5837936 -2.0493889 247.02
2.557379 -6.0306592 -2.0440166 247.02
2.8041368 -6.6125488 -2.0595622 247.02
3.0614953 -7.2194366 -2.0528562 247.02
3.3901515 -7.9944544 -2.0575109 247.02
3.7523372 -8.8485384 -2.0429404 247.02
4.2095127 -9.9266224 -2.0314889 247.02
4.7408605 -11.278061 -2.0099702 247.2
5.4829388 -13.043396 -1.9885052 247.2
5.8072615 -13.814929 -1.7524817 247.2
8.5810823 -20.413589 -2.0659165 247.2
10.456762 -24.875654 -1.8869126 247.2
1.8203354 -4.3304067 -2.0914397 247.2
10.705497 -25.467369 -1.2883112 247.2
1.9194688 -4.5662355 -2.0689504 247.2
2.0351551 -4.8414426 -2.0507605 247.2
2.1746771 -5.1733527 -2.0425444 247.2
2.3503263 -5.5912051 -2.0493889 247.2
2.5399003 -6.0421839 -2.045208 247.2
2.7758989 -6.6036029 -2.0540495 247.2
3.0350509 -7.2201009 -2.0503237 247.2
3.3620028 -7.997889 -2.0556664 247.2
3.7290688 -8.8711042 -2.0454352 247.2
4.1821146 -9.9488573 -2.0333402 247.2
4.7088957 -11.295721 -2.0106187 247.37
5.4518347 -13.077888 -1.9912888 247.37
5.8640828 -14.06679 -1.7822163 247.37
8.5342684 -20.472044 -2.0692608 247.37
10.378303 -24.895521 -1.8860755 247.37
1.8095878 -4.340848 -2.0938802 247.37
1.9151434 -4.5940547 -2.0789714 247.37
2.0222151 -4.8508992 -2.0522156 247.37
2.1636569 -5.1901903 -2.0466485 247.37
2.3351846 -5.6016517 -2.0506694 247.37
32.062622 -76.911964 3.8858962 247.37
2.5204923 -6.0461688 -2.0440166 247.37
2.7644308 -6.6313295 -2.0601137 247.37
3.0173373 -7.2380033 -2.0528562 247.37
3.3449974 -8.0239954 -2.0598164 247.37
3.7080004 -8.8947687 -2.048346 247.37
4.1548462 -9.9666643 -2.0344512 247.37
4.6818595 -11.319769 -2.0125642 247.53
5.422863 -13.111362 -1.9940722 247.53
6.3934379 -15.458013 -1.95621 247.53
8.4808722 -20.504997 -2.0701897 247.53
10.303403 -24.911501 -1.8850989 247.53
1.7974589 -4.3458843 -2.0938802 247.53
1.9037175 -4.6027956 -2.080513 247.53
2.0136452 -4.868578 -2.057308 247.53
2.1520278 -5.2031589 -2.0493846 247.53
2.3224294 -5.6151547 -2.0532303 247.53
31.901932 -77.132278 3.8925111 247.53
2.5065172 -6.0602407 -2.0463996 247.53
2.7400236 -6.6248107 -2.0557034 247.53
2.9993317 -7.2517648 -2.0543756 247.53
3.319602 -8.0261116 -2.057972 247.53
3.6771655 -8.8906269 -2.0450194 247.53
4.1285 -9.9818611 -2.0351918 247.53
4.651248 -11.340915 -2.0138609 247.7
5.3891973 -13.140222 -1.9960206 247.7
5.7761831 -14.08379 -1.7801256 247.7
8.426796 -20.546652 -2.0718617 247.7
10.225658 -24.932732 -1.8844014 247.7
1.7845565 -4.3511982 -2.0938802 247.7
10.504073 -25.611578 -1.2909199 247.7
1.8900524 -4.6084237 -2.080513 247.7
2.0020187 -4.8814259 -2.0602179 247.7
2.1380067 -5.2129989 -2.0507529 247.7
2.3071966 -5.6255269 -2.0545108 247.7
2.4892497 -6.0694175 -2.0469952 247.7
2.7291095 -6.6542563 -2.0623188 247.7
2.9836757 -7.2749529 -2.0584278 247.7
3.3002043 -8.0467291 -2.0607386 247.7
3.6537397 -8.9087381 -2.0466826 247.7
4.1025944 -10.003159 -2.0370433 247.7
4.6193123 -11.364613 -2.0154822 247.88
5.3523645 -13.168096 -1.9976907 247.88
6.3048759 -15.511501 -1.9580685 247.88
8.3644552 -20.578558 -2.0724192 247.88
10.134508 -24.933313 -1.8820297 247.88
1.771566 -4.3584757 -2.0946937 247.88
10.414534 -25.622242 -1.289802 247.88
1.8832093 -4.6331449 -2.0889924 247.88
1.9894794 -4.8945951 -2.0631278 247.88
2.1209114 -5.2179489 -2.0500689 247.88
20.262594 -49.850826 1.2493442 247.88
2.2916527 -5.6380134 -2.0564315 247.88
16.211586 -39.884377 2.0077457 247.88
2.4701698 -6.077208 -2.0469952 247.88
2.7031236 -6.6503301 -2.0584598 247.88
2.9600775 -7.2824979 -2.0579212 247.88
3.2771068 -8.0624657 -2.0621221 247.88
3.6301539 -8.9310465 -2.0491776 247.88
4.0755887 -10.026922 -2.0392652 247.88
4.5880108 -11.390052 -2.0174277 248.06
5.3176293 -13.20138 -2.0001957 248.06
6.2709579 -15.568084 -1.9627146 248.06
8.3101807 -20.630594 -2.0750201 248.06
10.043455 -24.933567 -1.879658 248.06
1.7558168 -4.3589358 -2.0922532 248.06
1.8693341 -4.6407504 -2.0897632 248.06
1.9789654 -4.9129176 -2.0682201 248.06
2.1066148 -5.229816 -2.0521209 248.06
9.0627012 -22.498777 0.56314027 248.06
2.276053 -5.6504574 -2.0583522 248.06
2.4524922 -6.08848 -2.0481868 248.06
2.685091 -6.6659226 -2.0606649 248.06
2.9415216 -7.3025293 -2.0609603 248.06
3.2568517 -8.0853577 -2.0653498 248.06
3.6079259 -8.9569235 -2.0525043 248.06
4.0492086 -10.052438 -2.0418572 248.06
4.5585876 -11.414611 -2.0193732 248.23
5.2806401 -13.222617 -2.0010309 248.23
6.2269492 -15.592156 -1.9634115 248.23
8.2548409 -20.669954 -2.0765064 248.23
9.0777845 -22.730591 -1.7115449 248.23
1.7435535 -4.3658228 -2.0930667 248.23
9.0819225 -22.740952 -1.1419461 248.23
1.8555566 -4.6462765 -2.0897632 248.23
9.0878601 -22.755817 -0.56889659 248.23
1.9657617 -4.9222279 -2.069675 248.23
9.0776987 -22.730375 0 248.23
2.0924826 -5.2395339 -2.053489 248.23
2.2599804 -5.6589456 -2.0589924 248.23
30.76013 -77.022751 3.8677287 248.23
2.4372489 -6.1028223 -2.0505698 248.23
2.664588 -6.6720748 -2.0601137 248.23
2.9212768 -7.3148184 -2.0619733 248.23
3.2306824 -8.0895634 -2.0639665 248.23
3.5827854 -8.9712229 -2.0533359 248.23
4.0237384 -10.075359 -2.0440791 248.23
4.5248833 -11.434381 -2.0203459 248.41
5.2419891 -13.246508 -2.0021443 248.41
6.1845131 -15.628265 -1.9655021 248.41
8.2030525 -20.729116 -2.0798504 248.41
9.8770103 -24.959206 -1.8770072 248.41
1.7305015 -4.3729777 -2.0938802 248.41
10.155761 -25.663609 -1.2871001 248.41
1.8423089 -4.6555147 -2.091305 248.41
1.9544015 -4.9387727 -2.0740399 248.41
2.0767033 -5.2478294 -2.054173 248.41
2.2463744 -5.6765885 -2.0628338 248.41
2.4166591 -6.1068983 -2.0493782 248.41
15.677386 -39.616756 2.9792991 248.41
2.6457362 -6.6857758 -2.0617673 248.41
15.568581 -39.341808 3.9473498 248.41
2.90113 -7.3311563 -2.0639994 248.41
15.909717 -40.203857 5.056272 248.41
3.2109811 -8.11415 -2.0676556 248.41
3.5610623 -8.998805 -2.0570784 248.41
3.9906194 -10.084296 -2.0433385 248.41
4.4979825 -11.459832 -2.0226154 248.57001
5.2049775 -13.261094 -2.0021443 248.57001
