# .PCD v0.7 - Point Cloud Data file format
VERSION 0.7
FIELDS x y z intensity
SIZE 4 4 4 4
TYPE F F F F
COUNT 1 1 1 1
WIDTH 1218
HEIGHT 1
VIEWPOINT 0 0 0 1 0 0 0
POINTS 1218
DATA ascii
4.7690229 -3.2690871 -1.3699831 214.42999
4.8326921 -3.3127313 -1.245391 214.42999
4.8325372 -3.3126252 -1.1038768 214.42999
4.8588619 -3.3519044 -0.96980494 214.60001
5.0407372 -3.4773717 -0.86064643 214.60001
5.1016059 -3.5193622 -0.72478038 214.60001
3.7072244 -2.5574429 -2.0052116 214.60001
3.9389789 -2.7173195 -1.9988034 214.60001
4.1864672 -2.8880503 -1.986015 214.60001
4.4537854 -3.0724607 -1.969352 214.60001
16.035315 -11.062022 0.45228553 214.60001
4.7849836 -3.3009391 -1.9642378 214.60001
5.2237992 -3.6036577 -1.9802713 214.60001
24.067356 -16.602957 2.0445623 214.60001
4.7997193 -3.3111045 -1.6720161 214.60001
4.7587037 -3.28281 -1.5134307 214.60001
16.08968 -11.099527 2.2858458 214.60001
4.7753215 -3.2942736 -1.3745943 214.60001
4.8341136 -3.3348317 -1.2483017 214.60001
16.368402 -11.291805 3.2670527 214.60001
4.8372474 -3.3369935 -1.1072096 214.60001
4.8651071 -3.3775609 -0.97304732 214.77
5.0336514 -3.4945714 -0.86120313 214.77
5.1286721 -3.560539 -0.73012328 214.77
8.4927483 -5.8960209 -0.72295612 214.77
3.6981192 -2.567389 -2.0043981 214.77
3.9324152 -2.7300472 -1.9995743 214.77
4.1732888 -2.8972719 -1.9838326 214.77
4.4508247 -3.0899489 -1.9720881 214.77
16.07469 -11.159722 0.45432809 214.77
4.7751684 -3.3151219 -1.9642378 214.77
16.455433 -11.42405 0.93418401 214.77
5.2146525 -3.62023 -1.980867 214.77
23.937683 -16.618542 2.0377262 214.77
4.7961907 -3.3297164 -1.6742213 214.77
4.7584786 -3.3035352 -1.5164697 214.77
16.019146 -11.121161 2.2805028 214.77
4.7751179 -3.3150868 -1.3773611 214.77
15.779374 -10.954702 2.6996799 214.77
4.8386607 -3.359201 -1.2520442 214.77
16.39481 -11.381964 3.2790496 214.77
4.8386264 -3.3591771 -1.1098017 214.77
17.391287 -12.073759 3.9889166 214.77
4.867413 -3.4018729 -0.97564125 214.95
7.0550299 -4.9308157 -1.006562 214.95
8.4921713 -5.935245 -0.72449076 214.95
3.6885376 -2.5779479 -2.0035846 214.95
8.2891512 -5.7933526 -0.47161061 214.95
3.9207938 -2.7402735 -1.9980326 214.95
4.1656933 -2.9114356 -1.98456 214.95
4.4380145 -3.101763 -1.9707201 214.95
15.965802 -11.158624 0.45223913 214.95
4.7678361 -3.332278 -1.9655184 214.95
16.450575 -11.497436 0.93595421 214.95
5.1985588 -3.6333134 -1.9790798 214.95
16.644197 -11.63276 1.4199628 214.95
4.8109193 -3.3623891 -1.6830417 214.95
15.961445 -11.155579 1.8167804 214.95
4.7575922 -3.3251183 -1.5195087 214.95
15.989013 -11.174846 2.2811997 214.95
4.7726555 -3.3356462 -1.3796666 214.95
15.71566 -10.983798 2.6946695 214.95
4.8409114 -3.3833508 -1.2553707 214.95
17.119253 -11.964779 3.4314427 214.95
4.8393259 -3.3822429 -1.1123937 214.95
4.8734407 -3.4276533 -0.97888368 215.12
7.0663662 -4.9700112 -1.0102788 215.12
8.4682589 -5.9560094 -0.96589035 215.12
8.4990025 -5.977632 -0.72658342 215.12
3.6838615 -2.5909827 -2.0052116 215.12
8.293169 -5.8328629 -0.47282177 215.12
3.9171746 -2.7550795 -2.000345 215.12
4.1600842 -2.9259262 -1.986015 215.12
4.4303293 -3.1159983 -1.9714041 215.12
15.960426 -11.225501 0.45302829 215.12
4.7610278 -3.3485897 -1.9667988 215.12
16.41312 -11.543896 0.93576789 215.12
5.1877556 -3.6487217 -1.9790798 215.12
23.156845 -16.286982 1.9796888 215.12
4.8150744 -3.3866026 -1.6880032 215.12
4.760366 -3.3481243 -1.5235608 215.12
16.041903 -11.282805 2.2935116 215.12
4.7754722 -3.3587489 -1.3833556 215.12
15.658702 -11.013288 2.6904943 215.12
4.8436527 -3.4067028 -1.2586974 215.12
17.093363 -12.022332 3.4333882 215.12
4.8469534 -3.409024 -1.1164671 215.12
17.029446 -11.977377 3.9226322 215.12
4.8761363 -3.4512193 -0.98147762 215.28999
4.97263 -3.5195155 -0.85619295 215.28999
7.0499673 -4.9898081 -1.0100465 215.28999
8.4424229 -5.9753566 -0.96496141 215.28999
3.6806316 -2.6050682 -2.007652 215.28999
8.2921333 -5.8689852 -0.47375345 215.28999
3.9104891 -2.767756 -2.001116 215.28999
4.1513844 -2.9382565 -1.986015 215.28999
4.4195304 -3.1280439 -1.9707201 215.28999
4.7557111 -3.3659852 -1.9687195 215.28999
5.1722317 -3.660789 -1.9772925 215.28999
23.461803 -16.605736 2.009963 215.28999
4.8269744 -3.4164238 -1.695721 215.28999
15.685287 -11.101693 1.7928144 215.28999
4.7567277 -3.3667047 -1.5255867 215.28999
15.941876 -11.2833 2.2839873 215.28999
4.7781935 -3.3818977 -1.3870445 215.28999
24.190649 -17.121595 4.1651726 215.28999
4.8462982 -3.4301007 -1.2620239 215.28999
17.001236 -12.033092 3.4220397 215.28999
4.8480468 -3.4313383 -1.1190592 215.28999
16.255877 -11.505544 3.7522924 215.28999
4.8761258 -3.4716904 -0.98342305 215.45
7.0230598 -5.0002584 -1.008188 215.45
8.4289484 -6.0012193 -0.96533298 215.45
3.6718543 -2.6142766 -2.0068386 215.45
8.246417 -5.8712611 -0.47207645 215.45
3.8997381 -2.7765248 -1.9995743 215.45
4.144681 -2.9509184 -1.9867425 215.45
4.4138398 -3.1425533 -1.9720881 215.45
16.229414 -11.554973 0.46254471 215.45
4.7447495 -3.3781536 -1.9680792 215.45
23.836002 -16.97069 1.3645217 215.45
5.1573229 -3.6718965 -1.9755054 215.45
16.446159 -11.709291 1.4117315 215.45
4.9192138 -3.502368 -1.7315539 215.45
23.747377 -16.907591 2.7196901 215.45
4.7599168 -3.3889523 -1.5296388 215.45
15.908687 -11.326623 2.2837551 215.45
4.7798281 -3.4031289 -1.3902724 215.45
24.19437 -17.22584 4.1740794 215.45
4.8526368 -3.454967 -1.2661822 215.45
16.146036 -11.49561 3.2563527 215.45
4.8512545 -3.4539828 -1.1220217 215.45
4.8742094 -3.494741 -0.98536849 215.64
5.0894608 -3.6490731 -0.88013071 215.64
6.9999824 -5.0188904 -1.0072589 215.64
8.4041462 -6.0256562 -0.96477562 215.64
3.6616797 -2.6253738 -2.0060251 215.64
8.2025471 -5.8811131 -0.47067896 215.64
3.8965087 -2.7937429 -2.0026577 215.64
4.1394148 -2.9679031 -1.988925 215.64
4.4095039 -3.1615534 -1.9748243 215.64
16.033386 -11.495716 0.45804182 215.64
4.7366009 -3.3960772 -1.9693598 215.64
23.570147 -16.899469 1.3525032 215.64
5.1451182 -3.6889784 -1.9755054 215.64
23.655027 -16.960327 2.0353544 215.64
5.0981879 -3.6553304 -1.7988094 215.64
23.545527 -16.881817 2.7029696 215.64
4.762804 -3.4148645 -1.5341973 215.64
15.864581 -11.374685 2.2828257 215.64
4.790659 -3.4348364 -1.396728 215.64
16.348404 -11.72158 2.8271623 215.64
4.8602319 -3.4847188 -1.271172 215.64
16.803913 -12.048174 3.3970733 215.64
4.8525524 -3.479213 -1.1249841 215.64
16.158136 -11.58516 3.7459972 215.64
4.872808 -3.5169663 -0.98731393 215.82001
6.9809589 -5.0385318 -1.0067942 215.82001
8.3771009 -6.0462022 -0.96384674 215.82001
8.391366 -6.0564981 -0.72365367 215.82001
3.653414 -2.6368644 -2.0060251 215.82001
8.1824112 -5.905684 -0.47058576 215.82001
3.8832233 -2.8027301 -2.000345 215.82001
4.127049 -2.9787121 -1.9874699 215.82001
48.899696 -35.29353 0 215.82001
4.394978 -3.172091 -1.9727722 215.82001
24.653217 -17.793547 0.70588666 215.82001
4.7274446 -3.4120498 -1.9699999 215.82001
23.465101 -16.93602 1.3495219 215.82001
5.1381478 -3.7084763 -1.9772925 215.82001
15.846045 -11.436938 1.3665293 215.82001
5.1022682 -3.68258 -1.8043221 215.82001
24.086586 -17.384579 2.771338 215.82001
4.7677407 -3.4411337 -1.5392623 215.82001
15.848098 -11.43842 2.2856135 215.82001
4.7908907 -3.4578424 -1.3999559 215.82001
15.893955 -11.471519 2.7547925 215.82001
4.8714681 -3.5159991 -1.2769936 215.82001
16.415522 -11.84796 3.3260646 215.82001
4.8575349 -3.5059428 -1.1286871 215.82001
16.126442 -11.639317 3.747108 215.82001
4.8773413 -3.5409954 -0.99023211 215.98
6.6207275 -4.8067098 -1.1498481 215.98
6.9829364 -5.0696769 -1.0091172 215.98
8.3601837 -6.0695715 -0.96384674 215.98
8.3663483 -6.0740471 -0.72295612 215.98
3.6519504 -2.65135 -2.009279 215.98
8.1561871 -5.9214683 -0.47002676 215.98
3.881355 -2.8178999 -2.0034285 215.98
4.1202226 -2.9913199 -1.9881974 215.98
4.3937073 -3.1898723 -1.9761924 215.98
24.147154 -17.531059 0.69279581 215.98
4.7194314 -3.4263511 -1.9706402 215.98
15.811201 -11.47908 0.91117185 215.98
5.1308618 -3.7250535 -1.978484 215.98
23.809057 -17.285599 2.0573974 215.98
5.107522 -3.7081089 -1.8098348 215.98
16.549555 -12.015131 1.9080003 215.98
4.7753353 -3.466938 -1.5448339 215.98
15.359567 -11.151189 2.2196398 215.98
4.7938147 -3.4803543 -1.4036448 215.98
4.8727121 -3.5376344 -1.2799044 215.98
16.214684 -11.772012 3.2920191 215.98
4.8652205 -3.5321956 -1.1327605 215.98
4.8833718 -3.5662408 -0.99347454 216.14
6.618475 -4.8333559 -1.1517966 216.14
6.9430842 -5.0704126 -1.0054004 216.14
8.3319445 -6.0846729 -0.96254623 216.14
8.3445196 -6.0938568 -0.72253758 216.14
3.6460075 -2.6626153 -2.0100925 216.14
8.1299391 -5.9371519 -0.46946779 216.14
3.873471 -2.828728 -2.0034285 216.14
37.582645 -27.445946 -1.0804625 216.14
4.1118531 -3.0028141 -1.9881974 216.14
4.3863001 -3.2032378 -1.9768764 216.14
4.7098446 -3.439517 -1.9706402 216.14
5.1096463 -3.7314851 -1.9743139 216.14
24.774153 -18.092129 2.1451511 216.14
5.1126733 -3.7336955 -1.8153477 216.14
16.662281 -12.168172 1.9249067 216.14
4.7859478 -3.4950938 -1.5514184 216.14
4.7997932 -3.5052049 -1.4082559 216.14
4.8643942 -3.5523815 -1.2803202 216.14
16.157841 -11.799788 3.2871556 216.14
4.8696232 -3.5562003 -1.1360933 216.14
4.8886724 -3.5924006 -0.99671692 216.31
6.6120849 -4.8588362 -1.1531883 216.31
6.9440169 -5.1027536 -1.0077235 216.31
8.2897844 -6.0916796 -0.95975947 216.31
8.3135405 -6.1091371 -0.72142148 216.31
3.6366191 -2.6723397 -2.009279 216.31
8.0994081 -5.9517837 -0.46872243 216.31
3.8650608 -2.8402083 -2.0034285 216.31
4.1059279 -3.0172074 -1.9896524 216.31
4.3737473 -3.2140124 -1.9755083 216.31
16.187883 -11.895534 0.4663977 216.31
4.7026725 -3.4557202 -1.9719206 216.31
23.208323 -17.054445 1.3430934 216.31
5.106245 -3.7522821 -1.9772925 216.31
16.067593 -11.807139 1.3942924 216.31
5.1155157 -3.7590945 -1.820309 216.31
15.242869 -11.201097 1.764761 216.31
4.7942657 -3.5230269 -1.5574964 216.31
4.8050547 -3.5309548 -1.4128672 216.31
15.972422 -11.737203 2.7856889 216.31
4.8569856 -3.5691156 -1.2811519 216.31
16.114807 -11.841833 3.2855344 216.31
4.8843908 -3.5892544 -1.1420181 216.31
15.110886 -11.10411 3.5330722 216.31
4.8925972 -3.6203313 -0.99995935 216.5
6.6070805 -4.8889823 -1.1551367 216.5
6.9286542 -5.1269345 -1.0079558 216.5
8.2839451 -6.1297965 -0.9614315 216.5
8.2868214 -6.1319251 -0.7208634 216.5
3.6277373 -2.6843843 -2.009279 216.5
8.0667791 -5.9691029 -0.46797711 216.5
3.8571048 -2.8541074 -2.0041993 216.5
16.067984 -11.889683 -0.46407664 216.5
4.0959001 -3.0308065 -1.9896524 216.5
4.3630652 -3.2284985 -1.9755083 216.5
4.6896639 -3.4701686 -1.9712805 216.5
5.0799613 -3.7589736 -1.9719309 216.5
16.122976 -11.930374 1.4025236 216.5
5.1988387 -3.8469384 -1.8544881 216.5
15.088785 -11.165113 1.7511988 216.5
4.8058863 -3.5561688 -1.565094 216.5
15.066111 -11.148335 2.1917636 216.5
4.8136563 -3.5619183 -1.4188617 216.5
4.8529859 -3.5910206 -1.2832309 216.5
15.612207 -11.552425 3.190856 216.5
4.8961601 -3.622968 -1.1475726 216.5
14.925467 -11.044265 3.4982636 216.5
4.9024124 -3.6501539 -1.0041745 216.67
6.5750713 -4.8955536 -1.1520749 216.67
6.9118185 -5.1462831 -1.0077235 216.67
8.2593317 -6.1495914 -0.96068841 216.67
8.2829933 -6.1672091 -0.72211903 216.67
3.6241531 -2.6984098 -2.0117195 216.67
8.0458279 -5.9906249 -0.46779078 216.67
3.8441787 -2.8622327 -2.0018868 216.67
4.0898776 -3.045171 -1.9911073 216.67
16.081873 -11.973966 0 216.67
4.3594966 -3.2459192 -1.9782445 216.67
16.095182 -11.983874 0.46588707 216.67
4.6808667 -3.4851995 -1.9719206 216.67
5.0427527 -3.7546463 -1.9618031 216.67
4.8154883 -3.5854337 -1.5716785 216.67
15.646395 -11.649724 2.2811997 216.67
4.8139935 -3.5843205 -1.4220896 216.67
16.077868 -11.970984 2.817142 216.67
4.8611393 -3.6194236 -1.2882209 216.67
15.270769 -11.370047 3.1279533 216.67
4.9121885 -3.657433 -1.1538678 216.67
15.055007 -11.209398 3.5364051 216.67
6.4030952 -4.7971029 -1.3144732 216.84
6.5684423 -4.9209781 -1.1534667 216.84
6.9060578 -5.1739149 -1.0091172 216.84
8.217144 -6.1561608 -0.95790166 216.84
3.6190553 -2.7113419 -2.0133464 216.84
8.0360126 -6.0204601 -0.46825659 216.84
3.8401003 -2.8769455 -2.0041993 216.84
15.998747 -11.986021 -0.46412304 216.84
4.0793338 -3.0561755 -1.9903799 216.84
4.3498468 -3.2588398 -1.9782445 216.84
15.878733 -11.896108 0.46064141 216.84
4.6765709 -3.5036168 -1.9744816 216.84
16.156767 -12.104407 0.94145107 216.84
4.993391 -3.7409737 -1.9469093 216.84
15.980043 -11.972009 1.3962456 216.84
5.5421109 -4.1520662 -1.9856915 216.84
4.8435402 -3.6287076 -1.584341 216.84
15.61494 -11.698479 2.2816644 216.84
4.8313723 -3.6195915 -1.4303896 216.84
4.8754292 -3.6525984 -1.294874 216.84
15.146937 -11.347858 3.1094716 216.84
6.4147806 -4.8373952 -1.3199853 217.02
6.5750885 -4.9582839 -1.1573635 217.02
6.8992853 -5.2027612 -1.010511 217.02
8.1882238 -6.1747513 -0.95678693 217.02
7.6525841 -5.7708249 -0.6702202 217.02
3.6105196 -2.7226982 -2.0133464 217.02
8.0074883 -6.0384588 -0.46769759 217.02
3.8280962 -2.8867729 -2.0026577 217.02
23.601482 -17.797913 -0.68629676 217.02
4.0741749 -3.0723412 -1.9925623 217.02
23.647762 -17.832813 0 217.02
4.3395872 -3.2724893 -1.9782445 217.02
15.644921 -11.797858 0.45493156 217.02
4.6655412 -3.5182912 -1.9744816 217.02
15.920865 -12.005948 0.92989838 217.02
4.9435048 -3.7279043 -1.9320155 217.02
17.218315 -12.984357 1.5079955 217.02
5.5443892 -4.1810322 -1.9912043 217.02
15.527415 -11.709247 1.8143653 217.02
4.8908186 -3.6881735 -1.6035882 217.02
4.8432846 -3.652328 -1.4373064 217.02
15.248575 -11.498973 2.6840925 217.02
4.9076648 -3.7008774 -1.3065171 217.02
16.25519 -12.258062 3.3448706 217.02
6.3460107 -4.7855358 -1.4975102 217.02
6.4601426 -4.9017382 -1.3323064 217.19
6.5429926 -4.964602 -1.1543016 217.19
6.875906 -5.2172055 -1.0093496 217.19
8.1777983 -6.2050376 -0.95771587 217.19
7.6163554 -5.7790337 -0.66854602 217.19
3.5966032 -2.728981 -2.0100925 217.19
7.9831705 -6.0573606 -0.46732494 217.19
3.8209844 -2.8992341 -2.0034285 217.19
23.559721 -17.876322 -0.68662173 217.19
4.0635567 -3.0832899 -1.9918349 217.19
23.593155 -17.90169 0 217.19
4.331356 -3.2864866 -1.9789286 217.19
4.6581001 -3.5344093 -1.975762 217.19
23.604147 -17.91003 1.3817576 217.19
4.9248176 -3.7367854 -1.9290369 217.19
24.009321 -18.217463 2.1074827 217.19
5.5426803 -4.2055988 -1.9950632 217.19
15.519574 -11.775729 1.8175236 217.19
16.062243 -12.187488 2.3578591 217.19
4.8851385 -3.7066782 -1.4529845 217.19
6.388103 -4.8470774 -1.70446 217.19
16.083538 -12.203647 3.3169858 217.19
6.3317838 -4.8043442 -1.4975102 217.19
6.4730997 -4.9401135 -1.3378185 217.35001
6.5338264 -4.9864588 -1.1551367 217.35001
6.8771009 -5.2484379 -1.0116726 217.35001
8.1920996 -6.2520123 -0.9614315 217.35001
3.5962305 -2.7445564 -2.0141599 217.35001
7.9757533 -6.0869026 -0.46788394 217.35001
3.8172743 -2.9132516 -2.0057411 217.35001
4.0519691 -3.0923648 -1.9903799 217.35001
4.3236551 -3.2997096 -1.9796126 217.35001
22.927965 -17.49807 0.66963142 217.35001
4.6467061 -3.5462539 -1.9751219 217.35001
15.741869 -12.013815 0.92346984 217.35001
4.9128456 -3.7493651 -1.928441 217.35001
16.117092 -12.300177 1.4177306 217.35001
5.5263295 -4.2175612 -1.9934094 217.35001
16.493427 -12.587385 1.9356822 217.35001
14.917592 -11.384747 2.6373303 217.35001
6.3636565 -4.8565893 -1.7015493 217.35001
15.01709 -11.460681 3.1036351 217.35001
6.3199053 -4.8231993 -1.4978805 217.35001
6.4332089 -4.9435143 -1.3329549 217.53999
6.5125437 -5.004478 -1.1543016 217.53999
6.8565087 -5.2687936 -1.0112079 217.53999
8.7650251 -6.7353678 -1.0312862 217.53999
3.5972507 -2.7642598 -2.0198541 217.53999
7.9555244 -6.1133175 -0.46788394 217.53999
3.8075926 -2.9258943 -2.0057411 217.53999
4.0535097 -3.114866 -1.9961997 217.53999
4.31567 -3.3163192 -1.9809806 217.53999
22.852375 -17.560604 0.66912079 217.53999
4.6409302 -3.5662615 -1.9776827 217.53999
23.491133 -18.051451 1.3815713 217.53999
4.9003854 -3.7656362 -1.928441 217.53999
15.584215 -11.975484 1.3743421 217.53999
5.5184112 -4.24055 -1.9956144 217.53999
15.720518 -12.080224 1.8496642 217.53999
5.964807 -4.5835772 -1.9692832 217.53999
15.244037 -11.714078 2.2482128 217.53999
6.508925 -5.0016971 -1.9449979 217.53999
16.034018 -12.321129 2.8419147 217.53999
6.3645797 -4.8907771 -1.7061234 217.53999
14.989956 -11.518833 3.1059048 217.53999
6.299201 -4.8405375 -1.4967695 217.53999
6.4247584 -4.9674091 -1.3342519 217.71001
6.5117679 -5.0346818 -1.1568068 217.71001
6.850275 -5.2964039 -1.0126017 217.71001
8.7418518 -6.7589083 -1.0309147 217.71001
3.5832515 -2.7704506 -2.0166004 217.71001
7.9326096 -6.1332293 -0.46760443 217.71001
3.8032746 -2.9405651 -2.0080535 217.71001
4.0427761 -3.1257396 -1.9954722 217.71001
4.3087845 -3.3314087 -1.9823488 217.71001
15.900327 -12.293603 0.4666298 217.71001
4.6273308 -3.5776978 -1.9764023 217.71001
23.246227 -17.973209 1.370298 217.71001
4.8937221 -3.7836628 -1.9302284 217.71001
15.45549 -11.94967 1.3661108 217.71001
5.5073256 -4.2580805 -1.9961658 217.71001
15.936668 -12.321701 1.8793896 217.71001
5.9618955 -4.609539 -1.9728287 217.71001
6.5048332 -5.0293202 -1.9482257 217.71001
16.033426 -12.396511 2.8483167 217.71001
6.3453979 -4.9060497 -1.7048758 217.71001
15.050953 -11.636895 3.1256835 217.71001
6.286366 -4.8604088 -1.4971398 217.71001
6.4240108 -4.9973555 -1.33717 217.88
6.4874215 -5.0466838 -1.1551367 217.88
6.8235545 -5.3081679 -1.0109757 217.88
8.7107573 -6.7762575 -1.0296142 217.88
8.74932 -6.8062558 -0.77513391 217.88
3.5750155 -2.78107 -2.0166004 217.88
7.9222612 -6.1628718 -0.46807027 217.88
3.7959898 -2.9529698 -2.0088243 217.88
4.033484 -3.1377211 -1.9954722 217.88
4.2988811 -3.3441784 -1.9823488 217.88
4.6226773 -3.596065 -1.9789633 217.88
15.473955 -12.037473 0.91424632 217.88
4.8824739 -3.798166 -1.9302284 217.88
15.410519 -11.988125 1.3652737 217.88
5.5083246 -4.2850266 -2.0011272 217.88
15.901611 -12.370154 1.8795754 217.88
5.9481926 -4.6272078 -1.9728287 217.88
15.740273 -12.244646 2.3320737 217.88
6.4929543 -5.0509882 -1.9491479 217.88
15.068014 -11.721684 2.6829791 217.88
6.3416219 -4.9332638 -1.7077867 217.88
16.072489 -12.503083 3.3455191 217.88
6.2703657 -4.8778324 -1.4967695 217.88
14.88475 -11.57912 3.5530686 217.88
6.4699755 -5.0658188 -1.1548584 218.06
6.8334341 -5.3503971 -1.0149248 218.06
3.5633838 -2.7900348 -2.0149734 218.06
7.8855577 -6.1741819 -0.46704543 218.06
3.7896001 -2.9671562 -2.0103662 218.06
4.0236068 -3.150377 -1.9954722 218.06
4.289834 -3.3588259 -1.9830328 218.06
15.415614 -12.070016 0.45456019 218.06
4.6128488 -3.611738 -1.9796034 218.06
15.465949 -12.109427 0.91601652 218.06
4.8735242 -3.81584 -1.9314198 218.06
15.099445 -11.822464 1.3409984 218.06
5.4887805 -4.2975693 -1.9989221 218.06
5.9427667 -4.6530285 -1.9758679 218.06
15.970747 -12.504671 2.3720295 218.06
6.4801188 -5.073761 -1.9500703 218.06
15.029555 -11.767742 2.6827006 218.06
6.319931 -4.948338 -1.7061234 218.06
14.774472 -11.568019 3.0828838 218.06
6.2627482 -4.9035654 -1.4986211 218.06
14.856037 -11.631883 3.5549202 218.06
6.444912 -5.0752897 -1.15291 218.22
6.8325119 -5.3805199 -1.0170155 218.22
8.6140709 -6.7834759 -1.022926 218.22
7.5708046 -5.9619164 -0.67384756 218.22
3.5570142 -2.8011053 -2.0157869 218.22
7.8855505 -6.209775 -0.46807027 218.22
3.7812994 -2.9777272 -2.0103662 218.22
4.0191846 -3.1650586 -1.9976547 218.22
4.2789607 -3.3696294 -1.9823488 218.22
22.790018 -17.946859 0.67348439 218.22
4.6027451 -3.6246054 -1.9796034 218.22
22.865585 -18.006369 1.3572547 218.22
4.8598495 -3.8270721 -1.9302284 218.22
23.478899 -18.489346 2.0897644 218.22
5.4963937 -4.3283429 -2.0060887 218.22
5.9282298 -4.6684084 -1.9753613 218.22
16.048132 -12.637708 2.3887553 218.22
6.464396 -5.0906329 -1.9496092 218.22
6.31531 -4.9732294 -1.7086183 218.22
14.801029 -11.65563 3.0952048 218.22
6.2459421 -4.9186034 -1.4978805 218.22
14.567174 -11.471472 3.4934497 218.22
6.4124188 -5.0824203 -1.3443034 218.39999
6.4491134 -5.1115046 -1.1565285 218.39999
6.8077912 -5.3957887 -1.015854 218.39999
8.5786724 -6.7993717 -1.0212539 218.39999
7.5426559 -5.9782357 -0.67301047 218.39999
3.5524924 -2.8156707 -2.0182273 218.39999
7.8832259 -6.248168 -0.46909511 218.39999
3.7748187 -2.9918842 -2.0119078 218.39999
4.0077615 -3.1765125 -1.9969271 218.39999
4.265408 -3.3807209 -1.9809806 218.39999
15.834178 -12.550014 0.46909016 218.39999
4.5898504 -3.6378706 -1.9789633 218.39999
23.682556 -18.770563 1.4092418 218.39999
4.8537874 -3.8470645 -1.9326113 218.39999
23.633343 -18.731556 2.1087382 218.39999
5.4692087 -4.3348413 -2.0011272 218.39999
15.490613 -12.277709 1.8440907 218.39999
5.9302135 -4.7002292 -1.9809328 218.39999
15.412105 -12.215484 2.2997837 218.39999
6.4575224 -5.1181693 -1.9523758 218.39999
6.301188 -4.9942598 -1.7090341 218.39999
14.758152 -11.697167 3.0939078 218.39999
6.245862 -4.9504094 -1.5015835 218.39999
6.3695364 -5.0792761 -1.338467 218.57001
6.4416614 -5.1367908 -1.1579202 218.57001
6.7870922 -5.4122486 -1.0151571 218.57001
8.5724726 -6.8359694 -1.022926 218.57001
7.5342445 -6.0080523 -0.67384756 218.57001
3.5469794 -2.8284769 -2.0198541 218.57001
7.8755865 -6.2802491 -0.46974728 218.57001
3.7659249 -3.0030713 -2.0119078 218.57001
4.0041451 -3.1930358 -1.999837 218.57001
4.2612362 -3.3980486 -1.9837168 218.57001
15.721834 -12.537104 0.46686193 218.57001
4.5819993 -3.6538355 -1.9802437 218.57001
23.41589 -18.672594 1.3966643 218.57001
4.8468299 -3.86502 -1.9343987 218.57001
23.115936 -18.433401 2.0674424 218.57001
5.4683475 -4.3606386 -2.0055375 218.57001
15.04153 -11.994606 1.794858 218.57001
5.9162416 -4.717804 -1.9809328 218.57001
15.354049 -12.243819 2.2965317 218.57001
6.4423079 -5.1373067 -1.9523758 218.57001
15.509539 -12.367811 2.7879155 218.57001
6.3001075 -5.023911 -1.7127765 218.57001
14.66629 -11.695377 3.0819111 218.57001
6.2357564 -4.9725957 -1.5026944 218.57001
6.3768816 -5.1143298 -1.3430064 218.73
6.4195666 -5.1485634 -1.1565285 218.73
6.8029447 -5.456037 -1.0198032 218.73
7.5034299 -6.0178342 -0.67259192 218.73
3.5404923 -2.839514 -2.0206676 218.73
7.879837 -6.3197169 -0.4710516 218.73
3.757524 -3.013576 -2.0119078 218.73
3.9864929 -3.1972115 -1.9954722 218.73
4.2517304 -3.409935 -1.9837168 218.73
23.298517 -18.685669 0.69339925 218.73
4.5747342 -3.6689875 -1.9815241 218.73
23.29508 -18.682913 1.392565 218.73
4.8389964 -3.8809288 -1.9355901 218.73
15.353938 -12.314029 1.3762952 218.73
5.45015 -4.3710809 -2.0033324 218.73
16.121805 -12.929868 1.9280651 218.73
5.9136095 -4.7427802 -1.9844784 218.73
14.912241 -11.959783 2.2354364 218.73
6.4309735 -5.157712 -1.9532981 218.73
14.771955 -11.847272 2.661268 218.73
6.3028407 -5.0549483 -1.7173506 218.73
6.247911 -5.0108938 -1.5089896 218.73
15.520885 -12.447922 3.7485893 218.73
6.3586073 -5.1307492 -1.3423579 218.89999
6.4104276 -5.1725631 -1.1576419 218.89999
6.7712669 -5.4637237 -1.0174801 218.89999
7.4917521 -6.0450821 -0.67314994 218.89999
3.5292079 -2.8477118 -2.0190406 218.89999
7.8563871 -6.3393054 -0.47077212 218.89999
3.7471299 -3.0235527 -2.011137 218.89999
3.9885879 -3.2183847 -2.001292 218.89999
4.2474446 -3.4272559 -1.9864529 218.89999
23.314552 -18.812471 0.69553465 218.89999
4.5653024 -3.6837347 -1.9821644 218.89999
23.766621 -19.177246 1.4241486 218.89999
4.8378611 -3.9036617 -1.9397603 218.89999
15.941517 -12.863183 1.4323795 218.89999
5.4416456 -4.3908544 -2.004986 218.89999
15.041935 -12.137312 1.8032182 218.89999
5.9025226 -4.7627354 -1.9854914 218.89999
6.4201856 -5.1804366 -1.9546814 218.89999
6.3319664 -5.1092529 -1.7294095 218.89999
15.019522 -12.119226 3.170753 218.89999
6.2590189 -5.0503912 -1.5152848 218.89999
15.863216 -12.800002 3.8404248 218.89999
6.3809419 -5.1838017 -1.1554151 219.09
6.7777805 -5.5061889 -1.021197 219.09
7.4561796 -6.0573125 -0.67175484 219.09
3.518327 -2.8582473 -2.0182273 219.09
7.8523788 -6.37918 -0.47179696 219.09
3.7385151 -3.0371256 -2.0119078 219.09
3.9750016 -3.2292442 -1.999837 219.09
4.2287626 -3.4353969 -1.9830328 219.09
22.862513 -18.573236 0.68388283 219.09
4.5501204 -3.6964641 -1.980884 219.09
16.40099 -13.323971 0.98542583 219.09
4.8352623 -3.9281101 -1.9439306 219.09
15.257682 -12.395161 1.374621 219.09
5.4449611 -4.4234219 -2.0116014 219.09
14.953691 -12.148201 1.7974589 219.09
5.8836932 -4.7798429 -1.9844784 219.09
6.405992 -5.2041526 -1.9556036 219.09
6.3666143 -5.1721621 -1.7435474 219.09
6.2574911 -5.0835118 -1.5189878 219.09
6.3363166 -5.1769876 -1.3443034 219.25
6.3971152 -5.2266626 -1.160982 219.25
6.7608395 -5.5238376 -1.0209646 219.25
7.8600259 -6.4219103 -0.94694036 219.25
7.4546852 -6.0907335 -0.67314994 219.25
3.518821 -2.8749974 -2.023108 219.25
7.8546467 -6.4175153 -0.47300813 219.25
3.7343066 -3.0510566 -2.0142202 219.25
3.967411 -3.2415106 -2.0005646 219.25
4.2249742 -3.4519486 -1.9857689 219.25
22.782688 -18.614237 0.68304724 219.25
4.5456495 -3.7139513 -1.9834448 219.25
22.892496 -18.703955 1.37859 219.25
4.836102 -3.951261 -1.9486966 219.25
15.216828 -12.432671 1.374063 219.25
5.435565 -4.4410429 -2.0127039 219.25
14.770125 -12.067698 1.7794379 219.25
5.8763156 -4.8011513 -1.9865043 219.25
15.021523 -12.2731 2.2684231 219.25
6.3944488 -5.2244835 -1.9565259 219.25
6.3657804 -5.2010608 -1.7472899 219.25
6.2767553 -5.128324 -1.5271345 219.25
6.2971559 -5.1780663 -1.3394397 219.42999
6.4020805 -5.2643447 -1.1648788 219.42999
6.746521 -5.5475736 -1.0214292 219.42999
7.8290453 -6.4377184 -0.94563991 219.42999
7.4278088 -6.1077871 -0.67245239 219.42999
3.5097716 -2.8860378 -2.023108 219.42999
7.8406191 -6.4472356 -0.47338077 219.42999
3.7261286 -3.0639453 -2.0149913 219.42999
3.9615247 -3.2575085 -2.0027471 219.42999
4.2170119 -3.4675922 -1.9871371 219.42999
34.198887 -28.121283 1.0279597 219.42999
4.525178 -3.720993 -1.9796034 219.42999
23.554264 -19.368353 1.4220989 219.42999
4.8295636 -3.9712849 -1.9510796 219.42999
27.684769 -22.764812 2.50635 219.42999
5.4111915 -4.4495497 -2.0088451 219.42999
14.781361 -12.154513 1.785383 219.42999
5.8656864 -4.8232751 -1.9880239 219.42999
15.050404 -12.375744 2.2786443 219.42999
6.3825135 -5.2482548 -1.9579092 219.42999
14.205429 -11.680933 2.5847228 219.42999
6.4355388 -5.2918568 -1.7709918 219.42999
6.2818666 -5.165494 -1.5323187 219.42999
6.3112659 -5.2229891 -1.3459245 219.61
6.397717 -5.2945328 -1.1671057 219.61
6.7550759 -5.590271 -1.0253783 219.61
7.8057137 -6.459743 -0.94526833 219.61
7.3993616 -6.1234598 -0.6716153 219.61
3.5035026 -2.8993795 -2.024735 219.61
7.8387957 -6.4871206 -0.47449878 219.61
3.7179062 -3.0768127 -2.0157621 219.61
27.717756 -22.938272 -0.83531004 219.61
3.9426601 -3.2628112 -1.9983821 219.61
4.2046494 -3.479625 -1.9864529 219.61
22.803917 -18.871746 0.68722522 219.61
4.523684 -3.7436471 -1.9840851 219.61
23.433273 -19.39258 1.4184654 219.61
4.8258886 -3.9937413 -1.9546541 219.61
5.4105163 -4.4775591 -2.0138066 219.61
14.652589 -12.125983 1.7744217 219.61
5.8475237 -4.8392115 -1.9870108 219.61
14.982373 -12.398902 2.2742307 219.61
6.361496 -5.2645578 -1.9565259 219.61
14.174766 -11.730554 2.5858362 219.61
14.71311 -12.176069 3.1376805 219.61
6.3004332 -5.2140241 -1.5408357 219.61
6.2951393 -5.2393303 -1.3456002 219.77
6.4163971 -5.340251 -1.1732292 219.77
6.7409654 -5.6103835 -1.0256107 219.77
7.7845831 -6.4789677 -0.94489676 219.77
7.3929677 -6.1530333 -0.67259192 219.77
3.493988 -2.9079831 -2.0239215 219.77
7.8513608 -6.5345454 -0.47636211 219.77
3.7107182 -3.0883636 -2.0165329 219.77
27.624393 -22.991283 -0.83442807 219.77
3.9335332 -3.2738085 -1.9983821 219.77
27.645674 -23.008993 0 219.77
4.1978054 -3.4937575 -1.9878211 219.77
22.681971 -18.877794 0.68513626 219.77
4.5088429 -3.7526286 -1.9821644 219.77
27.635624 -23.000629 1.6767238 219.77
4.8220544 -4.013309 -1.9576328 219.77
15.66616 -13.038661 1.4252642 219.77
5.3832145 -4.4803519 -2.0082939 219.77
5.8429103 -4.8629484 -1.9900498 219.77
14.898831 -12.400028 2.2667971 219.77
6.3497615 -5.2847919 -1.9574481 219.77
6.426578 -5.3487248 -1.7772292 219.77
14.744278 -12.271396 3.1516228 219.77
6.3387218 -5.2756033 -1.5537964 219.77
6.3361397 -5.3072367 -1.3579215 219.95
6.4238811 -5.3807302 -1.1776828 219.95
6.7293983 -5.6366358 -1.0265399 219.95
7.7580838 -6.4982767 -0.94415361 219.95
7.3690124 -6.1723852 -0.67217338 219.95
3.4904377 -2.9236381 -2.0271754 219.95
7.8277302 -6.5566134 -0.47617579 219.95
3.7009976 -3.1000059 -2.0165329 219.95
32.958202 -27.606241 -0.99815702 219.95
3.9203725 -3.2837572 -1.9969271 219.95
32.945621 -27.595701 0 219.95
4.1911311 -3.5105484 -1.9898732 219.95
22.772766 -19.07478 0.68968552 219.95
4.5057468 -3.774075 -1.9860058 219.95
33.018593 -27.656824 2.0085843 219.95
4.8167405 -4.0345674 -1.9606116 219.95
32.769009 -27.447769 2.9890649 219.95
5.3838506 -4.5095868 -2.0138066 219.95
27.912004 -23.379475 3.3968723 219.95
5.8261209 -4.8800383 -1.9895434 219.95
14.800412 -12.397027 2.2577372 219.95
6.3346195 -5.3059635 -1.9579092 219.95
14.918709 -12.496114 2.7350297 219.95
6.4112425 -5.3701439 -1.777645 219.95
6.380878 -5.3447104 -1.5682383 219.95
6.3445115 -5.3463607 -1.3631094 220.12
6.4533234 -5.4380536 -1.1860331 220.12
6.7627726 -5.6988192 -1.0342058 220.12
7.7326779 -6.5161343 -0.94341052 220.12
7.3674483 -6.208364 -0.67370802 220.12
3.474762 -2.9280949 -2.023108 220.12
7.84338 -6.6094198 -0.47831863 220.12
3.6974282 -3.1157303 -2.0196164 220.12
3.9262829 -3.3085804 -2.0049295 220.12
42.177601 -35.542007 0 220.12
4.1792593 -3.5217571 -1.9891891 220.12
22.706896 -19.134533 0.68940699 220.12
4.4901824 -3.7837644 -1.9840851 220.12
32.572788 -27.448275 1.9864105 220.12
4.8105884 -4.0537624 -1.9629946 220.12
32.991035 -27.800718 3.0168281 220.12
5.3733869 -4.5280185 -2.014909 220.12
27.877537 -23.491703 3.4011452 220.12
5.8101363 -4.8960562 -1.9890369 220.12
6.3337307 -5.337276 -1.9625205 220.12
14.165203 -11.936662 2.6033721 220.12
6.3907928 -5.3853612 -1.7763975 220.12
6.3647494 -5.3957906 -1.3708911 220.28999
6.4734168 -5.4879146 -1.1927135 220.28999
6.7397733 -5.7137213 -1.0332766 220.28999
7.1042047 -6.0226727 -0.86891115 220.28999
3.4660587 -2.9383917 -2.023108 220.28999
7.8252587 -6.633954 -0.47841179 220.28999
3.6853521 -3.1243002 -2.0180745 220.28999
3.91787 -3.32142 -2.005657 220.28999
4.1673579 -3.5329266 -1.9885051 220.28999
32.825832 -27.828484 0.99913186 220.28999
4.4818268 -3.7995207 -1.9853655 220.28999
32.683216 -27.707579 1.9981495 220.28999
4.8014522 -4.070487 -1.9641861 220.28999
5.348197 -4.5339961 -2.0104988 220.28999
27.789486 -23.558861 3.398916 220.28999
5.7985353 -4.9157758 -1.9900498 220.28999
14.665977 -12.433253 2.2484453 220.28999
6.3208356 -5.358562 -1.9634427 220.28999
15.271826 -12.946868 2.8138018 220.28999
6.386724 -5.4144197 -1.7797241 220.28999
6.3790331 -5.4078999 -1.5756444 220.28999
14.476132 -12.27231 3.5756574 220.28999
6.4037223 -5.4596376 -1.3825637 220.45
6.4716306 -5.5175347 -1.1952186 220.45
6.732861 -5.740253 -1.0346705 220.45
7.0161366 -5.9817657 -0.86017931 220.45
7.2389565 -6.1717358 -0.66519773 220.45
3.4606204 -2.9504302 -2.024735 220.45
7.865994 -6.7063308 -0.48204529 220.45
3.6780174 -3.1357768 -2.0188453 220.45
3.9043264 -3.3287218 -2.0034745 220.45
4.1617665 -3.548208 -1.9905572 220.45
4.4784083 -3.8181679 -1.9885668 220.45
32.921936 -28.06834 2.0175283 220.45
4.7798967 -4.0752087 -1.9600158 220.45
5.3399038 -4.5526552 -2.0121527 220.45
27.720558 -23.633787 3.3985443 220.45
5.7833128 -4.9306941 -1.9895434 220.45
14.661432 -12.499935 2.2530913 220.45
6.3058472 -5.3761921 -1.9634427 220.45
14.240904 -12.141404 2.6300933 220.45
15.811066 -13.480082 3.4136095 220.45
6.5104785 -5.5506554 -1.6119342 220.45
6.4784307 -5.5605364 -1.4026667 220.64
6.5344529 -5.6086216 -1.2102493 220.64
6.7575021 -5.8000684 -1.0414071 220.64
6.9811511 -5.9920292 -0.85832149 220.64
7.2245059 -6.2009048 -0.66575581 220.64
3.4480445 -2.9595098 -2.023108 220.64
7.8679676 -6.7531977 -0.48353598 220.64
3.6647978 -3.1455524 -2.0173037 220.64
3.8975077 -3.3452909 -2.005657 220.64
4.1542559 -3.5656617 -1.9926094 220.64
4.4642844 -3.8317637 -1.9879265 220.64
4.7707028 -4.0947676 -1.9618031 220.64
5.3276949 -4.5728426 -2.0132554 220.64
15.866252 -13.618248 1.9507307 220.64
5.7698669 -4.9523654 -1.9905564 220.64
14.603319 -12.534254 2.250536 220.64
6.2968445 -5.4046788 -1.9662094 220.64
6.9087219 -5.929862 -1.9352421 220.64
14.487364 -12.434728 3.1367078 220.64
14.453094 -12.405313 3.5886178 220.64
6.7417097 -5.8233957 -1.463624 220.82001
6.5542707 -5.6614885 -1.2172079 220.82001
6.7723198 -5.8498363 -1.0465178 220.82001
6.9622922 -6.0139318 -0.85832149 220.82001
7.2502851 -6.2626958 -0.66994119 220.82001
3.4497914 -2.9798822 -2.0296159 220.82001
7.8935819 -6.8183665 -0.48642415 220.82001
3.6604841 -3.1618755 -2.0203872 220.82001
3.8827493 -3.3538651 -2.0034745 220.82001
4.1473002 -3.5823805 -1.9946615 220.82001
4.4507904 -3.8445313 -1.9872862 220.82001
4.7693739 -4.119719 -1.9665691 220.82001
32.602127 -28.161264 3.0125031 220.82001
5.3103929 -4.5870438 -2.0121527 220.82001
5.7513518 -4.9679379 -1.9895434 220.82001
6.2857256 -5.4295225 -1.9680538 220.82001
14.35105 -12.396239 2.6651649 220.82001
6.8959804 -5.9566526 -1.9369053 220.82001
14.425825 -12.460829 3.131844 220.82001
6.7764335 -5.8533893 -1.6871059 220.82001
14.418513 -12.454513 3.5897288 220.82001
6.720952 -5.8383164 -1.4626513 220.98
6.5967479 -5.7304239 -1.2280635 220.98
6.7979479 -5.9052014 -1.0530223 220.98
3.4400773 -2.988306 -2.0288024 220.98
7.9227738 -6.8823085 -0.48940548 220.98
3.6432807 -3.1648235 -2.0157621 220.98
40.888531 -35.518806 -1.257468 220.98
3.8789942 -3.3695817 -2.0063844 220.98
32.918339 -28.595308 0 220.98
4.1344423 -3.5914831 -1.9932934 220.98
32.435497 -28.175877 0.9975071 220.98
4.4414678 -3.8581879 -1.9879265 220.98
4.7578506 -4.1330214 -1.9665691 220.98
32.554989 -28.279675 3.0154328 220.98
5.3033681 -4.6068983 -2.0143578 220.98
5.7316136 -4.9789042 -1.9875174 220.98
6.2749462 -5.4508834 -1.9694372 220.98
14.241619 -12.371325 2.6512475 220.98
6.8822732 -5.9784522 -1.937737 220.98
13.958899 -12.125734 3.0378141 220.98
6.8179283 -5.9225578 -1.7015477 220.98
14.49496 -12.591396 3.6175017 220.98
6.6719236 -5.8284974 -1.455518 221.14
6.8367839 -5.972517 -1.0616174 221.14
8.2633247 -7.2187228 -1.0236691 221.14
7.4871545 -6.5406713 -0.69519299 221.14
3.4317191 -2.997901 -2.0288024 221.14
7.9787526 -6.9701247 -0.49406382 221.14
3.6427677 -3.1822701 -2.0203872 221.14
40.688297 -35.544716 -1.2543577 221.14
3.8709726 -3.3816264 -2.0071118 221.14
32.894089 -28.735807 0 221.14
4.128643 -3.606724 -1.9953455 221.14
4.434957 -3.8743153 -1.9898472 221.14
4.7391014 -4.1400113 -1.9635903 221.14
31.877878 -27.848061 2.9599066 221.14
5.2991695 -4.6292791 -2.0176654 221.14
15.527852 -13.564911 1.9236062 221.14
5.7191443 -4.9961634 -1.9880239 221.14
16.032782 -14.006009 2.489574 221.14
6.2626314 -5.4709458 -1.9703594 221.14
6.8729177 -6.0040832 -1.9398161 221.14
6.7399955 -5.9274859 -1.4746482 221.33
6.9094243 -6.0764904 -1.0760201 221.33
3.4245028 -3.0116775 -2.0304294 221.33
7.9540949 -6.9952259 -0.49397066 221.33
3.6308091 -3.1931138 -2.0196164 221.33
40.448586 -35.572495 -1.2505976 221.33
3.8625352 -3.3969052 -2.0085669 221.33
4.1166601 -3.6203952 -1.9953455 221.33
32.127647 -28.254648 0.99332917 221.33
4.4220848 -3.8890009 -1.9898472 221.33
4.7382493 -4.1670518 -1.9689521 221.33
5.2780147 -4.641748 -2.0154603 221.33
15.496243 -13.628164 1.9252782 221.33
5.7069039 -5.0189342 -1.9895434 221.33
6.2429934 -5.4903979 -1.9698983 221.33
6.861784 -6.0345931 -1.942311 221.33
14.710025 -12.936726 3.2184165 221.33
6.8406262 -6.0520749 -1.5005875 221.5
6.7358193 -5.9593492 -1.2639701 221.5
6.9560518 -6.1541948 -0.86649597 221.5
3.4169202 -3.0230358 -2.0312428 221.5
40.197704 -35.563927 -2.5029275 221.5
3.6213191 -3.2038724 -2.0196164 221.5
40.193111 -35.55986 -1.2459555 221.5
3.8552301 -3.4108195 -2.0100217 221.5
32.684429 -28.916739 0 221.5
4.1087155 -3.6350842 -1.9967136 221.5
32.079613 -28.381645 0.9944433 221.5
4.4119458 -3.9033599 -1.9904875 221.5
4.7244349 -4.1798267 -1.9683564 221.5
5.2728586 -4.665031 -2.0187681 221.5
15.46767 -13.684638 1.9267645 221.5
5.6977835 -5.0409732 -1.9915694 221.5
6.2266755 -5.5088973 -1.9698983 221.5
14.377955 -12.72054 2.6980097 221.5
6.8467789 -6.0575185 -1.9431427 221.5
13.920704 -12.315998 3.0537021 221.5
7.5999999 -6.7239118 -1.9118805 221.5
14.580282 -12.899545 3.6678629 221.5
6.9803796 -6.212738 -1.5352813 221.67
6.9978886 -6.2283216 -1.0955334 221.67
6.9139609 -6.1536236 -0.86352342 221.67
7.5485396 -6.7184167 -0.70663309 221.67
3.4079356 -3.0331604 -2.0312428 221.67
39.944263 -35.55154 -2.4937041 221.67
3.6173112 -3.2195108 -2.0226996 221.67
39.978397 -35.581921 -1.2425667 221.67
3.8464847 -3.4234817 -2.0107493 221.67
4.0993156 -3.6485085 -1.9973977 221.67
4.4017601 -3.9176929 -1.9911276 221.67
4.7205691 -4.2014422 -1.9719309 221.67
5.2633023 -4.6844897 -2.0204217 221.67
15.443361 -13.745035 1.9288081 221.67
5.684247 -5.0591431 -1.9920759 221.67
6.2175717 -5.5338173 -1.972204 221.67
14.332752 -12.75656 2.6966181 221.67
6.8360825 -6.0843096 -1.9452218 221.67
13.701298 -12.194549 3.0134962 221.67
7.5844207 -6.7503519 -1.9129914 221.67
14.60067 -12.995015 3.6826751 221.67
7.1210656 -6.3781586 -1.5706235 221.85001
7.0330362 -6.2993126 -1.1041285 221.85001
6.8931117 -6.1739855 -0.86333764 221.85001
3.402473 -3.047509 -2.0336833 221.85001
39.713326 -35.570221 -2.4862506 221.85001
3.6085536 -3.2320902 -2.0234704 221.85001
39.756199 -35.608624 -1.2391315 221.85001
3.8357105 -3.4355488 -2.0107493 221.85001
4.0906329 -3.6638765 -1.9987657 221.85001
4.3894305 -3.9315021 -1.9911276 221.85001
4.7045026 -4.2137036 -1.9707394 221.85001
5.2456951 -4.6984367 -2.0193193 221.85001
15.409004 -13.801455 1.9299228 221.85001
5.6755314 -5.0834298 -1.9946084 221.85001
6.2117529 -5.5637102 -1.9758929 221.85001
16.008368 -14.33829 3.0203347 221.85001
6.8227634 -6.1109767 -1.9468851 221.85001
13.654099 -12.229631 3.0115507 221.85001
7.5631762 -6.7741456 -1.9129914 221.85001
7.2589898 -6.5406137 -1.6053174 222.02
9.5785694 -8.6306391 -1.8120338 222.02
7.1117153 -6.4079137 -1.1194605 222.02
6.917665 -6.2330675 -0.86872536 222.02
3.3920584 -3.0563679 -2.0328698 222.02
39.493328 -35.584923 -2.4790769 222.02
3.6003191 -3.2440181 -2.0242414 222.02
39.521141 -35.609982 -1.2350928 222.02
3.821348 -3.4431734 -2.0085669 222.02
4.0783482 -3.6747396 -1.9980817 222.02
4.3791542 -3.9457767 -1.9917679 222.02
4.6848874 -4.2212539 -1.9677606 222.02
5.23316 -4.7152672 -2.0198705 222.02
15.388699 -13.865776 1.9325238 222.02
5.666173 -5.1054277 -1.9966345 222.02
6.2024469 -5.5886297 -1.9781984 222.02
6.8162284 -6.1416693 -1.9502116 222.02
13.733581 -12.374455 3.0371656 222.02
7.5591054 -6.8110285 -1.9170648 222.02
7.4325676 -6.7370772 -1.6481172 222.19
7.169826 -6.4989214 -1.3599995 222.19
3.3748527 -3.0590565 -2.0279889 222.19
39.279514 -35.604 -2.4722757 222.19
3.590678 -3.2546861 -2.0242414 222.19
39.304203 -35.626377 -1.2316111 222.19
3.8207774 -3.4632545 -2.0136592 222.19
4.0688195 -3.6880863 -1.9987657 222.19
4.3744469 -3.9651151 -1.9949691 222.19
4.6822443 -4.2441111 -1.9719309 222.19
5.2177219 -4.7294822 -2.0193193 222.19
15.346014 -13.910036 1.932338 222.19
5.6495667 -5.1209173 -1.996128 222.19
6.1843958 -5.6057014 -1.9777373 222.19
6.805223 -6.1684356 -1.9522908 222.19
7.543232 -6.8373866 -1.9181757 222.19
7.8225412 -7.1354542 -1.7395531 222.37
7.3059402 -6.6642284 -1.3897825 222.37
7.3043222 -6.6627526 -1.1561641 222.37
8.0127573 -7.3089633 -0.75839239 222.37
3.3733249 -3.0770316 -2.0328698 222.37
3.5777085 -3.2634633 -2.0226996 222.37
39.017773 -35.590675 -1.2261335 222.37
3.8098786 -3.4752407 -2.0136592 222.37
4.0586014 -3.7021172 -1.9994497 222.37
4.3633685 -3.9801152 -1.9956093 222.37
4.67453 -4.2639461 -1.9743139 222.37
5.1971569 -4.7406683 -2.0171142 222.37
5.6363096 -5.1412487 -1.9971409 222.37
6.1768193 -5.6342831 -1.9809651 222.37
6.7901468 -6.1937394 -1.9535383 222.37
7.5260706 -6.8650241 -1.9192866 222.37
7.9380221 -7.284059 -1.7700318 222.53999
7.4364395 -6.8237982 -1.4184523 222.53999
8.1556787 -7.4837837 -0.77401781 222.53999
3.3668728 -3.0894976 -2.0344968 222.53999
3.5748086 -3.2803028 -2.0265539 222.53999
38.842762 -35.64275 -1.2239516 222.53999
3.8022959 -3.4890487 -2.0151141 222.53999
38.975536 -35.764591 0 222.53999
4.0531383 -3.7192256 -2.0021858 222.53999
28.885307 -26.505629 0.91018808 222.53999
4.3501439 -3.9917629 -1.9949691 222.53999
4.6520109 -4.2687612 -1.9701436 222.53999
5.1788182 -4.7521682 -2.0154603 222.53999
5.6295838 -5.1657982 -2.00018 222.53999
6.1586409 -5.6512694 -1.980504 222.53999
6.7702985 -6.2125363 -1.9531224 222.53999
7.5071168 -6.8886528 -1.9196569 222.53999
7.9223495 -7.3156552 -1.7716529 222.72
9.3734703 -8.6556501 -1.7931062 222.72
22.679958 -20.943125 -2.1586838 222.72
3.3544657 -3.0975804 -2.0328698 222.72
3.5644858 -3.2915173 -2.0265539 222.72
38.599857 -35.643879 -1.2198201 222.72
3.791316 -3.5009768 -2.0151141 222.72
4.0400529 -3.7306657 -2.0015018 222.72
28.797487 -26.592175 0.91004884 222.72
4.338974 -4.0066953 -1.9956093 222.72
4.6526041 -4.2963076 -1.976101 222.72
5.1483269 -4.7540674 -2.0093963 222.72
5.6161704 -5.1860838 -2.001193 222.72
6.1437159 -5.6732302 -1.9814262 222.72
6.7478733 -6.2311206 -1.9522908 222.72
7.4897704 -6.9162035 -1.9207678 222.72
8.0300331 -7.4567451 -1.5400895 222.88
22.505888 -20.899126 -2.1476624 222.88
3.3484802 -3.1094224 -2.0344968 222.88
38.377972 -35.638054 -2.442369 222.88
3.5552802 -3.3014584 -2.0265539 222.88
38.393211 -35.65221 -1.2164313 222.88
3.7828898 -3.5128181 -2.0158417 222.88
4.0254879 -3.7380965 -1.9994497 222.88
4.3305449 -4.0213747 -1.9968898 222.88
4.630795 -4.300189 -1.9719309 222.88
5.0998111 -4.7357206 -1.9956144 222.88
5.6059194 -5.2056966 -2.0027125 222.88
6.1321278 -5.6943374 -1.9828097 222.88
6.729013 -6.2486091 -1.951875 222.88
7.4747481 -6.9411039 -1.9218787 222.88
8.0950899 -7.5646577 -1.8202891 223.06
8.0514259 -7.5238552 -1.5487182 223.06
7.9615407 -7.4398594 -1.0166093 223.06
22.431374 -20.961554 -2.1468253 223.06
3.338695 -3.1199267 -2.0344968 223.06
38.140289 -35.64114 -2.4343567 223.06
3.5448909 -3.3126111 -2.0265539 223.06
38.171452 -35.670261 -1.2129498 223.06
3.7731965 -3.5259571 -2.0165691 223.06
4.0205903 -3.7571402 -2.0028698 223.06
4.3206592 -4.0375471 -1.9981703 223.06
4.6284223 -4.3251443 -1.9766968 223.06
5.0301261 -4.7005262 -1.9741148 223.06
5.5966058 -5.229887 -2.005245 223.06
6.1113644 -5.710916 -1.9818875 223.06
6.7193546 -6.2790675 -1.9547857 223.06
7.4629574 -6.9739456 -1.9244709 223.06
9.7159796 -9.1334896 -1.874105 223.23
8.0907269 -7.6056738 -1.2985648 223.23
22.408331 -21.064913 -2.1505921 223.23
3.3280923 -3.1285675 -2.0336833 223.23
37.933933 -35.659729 -2.4279282 223.23
3.5377357 -3.3256426 -2.0280955 223.23
37.96347 -35.687496 -1.2097002 223.23
3.7627182 -3.5371368 -2.0165691 223.23
4.0149021 -3.7742021 -2.0056062 223.23
4.3086605 -4.0503488 -1.9981703 223.23
4.6141782 -4.3375502 -1.976101 223.23
4.9699316 -4.6719761 -1.9559227 223.23
5.5782442 -5.2438192 -2.0042319 223.23
6.097229 -5.7316899 -1.9828097 223.23
6.7106724 -6.3083563 -1.9576964 223.23
7.4422321 -6.996058 -1.9244709 223.23
8.3985491 -7.9448905 -1.8994039 223.41
12.277687 -11.614491 -1.9764203 223.41
16.122662 -15.251775 -2.0705612 223.41
22.3232 -21.117384 -2.1487784 223.41
3.3195744 -3.1402631 -2.0344968 223.41
37.720123 -35.682621 -2.4214065 223.41
3.5286112 -3.3380084 -2.0288663 223.41
37.737873 -35.699409 -1.2060792 223.41
3.7570009 -3.5540614 -2.019479 223.41
4.0071211 -3.7906711 -2.0076582 223.41
28.688684 -27.139027 0.9168728 223.41
4.2959146 -4.0638647 -1.9981703 223.41
4.6046891 -4.3559608 -1.9778883 223.41
4.9384704 -4.6717124 -1.9493073 223.41
5.5659595 -5.2653069 -2.0057514 223.41
6.0820198 -5.7534914 -1.9837319 223.41
6.6979265 -6.3361292 -1.9597756 223.41
7.4187889 -7.0180531 -1.9241005 223.41
8.3834801 -7.9751139 -1.9010252 223.57001
9.6946135 -9.2223806 -1.880507 223.57001
16.082893 -15.299483 -2.0709329 223.57001
22.278599 -21.19339 -2.1501737 223.57001
3.3121161 -3.1507802 -2.0353103 223.57001
37.485714 -35.659756 -2.4127419 223.57001
3.520613 -3.3491211 -2.0296373 223.57001
37.535175 -35.70681 -1.2027833 223.57001
3.7457116 -3.5632551 -2.0187516 223.57001
3.9937966 -3.7992556 -2.0062902 223.57001
29.573257 -28.132721 0.94765031 223.57001
4.2900405 -4.0810695 -2.0007312 223.57001
28.799313 -27.396475 1.8536477 223.57001
4.5938907 -4.3701186 -1.978484 223.57001
28.818203 -27.414444 2.7813301 223.57001
4.925405 -4.6854849 -1.9493073 223.57001
5.547029 -5.2768288 -2.0042319 223.57001
6.0673394 -5.7717943 -1.984193 223.57001
6.6844592 -6.3588538 -1.9610231 223.57001
7.3948898 -7.0346789 -1.9229896 223.57001
8.3697891 -8.0123301 -1.9036191 223.75
9.6727457 -9.2596397 -1.8818986 223.75
12.280297 -11.755827 -1.9880353 223.75
16.036188 -15.351311 -2.0711186 223.75
22.196054 -21.2481 -2.148639 223.75
3.3022013 -3.16117 -2.0353103 223.75
37.278255 -35.686165 -2.4065931 223.75
3.5074079 -3.3576126 -2.0280955 223.75
37.305824 -35.712559 -1.1990232 223.75
3.7371905 -3.5775816 -2.0202065 223.75
37.461796 -35.861866 0 223.75
3.9818413 -3.8117838 -2.0062902 223.75
28.275818 -27.068209 0.90879542 223.75
4.2785673 -4.0958371 -2.0013714 223.75
4.5760012 -4.380568 -1.9766968 223.75
27.893152 -26.701883 2.7001336 223.75
4.9106612 -4.7009354 -1.9493073 223.75
5.5332193 -5.296905 -2.005245 223.75
6.0435534 -5.7854438 -1.9823486 223.75
6.6729279 -6.387939 -1.963518 223.75
7.3727536 -7.0578761 -1.9229896 223.75
8.3502436 -8.041235 -1.9045918 223.92
9.6380968 -9.2814293 -1.880507 223.92
12.258241 -11.804613 -1.990126 223.92
15.996307 -15.404348 -2.0718617 223.92
22.194708 -21.373371 -2.1546381 223.92
3.2954395 -3.1734886 -2.036937 223.92
23.305481 -22.443041 -1.5088372 223.92
3.5027475 -3.3731251 -2.031179 223.92
37.091682 -35.71907 -1.1955416 223.92
3.7238753 -3.5860696 -2.0187516 223.92
3.9732215 -3.8261886 -2.0076582 223.92
28.901094 -27.831581 0.93154204 223.92
4.2650309 -4.1071992 -2.0007312 223.92
4.5643592 -4.3954506 -1.9772925 223.92
27.747696 -26.720867 2.693716 223.92
4.8994613 -4.718152 -1.9504099 223.92
5.5202661 -5.3159833 -2.006258 223.92
6.0249591 -5.802 -1.9818875 223.92
6.6595817 -6.4131379 -1.9651814 223.92
7.3531957 -7.0810838 -1.92336 223.92
8.333436 -8.0728416 -1.906213 224.09
9.6233177 -9.3223877 -1.8830121 224.09
12.253124 -11.869957 -1.9950044 224.09
15.947671 -15.448972 -2.07149 224.09
22.168451 -21.475224 -2.1582654 224.09
3.2873213 -3.1845236 -2.0377505 224.09
36.859203 -35.706581 -2.393177 224.09
3.4940493 -3.3847871 -2.0319498 224.09
36.893627 -35.739929 -1.1925706 224.09
3.7158949 -3.5996954 -2.0202065 224.09
27.889561 -27.017427 0 224.09
3.9645512 -3.8405759 -2.0090263 224.09
27.389462 -26.532967 0.88535255 224.09
4.2541866 -4.1211543 -2.0013714 224.09
28.345726 -27.459328 1.840418 224.09
4.5554113 -4.4129591 -1.9790798 224.09
27.792963 -26.923849 2.7058537 224.09
4.8868213 -4.7340059 -1.9509612 224.09
5.5086379 -5.3363771 -2.0077775 224.09
6.013309 -5.8252673 -1.9837319 224.09
6.6475501 -6.4396749 -1.9672604 224.09
7.3448582 -7.1151776 -1.9266927 224.09
8.3052063 -8.0962267 -1.9055645 224.27
9.5968199 -9.3553391 -1.8835688 224.27
12.249911 -11.941672 -2.0005796 224.27
15.88765 -15.487876 -2.070004 224.27
22.063732 -21.508553 -2.1546381 224.27
3.278609 -3.1961107 -2.038564 224.27
36.638123 -35.716213 -2.3860962 224.27
3.4860413 -3.3983235 -2.0334914 224.27
36.690968 -35.767727 -1.189646 224.27
3.70857 -3.6152527 -2.0223889 224.27
36.812557 -35.886261 0 224.27
3.9565034 -3.8569477 -2.0110784 224.27
27.32172 -26.634235 0.88586318 224.27
4.2452888 -4.1384668 -2.0032921 224.27
28.226418 -27.516169 1.8382752 224.27
4.5415249 -4.4272485 -1.9790798 224.27
27.905392 -27.20322 2.7251065 224.27
4.8719249 -4.7493348 -1.9509612 224.27
16.446613 -16.032774 2.1428311 224.27
5.4973874 -5.3590593 -2.0098035 224.27
5.9991593 -5.8482051 -1.9851153 224.27
6.6356912 -6.4687204 -1.9697554 224.27
7.3337278 -7.1491923 -1.9296552 224.27
8.2656488 -8.1056328 -1.9019979 224.44
9.5803328 -9.394866 -1.8857955 224.44
12.228609 -11.991874 -2.0029027 224.44
15.837361 -15.530765 -2.0694466 224.44
21.992695 -21.566936 -2.1539404 224.44
3.267807 -3.2045453 -2.0377505 224.44
28.253059 -27.706106 -1.8453559 224.44
3.4719901 -3.4047756 -2.031179 224.44
28.23189 -27.685345 -0.91803336 224.44
3.7018173 -3.6301537 -2.0245714 224.44
28.222361 -27.676003 0 224.44
3.9450421 -3.8686697 -2.0110784 224.44
