# .PCD v0.7 - Point Cloud Data file format
VERSION 0.7
FIELDS x y z intensity
SIZE 4 4 4 4
TYPE F F F F
COUNT 1 1 1 1
WIDTH 1157
HEIGHT 1
VIEWPOINT 0 0 0 1 0 0 0
POINTS 1157
DATA ascii
-14.716912 -23.634512 -1.9469032 301.91
-2.4859064 -3.9922223 -2.0938802 301.91
-15.794971 -25.365812 -1.3934966 301.91
-2.6474957 -4.2517257 -2.0920758 301.91
-26.431717 -42.447815 -1.1609576 301.91
-2.836102 -4.554616 -2.0951366 301.91
-3.0448251 -4.8898134 -2.0965834 301.91
-3.290067 -5.283658 -2.1031687 301.91
-3.5513136 -5.7032046 -2.0964425 301.91
-3.8819602 -6.2342038 -2.1058693 301.91
-4.2534494 -6.8307948 -2.1065454 301.91
-4.7247777 -7.5877204 -2.1179173 301.91
-5.2572184 -8.4427891 -2.1140461 301.91
-5.9435143 -9.5449419 -2.1185102 301.91
-6.9137926 -11.03436 -2.1393423 302.07001
-8.1549683 -13.015266 -2.1585748 302.07001
-9.9987688 -15.957959 -2.2022173 302.07001
-11.96673 -19.09881 -2.1027019 302.07001
-14.7426 -23.529078 -1.9416016 302.07001
-2.497045 -3.9852648 -2.0938802 302.07001
-2.6524994 -4.2333689 -2.0866799 302.07001
-2.8497989 -4.5482574 -2.0958643 302.07001
-3.0594661 -4.8828845 -2.0972676 302.07001
-3.3068209 -5.2776608 -2.104449 302.07001
-3.5672259 -5.6932654 -2.0964425 302.07001
-3.9003749 -6.2249684 -2.1064208 302.07001
-4.2704535 -6.8156114 -2.1055326 302.07001
-4.7469811 -7.5761456 -2.1183784 302.07001
-5.2807741 -8.4280758 -2.1140461 302.07001
-5.9722328 -9.5316381 -2.1192508 302.07001
-6.9442115 -11.005909 -2.1380453 302.25
-8.192646 -12.984557 -2.1577396 302.25
-10.026593 -15.891188 -2.1973388 302.25
-12.014982 -19.042595 -2.1006582 302.25
-14.811123 -23.474209 -1.9409041 302.25
-2.5085778 -3.9758551 -2.0930667 302.25
-2.6707096 -4.2328186 -2.090534 302.25
-26.388664 -41.823502 -1.1481452 302.25
-2.8610911 -4.534555 -2.0936818 302.25
-3.0737882 -4.8716593 -2.0965834 302.25
-3.3203516 -5.2624388 -2.1025283 302.25
-3.5820379 -5.6771865 -2.0946553 302.25
-3.9168341 -6.2078066 -2.1047668 302.25
-4.2877145 -6.7956161 -2.1035066 302.25
-4.7676435 -7.5562577 -2.1169951 302.25
-5.3103576 -8.4164076 -2.1152935 302.25
-6.0021482 -9.5128288 -2.1192508 302.25
-6.9736619 -10.980259 -2.1370726 302.42001
-8.2321968 -12.961864 -2.1580181 302.42001
-10.060919 -15.841247 -2.1945512 302.42001
-12.052214 -18.976604 -2.0973141 302.42001
-14.878568 -23.426792 -1.9406251 302.42001
-2.5174248 -3.9637678 -2.0906262 302.42001
-15.901238 -25.03702 -1.3831551 302.42001
-2.681278 -4.2217603 -2.0889924 302.42001
-2.873534 -4.5244737 -2.0929544 302.42001
-3.0852063 -4.8577585 -2.0945313 302.42001
-3.3349352 -5.2509646 -2.1018882 302.42001
-3.5998902 -5.6681452 -2.0952508 302.42001
-3.9269903 -6.1831746 -2.1003566 302.42001
-4.313045 -6.7910309 -2.106039 302.42001
-4.7900424 -7.5420785 -2.1169951 302.42001
-5.3342571 -8.398963 -2.1148777 302.42001
-6.0261316 -9.4883423 -2.1177697 302.42001
-7.0079083 -10.953748 -2.1364241 302.60999
-8.2719326 -12.929489 -2.1571832 302.60999
-10.099478 -15.786043 -2.1915314 302.60999
-12.093612 -18.902985 -2.0935984 302.60999
-14.972301 -23.402533 -1.9427178 302.60999
-2.5325246 -3.9584758 -2.0922532 302.60999
-15.96049 -24.947128 -1.3811054 302.60999
-2.6962578 -4.2143998 -2.0897632 302.60999
-2.8885219 -4.5149198 -2.0929544 302.60999
-3.1033239 -4.850667 -2.0958993 302.60999
-3.3523297 -5.2398767 -2.1018882 302.60999
-3.6176379 -5.6545682 -2.0946553 302.60999
-3.9433284 -6.1636405 -2.0981514 302.60999
-4.333456 -6.7734313 -2.105026 302.60999
-4.8129287 -7.5228739 -2.1160729 302.60999
-5.3599715 -8.3779316 -2.1140461 302.60999
-6.0586224 -9.4699621 -2.11814 302.60999
-7.040606 -10.937454 -2.1370726 302.76999
-8.3047905 -12.901343 -2.156348 302.76999
-10.129544 -15.736064 -2.1885114 302.76999
-12.133418 -18.849047 -2.0913689 302.76999
-14.982519 -23.275074 -1.9356027 302.76999
-2.5415909 -3.9483159 -2.0906262 302.76999
-16.069021 -24.962936 -1.3844595 302.76999
-2.7060182 -4.2037506 -2.0882215 302.76999
-2.899102 -4.5037026 -2.0914993 302.76999
-3.1168575 -4.8419819 -2.0958993 302.76999
-3.3669491 -5.230495 -2.1018882 302.76999
-3.6385813 -5.6524706 -2.0976338 302.76999
-3.9636471 -6.1574545 -2.0998054 302.76999
-4.3513064 -6.7596765 -2.1045196 302.76999
-4.8349714 -7.5110412 -2.116534 302.76999
-5.382287 -8.3612862 -2.1136303 302.76999
-6.0839801 -9.4513531 -2.1177697 302.76999
-8.3528214 -12.886823 -2.1582963 302.95001
-10.162724 -15.67916 -2.1850269 302.95001
-12.176327 -18.78577 -2.0885823 302.95001
-15.019755 -23.172642 -1.9309987 302.95001
-2.554976 -3.9418447 -2.0914397 302.95001
-16.75914 -25.856184 -1.4369124 302.95001
-2.7192113 -4.1952286 -2.0882215 302.95001
-2.9132364 -4.4945726 -2.0914993 302.95001
-3.1320536 -4.8321662 -2.0958993 302.95001
-3.382334 -5.2183013 -2.101248 302.95001
-3.6532056 -5.6362052 -2.0958467 302.95001
-3.9808803 -6.1417451 -2.0987029 302.95001
-4.371469 -6.7443495 -2.104013 302.95001
-4.8574858 -7.4941812 -2.1160729 302.95001
-5.4127846 -8.3509026 -2.1152935 302.95001
-6.1179185 -9.4387903 -2.1192508 302.95001
-7.1021514 -10.890523 -2.1360998 303.10999
-8.3844481 -12.856812 -2.1571832 303.10999
-10.201043 -15.6424 -2.1838653 303.10999
-12.220037 -18.73835 -2.087096 303.10999
-15.143258 -23.220852 -1.9385324 303.10999
-2.5649757 -3.9331641 -2.0906262 303.10999
-17.412947 -26.70122 -1.4865704 303.10999
-2.729908 -4.1860733 -2.0874507 303.10999
-2.9278116 -4.4895411 -2.0929544 303.10999
-3.1455352 -4.823401 -2.0958993 303.10999
-3.395858 -5.2072487 -2.1006076 303.10999
-3.6678877 -5.6243825 -2.0952508 303.10999
-3.9969656 -6.1289945 -2.0981514 303.10999
-4.3923993 -6.7353573 -2.105026 303.10999
-4.8741422 -7.4740672 -2.1142285 303.10999
-5.4339461 -8.3324776 -2.1144619 303.10999
-6.1410317 -9.4167309 -2.11814 303.10999
-7.1374135 -10.869807 -2.1364241 303.29001
-8.4269714 -12.833718 -2.1577396 303.29001
-10.238141 -15.59201 -2.1813102 303.29001
-12.266822 -18.681557 -2.0850525 303.29001
-15.23475 -23.201513 -1.9409041 303.29001
-2.580328 -3.9296684 -2.0930667 303.29001
-17.435339 -26.552864 -1.4813529 303.29001
-2.7410195 -4.1743908 -2.0859089 303.29001
-2.9398563 -4.4772062 -2.0914993 303.29001
-3.1524205 -4.8009272 -2.0904272 303.29001
-3.4122002 -5.1965547 -2.1006076 303.29001
-3.6855392 -5.6128316 -2.0952508 303.29001
-4.018311 -6.1196213 -2.0992541 303.29001
-4.4039798 -6.7069693 -2.1004674 303.29001
-4.9040074 -7.4684782 -2.1169951 303.29001
-5.462244 -8.3186359 -2.1152935 303.29001
-6.1716638 -9.3990345 -2.1185102 303.29001
-7.1747918 -10.852269 -2.1373968 303.47
-8.4628792 -12.800572 -2.1566265 303.47
-10.27831 -15.546512 -2.1794517 303.47
-12.316666 -18.629639 -2.0835662 303.47
-14.844333 -22.452873 -1.8821691 303.47
-2.5866148 -3.9123981 -2.088186 303.47
-2.7571735 -4.1703777 -2.0882215 303.47
-2.9549348 -4.4695024 -2.0922267 303.47
-3.1643779 -4.7862968 -2.0883751 303.47
-3.4295537 -5.1873899 -2.101248 303.47
-3.7042072 -5.602818 -2.0958467 303.47
-4.0364561 -6.1053634 -2.0987029 303.47
-4.4292965 -6.6995564 -2.1024935 303.47
-4.9199333 -7.4416714 -2.1137674 303.47
-5.4883509 -8.3014345 -2.1152935 303.47
-6.2000771 -9.3779593 -2.11814 303.47
-7.194139 -10.815759 -2.1341546 303.63
-8.4974947 -12.775241 -2.156348 303.63
-10.312882 -15.504518 -2.1775932 303.63
-12.344378 -18.558693 -2.0794787 303.63
-15.28487 -22.979465 -1.9298826 303.63
-2.6046135 -3.9158087 -2.0938802 303.63
-2.7708528 -4.1657352 -2.0897632 303.63
-2.9663727 -4.459682 -2.0914993 303.63
-3.1870992 -4.7915249 -2.0945313 303.63
-3.4419277 -5.1746373 -2.0999675 303.63
-3.7166665 -5.5876832 -2.0940595 303.63
-4.0513606 -6.0908661 -2.0976002 303.63
-4.4490595 -6.6887722 -2.1029999 303.63
-4.9396172 -7.4262829 -2.1133063 303.63
-5.5115113 -8.2860756 -2.1152935 303.63
-6.2251525 -9.3589725 -2.1177697 303.63
-7.2291803 -10.794744 -2.1344788 303.81
-8.5430975 -12.75671 -2.1577396 303.81
-10.356013 -15.463789 -2.1764319 303.81
-12.387108 -18.496656 -2.0768778 303.81
-2.6097858 -3.89698 -2.088186 303.81
-17.661152 -26.371954 -1.4801418 303.81
-2.7798185 -4.150876 -2.0866799 303.81
-2.9814053 -4.451889 -2.0922267 303.81
-3.1948161 -4.7705579 -2.0897431 303.81
-3.4592216 -5.1653728 -2.1006076 303.81
-3.7405765 -5.5854974 -2.0976338 303.81
-4.0704756 -6.0781083 -2.0976002 303.81
-4.4678979 -6.6715469 -2.1019871 303.81
-4.9661717 -7.4155788 -2.1146896 303.81
-5.5396929 -8.2719707 -2.1161251 303.81
-6.2534304 -9.3377371 -2.1173995 303.81
-7.2600741 -10.771611 -2.1341546 303.98001
-8.5764828 -12.724737 -2.1566265 303.98001
-10.384086 -15.406638 -2.1727149 303.98001
-12.430804 -18.44331 -2.0750201 303.98001
-15.362513 -22.79302 -1.9220699 303.98001
-2.6223581 -3.8907347 -2.0889995 303.98001
-17.713638 -26.281334 -1.477999 303.98001
-2.7931538 -4.1441402 -2.0874507 303.98001
-2.9925187 -4.4399333 -2.0907719 303.98001
-3.2079062 -4.7594995 -2.0890591 303.98001
-3.4734733 -5.1535153 -2.0999675 303.98001
-3.7507303 -5.5648751 -2.0940595 303.98001
-4.1003113 -6.0835409 -2.1036644 303.98001
-4.4876733 -6.6582613 -2.1019871 303.98001
-4.9870648 -7.3991976 -2.1142285 303.98001
-5.5631185 -8.2538757 -2.1157093 303.98001
-6.2789111 -9.3158817 -2.1166587 303.98001
-7.2986493 -10.759822 -2.1360998 304.14999
-8.6130877 -12.697595 -2.156348 304.14999
-10.424177 -15.36754 -2.1715534 304.14999
-12.47094 -18.38492 -2.0726049 304.14999
-15.291195 -22.542601 -1.9047703 304.14999
-2.6338906 -3.8829367 -2.0889995 304.14999
-17.864437 -26.336128 -1.4840548 304.14999
-2.8106172 -4.1434708 -2.091305 304.14999
-24.908752 -36.721004 -1.0301878 304.14999
-3.0025415 -4.4264097 -2.0885894 304.14999
-3.2209587 -4.748405 -2.0883751 304.14999
-3.4855578 -5.1384826 -2.0980468 304.14999
-3.7693684 -5.5568824 -2.0952508 304.14999
-4.1032343 -6.0490737 -2.0959466 304.14999
-4.5095811 -6.648119 -2.1029999 304.14999
-5.0089965 -7.3843679 -2.1142285 304.14999
-5.5864854 -8.235714 -2.1152935 304.14999
-6.3087311 -9.3004637 -2.1173995 304.14999
-7.3297801 -10.741029 -2.1364241 304.31
-8.6496286 -12.675129 -2.1566265 304.31
-10.461452 -15.330167 -2.170392 304.31
-12.495292 -18.310547 -2.068146 304.31
-15.360833 -22.509699 -1.9056073 304.31
-2.6488431 -3.8816032 -2.0922532 304.31
-18.091063 -26.510567 -1.4967256 304.31
-2.8221769 -4.1356058 -2.091305 304.31
-3.0148907 -4.4180079 -2.0885894 304.31
-3.2352655 -4.7409444 -2.0890591 304.31
-3.5030975 -5.1334243 -2.0999675 304.31
-3.7848716 -5.5463347 -2.0952508 304.31
-4.1331143 -6.0566478 -2.1025617 304.31
-4.5303097 -6.6386962 -2.104013 304.31
-5.030695 -7.3719592 -2.1146896 304.31
-5.6094623 -8.2200813 -2.1152935 304.31
-6.3346782 -9.2828102 -2.1173995 304.31
-8.6927357 -12.648008 -2.1569047 304.5
-10.496479 -15.272471 -2.1671398 304.5
-12.524362 -18.223059 -2.0629442 304.5
-15.441044 -22.466858 -1.906305 304.5
-2.6565259 -3.8652692 -2.088186 304.5
-18.213955 -26.501469 -1.4996136 304.5
-2.8337851 -4.1231828 -2.0897632 304.5
-3.0305798 -4.4095211 -2.0893168 304.5
-3.2552273 -4.7363853 -2.0917952 304.5
-3.5190282 -5.1202178 -2.0993273 304.5
-3.7999988 -5.5290327 -2.0934637 304.5
-4.1411977 -6.0254803 -2.0964978 304.5
-4.5479159 -6.6172585 -2.1019871 304.5
-5.0562158 -7.3568401 -2.1151507 304.5
-5.635582 -8.1998224 -2.1148777 304.5
-6.3654265 -9.2617531 -2.1173995 304.5
-7.3971229 -10.694762 -2.1364241 304.67001
-8.7223377 -12.610759 -2.1549563 304.67001
-10.528187 -15.221656 -2.1643522 304.67001
-12.542127 -18.13341 -2.056999 304.67001
-15.530335 -22.453762 -1.9090952 304.67001
-2.6700613 -3.8603754 -2.0898128 304.67001
-18.231136 -26.358583 -1.4945827 304.67001
-2.8470562 -4.1162744 -2.090534 304.67001
-3.0404706 -4.3959131 -2.0871344 304.67001
-16.068846 -23.232342 0 304.67001
-3.2681971 -4.7251601 -2.0911112 304.67001
-3.5374382 -5.114429 -2.101248 304.67001
-3.8174732 -5.5193038 -2.0940595 304.67001
-4.1579638 -6.0115857 -2.0959466 304.67001
-4.5653286 -6.600553 -2.1009741 304.67001
-5.0724869 -7.3338027 -2.1128452 304.67001
-5.6621122 -8.1862831 -2.1157093 304.67001
-6.3928785 -9.2428255 -2.1173995 304.67001
-7.4333324 -10.679247 -2.1377211 304.84
-8.7563219 -12.579947 -2.1541212 304.84
-10.559687 -15.170787 -2.1615646 304.84
-12.567433 -18.055256 -2.0523543 304.84
-15.611706 -22.428873 -1.9109088 304.84
-2.6804597 -3.8509367 -2.0889995 304.84
-17.326576 -24.892576 -1.414366 304.84
-2.8571482 -4.1047797 -2.0889924 304.84
-16.195042 -23.266933 -0.65816528 304.84
-3.0535002 -4.3868728 -2.0871344 304.84
-16.128567 -23.171431 0 304.84
-3.2854235 -4.7200699 -2.0931633 304.84
-3.54935 -5.0992455 -2.0993273 304.84
-3.834923 -5.5095196 -2.0946553 304.84
-4.177979 -6.002378 -2.097049 304.84
-4.5815763 -6.5822144 -2.0994544 304.84
-5.1008949 -7.3283038 -2.1156118 304.84
-5.6841412 -8.1662359 -2.1148777 304.84
-6.4225197 -9.2270432 -2.11814 304.84
-7.4555202 -10.63968 -2.1344788 305.01999
-8.7958002 -12.552376 -2.1541212 305.01999
-10.603874 -15.132657 -2.1608677 305.01999
-12.590953 -17.968391 -2.0469668 305.01999
-15.661482 -22.350306 -1.9083976 305.01999
-2.693593 -3.8439929 -2.0898128 305.01999
-18.555758 -26.48069 -1.5079055 305.01999
-2.8721476 -4.0988059 -2.090534 305.01999
-3.0683358 -4.3787837 -2.087862 305.01999
-3.2948432 -4.7020297 -2.0897431 305.01999
-3.564265 -5.0865178 -2.0986869 305.01999
-3.8522129 -5.4974446 -2.0946553 305.01999
-4.2056413 -6.0018187 -2.1014593 305.01999
-4.6100049 -6.5788803 -2.1029999 305.01999
-5.1194248 -7.3058677 -2.1137674 305.01999
-5.7142587 -8.154747 -2.1165409 305.01999
-6.4458365 -9.1987724 -2.1162884 305.01999
-7.4961543 -10.630415 -2.1370726 305.19
-8.8295803 -12.521368 -2.1532862 305.19
-10.646438 -15.097881 -2.160403 305.19
-12.608636 -17.880505 -2.0412073 305.19
-15.694385 -22.256454 -1.9043517 305.19
-2.7007749 -3.8300114 -2.0865591 305.19
-2.8842964 -4.0902662 -2.090534 305.19
-3.0813146 -4.3696604 -2.087862 305.19
-3.3163614 -4.7029843 -2.0945313 305.19
-3.5804331 -5.0774689 -2.0993273 305.19
-3.8652062 -5.4813099 -2.0928679 305.19
-4.2123513 -5.9736018 -2.0959466 305.19
-4.6283894 -6.563592 -2.1024935 305.19
-5.1399579 -7.2890553 -2.1133063 305.19
-5.7350469 -8.1329603 -2.1152935 305.19
-6.479897 -9.1892443 -2.1185102 305.19
-7.5235271 -10.60622 -2.1364241 305.35001
-8.8645124 -12.496662 -2.1532862 305.35001
-10.678214 -15.05351 -2.1583123 305.35001
-12.622802 -17.794874 -2.0354481 305.35001
-15.746086 -22.197895 -1.9030961 305.35001
-2.7125168 -3.8239446 -2.0873725 305.35001
-19.20962 -27.08058 -1.54834 305.35001
-2.8935719 -4.0791855 -2.0889924 305.35001
-3.0913491 -4.3579998 -2.0864069 305.35001
-3.3207829 -4.6814418 -2.0890591 305.35001
-3.5945981 -5.0674505 -2.0993273 305.35001
-3.8827071 -5.4736094 -2.0940595 305.35001
-4.2401395 -5.9774961 -2.1014593 305.35001
-4.643342 -6.545907 -2.1009741 305.35001
-5.1625447 -7.2778482 -2.1142285 305.35001
-5.7566042 -8.1153183 -2.1148777 305.35001
-6.5009847 -9.1647005 -2.117029 305.35001
-7.5579572 -10.584139 -2.1367483 305.53
-8.8991241 -12.462304 -2.1521728 305.53
-10.700056 -14.984324 -2.1532016 305.53
-12.628882 -17.685446 -2.0274594 305.53
-15.791397 -22.11422 -1.9001664 305.53
-2.7266402 -3.818378 -2.0889995 305.53
-2.9063728 -4.0700746 -2.0889924 305.53
-3.1061075 -4.3497829 -2.0871344 305.53
-3.3398423 -4.677104 -2.0917952 305.53
-3.6116014 -5.0576744 -2.0999675 305.53
-3.8954458 -5.4551697 -2.0916765 305.53
-4.2566628 -5.9610167 -2.1003566 305.53
-4.6616349 -6.5281382 -2.099961 305.53
-5.1831212 -7.2584262 -2.1133063 305.53
-5.7820706 -8.0971928 -2.1148777 305.53
-6.5286021 -9.1426325 -2.1166587 305.53
-7.5911708 -10.560343 -2.1367483 305.70999
-8.9393883 -12.435894 -2.1524513 305.70999
-10.72041 -14.913536 -2.1478586 305.70999
-12.655323 -17.605261 -2.0228148 305.70999
-15.894564 -22.111481 -1.9042122 305.70999
-2.7364895 -3.8068261 -2.0873725 305.70999
-2.9180677 -4.0594254 -2.0882215 305.70999
-3.1262817 -4.3490796 -2.0914993 305.70999
-3.3479376 -4.6574326 -2.0876911 305.70999
-3.6252608 -5.0432267 -2.0986869 305.70999
-3.9147933 -5.4460053 -2.0928679 305.70999
-4.2652698 -5.9335651 -2.0953951 305.70999
-4.6821208 -6.5134611 -2.099961 305.70999
-5.2058988 -7.2421069 -2.1133063 305.70999
-5.8086224 -8.0805769 -2.1152935 305.70999
-6.5595865 -9.1252689 -2.1173995 305.70999
-7.6037621 -10.51964 -2.1325333 305.85999
-8.9672737 -12.406028 -2.1513379 305.85999
-10.75709 -14.882199 -2.1473942 305.85999
-12.709536 -17.583366 -2.0241153 305.85999
-13.527222 -18.714617 -1.6147228 305.85999
-2.7475169 -3.8011296 -2.088186 305.85999
-18.065392 -24.993076 -1.4381236 305.85999
-2.9286852 -4.0517721 -2.0882215 305.85999
-3.1376569 -4.3408799 -2.0914993 305.85999
-3.3612201 -4.6501746 -2.0883751 305.85999
-3.6384513 -5.0337181 -2.0986869 305.85999
-3.9290373 -5.4357376 -2.0928679 305.85999
-4.2943039 -5.9410758 -2.1020105 305.85999
-4.7002902 -6.502749 -2.1004674 305.85999
-5.2248406 -7.2284532 -2.1133063 305.85999
-5.8320489 -8.0685129 -2.1161251 305.85999
-6.5834541 -9.1080647 -2.1173995 305.85999
-7.6508918 -10.507392 -2.1354513 306.06
-9.0058603 -12.368246 -2.1502244 306.06
-10.793772 -14.823684 -2.1443741 306.06
-12.754425 -17.516357 -2.0215142 306.06
-15.934212 -21.883333 -1.8929117 306.06
-2.7586176 -3.7885618 -2.0865591 306.06
-16.493206 -22.651031 -1.3066651 306.06
-2.9449832 -4.0445085 -2.0897632 306.06
-3.1440175 -4.3178525 -2.0856795 306.06
-3.3763254 -4.6368942 -2.0876911 306.06
-3.6560001 -5.020987 -2.0986869 306.06
-3.9468639 -5.4204464 -2.0922723 306.06
-4.3003044 -5.9058456 -2.0948439 306.06
-4.7275157 -6.4925585 -2.1024935 306.06
-5.2511864 -7.2117443 -2.1137674 306.06
-5.8567233 -8.0433617 -2.1148777 306.06
-6.6140499 -9.0834398 -2.117029 306.06
-7.6790376 -10.484394 -2.1351273 306.22
-9.0403643 -12.343049 -2.1502244 306.22
-10.828083 -14.783868 -2.1429803 306.22
-12.818587 -17.501556 -2.0239296 306.22
-15.91981 -21.735739 -1.8839829 306.22
-2.7724252 -3.7852657 -2.0889995 306.22
-16.559938 -22.609722 -1.3069446 306.22
-2.9540854 -4.0332909 -2.0882215 306.22
-3.1560628 -4.3090563 -2.0856795 306.22
-3.3881505 -4.6259317 -2.0870068 306.22
-3.6688876 -5.0092297 -2.0980468 306.22
-3.9608572 -5.4078631 -2.0916765 306.22
-4.3281398 -5.9093237 -2.1003566 306.22
-4.7421985 -6.474649 -2.1009741 306.22
-5.2678552 -7.1923418 -2.1123838 306.22
-5.8791618 -8.0269756 -2.1148777 306.22
-6.6359057 -9.0601778 -2.1159182 306.22
-7.7084241 -10.455452 -2.1341546 306.39999
-9.0743952 -12.30821 -2.149111 306.39999
-10.852077 -14.719398 -2.1385667 306.39999
-12.92432 -17.530121 -2.0319183 306.39999
-15.920531 -21.594084 -1.8760306 306.39999
-2.7810507 -3.7721252 -2.0865591 306.39999
-2.9678369 -4.025476 -2.0889924 306.39999
-3.1706901 -4.3006191 -2.0864069 306.39999
-3.4037817 -4.6167774 -2.0876911 306.39999
-3.6823575 -4.9946284 -2.0967662 306.39999
-3.9800928 -5.3984666 -2.0928679 306.39999
-4.3478241 -5.8972449 -2.100908 306.39999
-4.7613673 -6.4581618 -2.1004674 306.39999
-5.2892694 -7.1741905 -2.1119227 306.39999
-5.9089937 -8.0147638 -2.1165409 306.39999
-6.6666689 -9.04245 -2.1166587 306.39999
-7.7405877 -10.43412 -2.1344788 306.57001
-9.1096945 -12.279641 -2.1488328 306.57001
-10.883867 -14.671182 -2.1362436 306.57001
-12.9917 -17.512487 -2.0343335 306.57001
-16.010683 -21.582003 -1.8790998 306.57001
-2.793319 -3.7653246 -2.0873725 306.57001
-18.022564 -24.293966 -1.4106393 306.57001
-2.9775684 -4.0136881 -2.0874507 306.57001
-3.1812162 -4.2882004 -2.0849521 306.57001
-3.4185848 -4.6081672 -2.0883751 306.57001
-3.6982896 -4.9852023 -2.0974066 306.57001
-3.9938178 -5.3835669 -2.0916765 306.57001
-4.3538475 -5.8688784 -2.0953951 306.57001
-4.781661 -6.44556 -2.1009741 306.57001
-5.3105326 -7.1584654 -2.1119227 306.57001
-5.9304171 -7.9940543 -2.1157093 306.57001
-6.6946402 -9.0242081 -2.117029 306.57001
-7.7673349 -10.4093 -2.1338303 306.73001
-9.1463194 -12.257329 -2.1493893 306.73001
-10.90935 -14.620034 -2.1332238 306.73001
-13.042935 -17.479332 -2.0347049 306.73001
-13.855162 -18.567827 -1.6200243 306.73001
-2.800545 -3.7531164 -2.0849321 306.73001
-18.109451 -24.269163 -1.41213 306.73001
-2.9876614 -4.0038786 -2.0866799 306.73001
-3.1954072 -4.2822862 -2.0864069 306.73001
-3.4291918 -4.5955901 -2.0870068 306.73001
-3.7121966 -4.9748554 -2.0974066 306.73001
-4.0065522 -5.3693328 -2.0904849 306.73001
-4.3713694 -5.8582382 -2.0959466 306.73001
-4.7984848 -6.4306312 -2.1004674 306.73001
-5.3316655 -7.1451674 -2.1123838 306.73001
-5.9492073 -7.9727588 -2.1144619 306.73001
-6.7186389 -9.0039034 -2.1166587 306.73001
-7.7845902 -10.364333 -2.1296151 306.91
-9.1824026 -12.225368 -2.1488328 306.91
-10.934946 -14.558687 -2.1292746 306.91
-13.088216 -17.425531 -2.0332186 306.91
-16.140867 -21.489805 -1.8793789 306.91
-2.8134191 -3.7457607 -2.0857456 306.91
-18.295988 -24.359114 -1.4207014 306.91
-3.0002253 -3.9944727 -2.0866799 306.91
-3.2043691 -4.2662678 -2.083497 306.91
-3.441355 -4.581789 -2.0856388 306.91
-3.730083 -4.9661989 -2.0986869 306.91
-4.0268407 -5.361299 -2.0922723 306.91
-4.3862882 -5.8398643 -2.0942926 306.91
-4.8175015 -6.4139776 -2.099961 306.91
-5.3529177 -7.1268263 -2.1119227 306.91
-5.9777498 -7.9587221 -2.1157093 306.91
-6.7480726 -8.9843225 -2.117029 306.91
-7.8295865 -10.360084 -2.1335061 307.07999
-9.2126646 -12.190168 -2.1474409 307.07999
-10.967315 -14.511915 -2.1271839 307.07999
-13.096638 -17.32943 -2.0265305 307.07999
-13.917804 -18.415993 -1.6141648 307.07999
-2.8212159 -3.7330236 -2.0833051 307.07999
-18.022478 -23.847284 -1.3939625 307.07999
-3.0120637 -3.9855533 -2.0866799 307.07999
-3.2226295 -4.264173 -2.0871344 307.07999
-3.4572005 -4.5745568 -2.0870068 307.07999
-3.7413745 -4.9505744 -2.0967662 307.07999
-4.0392766 -5.344758 -2.0904849 307.07999
-4.4035964 -5.8268242 -2.0942926 307.07999
-4.8353443 -6.3981118 -2.0994544 307.07999
-5.3728666 -7.1093597 -2.1114616 307.07999
-5.9989786 -7.937829 -2.1148777 307.07999
-6.7747002 -8.9642611 -2.117029 307.07999
-7.8447614 -10.316385 -2.1292908 307.25
-9.2487926 -12.162781 -2.1474409 307.25
-10.991086 -14.454012 -2.123467 307.25
-13.109426 -17.239771 -2.0205853 307.25
-16.175117 -21.271358 -1.8686364 307.25
-2.8389149 -3.7333627 -2.088186 307.25
-18.091946 -23.792114 -1.3938693 307.25
-3.0261102 -3.9795368 -2.0882215 307.25
-27.382174 -36.009388 -1.0502884 307.25
-3.2307568 -4.248661 -2.0842245 307.25
-3.4707584 -4.5642791 -2.0870068 307.25
-3.7583404 -4.9424686 -2.0980468 307.25
-4.0551171 -5.3327498 -2.0904849 307.25
-4.4208655 -5.8137331 -2.0942926 307.25
-4.8543067 -6.3837371 -2.0994544 307.25
-5.3939366 -7.0933871 -2.1114616 307.25
-6.0213199 -7.918438 -2.1144619 307.25
-6.7988882 -8.9409924 -2.1162884 307.25
-7.8891273 -10.307361 -2.1325333 307.42999
-9.2821426 -12.127374 -2.1463275 307.42999
-11.035233 -14.417833 -2.1232347 307.42999
-13.187728 -17.230127 -2.0243011 307.42999
-16.141216 -21.08894 -1.8570569 307.42999
-2.8472981 -3.720073 -2.0857456 307.42999
-3.0341105 -3.9641483 -2.0851381 307.42999
-27.49395 -35.921597 -1.0502421 307.42999
-3.2452207 -4.2399697 -2.0849521 307.42999
-3.4827957 -4.5503678 -2.0856388 307.42999
-3.7692425 -4.9246182 -2.0954859 307.42999
-4.0718503 -5.319984 -2.0904849 307.42999
-4.4379392 -5.7982893 -2.0937414 307.42999
-4.8719859 -6.3653827 -2.0984416 307.42999
-5.4185605 -7.0794973 -2.1123838 307.42999
-6.0497336 -7.9041429 -2.1157093 307.42999
-6.8293328 -8.9227104 -2.117029 307.42999
-7.9052253 -10.265144 -2.1286423 307.60001
-9.3120422 -12.091933 -2.1449358 307.60001
-11.056146 -14.356698 -2.1190534 307.60001
-13.101497 -17.01264 -2.0033076 307.60001
-16.180588 -21.010921 -1.8544061 307.60001
-2.8572085 -3.710161 -2.0849321 307.60001
-16.966782 -22.031815 -1.2967894 307.60001
-3.0458591 -3.9551284 -2.0851381 307.60001
-28.287249 -36.731743 -1.0763774 307.60001
-3.2589233 -4.2317982 -2.0856795 307.60001
-3.498575 -4.5429921 -2.0870068 307.60001
-3.7838376 -4.913413 -2.0954859 307.60001
-4.0887823 -5.309392 -2.0910807 307.60001
-4.4551239 -5.7850962 -2.0937414 307.60001
-4.8955727 -6.3570309 -2.1004674 307.60001
-5.4371672 -7.0603051 -2.1114616 307.60001
-6.0707722 -7.8830581 -2.1148777 307.60001
-6.8509803 -8.8961792 -2.1155479 307.60001
-7.9489446 -10.258804 -2.1322091 307.76999
-9.3490915 -12.065817 -2.1452141 307.76999
-11.098695 -14.323831 -2.1190534 307.76999
-12.932372 -16.690351 -1.9698664 307.76999
-16.187866 -20.891851 -1.848128 307.76999
-2.8715615 -3.7059999 -2.0873725 307.76999
-3.0632324 -3.9533679 -2.0889924 307.76999
-28.222208 -36.423214 -1.0697855 307.76999
-3.2760293 -4.2280006 -2.0885894 307.76999
-3.5085857 -4.5281348 -2.0849547 307.76999
-3.7972386 -4.9006667 -2.0948455 307.76999
-4.1068563 -5.3002553 -2.0922723 307.76999
-4.4710913 -5.7703323 -2.0931902 307.76999
-4.9084878 -6.3348303 -2.097935 307.76999
-5.4592834 -7.04568 -2.1119227 307.76999
-6.0917382 -7.8619184 -2.1140461 307.76999
-6.8761415 -8.874259 -2.1151776 307.76999
-7.9714251 -10.221332 -2.1296151 307.95001
-9.3857336 -12.034824 -2.1449358 307.95001
-11.127758 -14.268529 -2.1160333 307.95001
-12.977394 -16.640219 -1.9687517 307.95001
-13.655965 -17.510313 -1.5527791 307.95001
-2.8809428 -3.6940789 -2.0857456 307.95001
-17.05682 -21.871048 -1.2934355 307.95001
-3.0722325 -3.9393592 -2.0866799 307.95001
-19.645571 -25.190466 -0.7416777 307.95001
-3.2904415 -4.2191572 -2.0893168 307.95001
-3.5227938 -4.5170903 -2.0849547 307.95001
-3.813781 -4.8902073 -2.0954859 307.95001
-4.1164427 -5.2782941 -2.0886977 307.95001
-4.5033846 -5.7744493 -2.0998054 307.95001
-4.9331241 -6.3254814 -2.099961 307.95001
-5.4825878 -7.0300293 -2.1123838 307.95001
-6.1200161 -7.8473697 -2.1152935 307.95001
-6.9027781 -8.8510637 -2.1148071 307.95001
-8.0029354 -10.199187 -2.1299393 308.12
-9.4238453 -12.010039 -2.1454926 308.12
-11.150425 -14.210445 -2.1123166 308.12
-13.069735 -16.656473 -1.9752541 308.12
-16.27331 -20.739208 -1.8433846 308.12
-2.8873792 -3.679765 -2.0824916 308.12
-17.219067 -21.94451 -1.3007956 308.12
-3.0816288 -3.9273226 -2.0851381 308.12
-28.770029 -36.665413 -1.0820408 308.12
-3.3040955 -4.2108412 -2.0900443 308.12
-3.5361807 -4.506618 -2.0849547 308.12
-3.8294435 -4.8803611 -2.0961261 308.12
-4.1332641 -5.2675591 -2.0892935 308.12
-4.5074434 -5.7444248 -2.0937414 308.12
-4.950676 -6.3092942 -2.0994544 308.12
-5.4998178 -7.0091376 -2.1110005 308.12
-6.1408577 -7.8260984 -2.1144619 308.12
-6.9314361 -8.8336363 -2.1155479 308.12
-8.0289402 -10.173701 -2.1292908 308.28
-9.4536667 -11.979012 -2.1446574 308.28
-11.196218 -14.187049 -2.1134782 308.28
-13.13717 -16.646484 -1.9784124 308.28
-16.279249 -20.627905 -1.837525 308.28
-2.9010394 -3.6759903 -2.0849321 308.28
-3.0948703 -3.9215991 -2.0866799 308.28
-28.894602 -36.613182 -1.0828764 308.28
-3.3146873 -4.2001357 -2.0893168 308.28
-3.549916 -4.4982009 -2.0856388 308.28
-3.8418832 -4.8681607 -2.0954859 308.28
-4.1503229 -5.2589936 -2.0904849 308.28
-4.5222764 -5.7303061 -2.0931902 308.28
-4.9742689 -6.3030391 -2.1019871 308.28
-5.521781 -6.9968076 -2.1119227 308.28
-6.1626883 -7.8089194 -2.1144619 308.28
-6.9548597 -8.8127022 -2.1151776 308.28
-8.0491285 -10.130024 -2.1257243 308.47
-9.4896421 -11.942945 -2.1438224 308.47
-11.220958 -14.121848 -2.1092966 308.47
-13.174955 -16.581001 -1.9758115 308.47
-13.933473 -17.535614 -1.5661724 308.47
-2.9098034 -3.6620586 -2.0824916 308.47
-3.1078579 -3.9113147 -2.0866799 308.47
-29.078051 -36.595436 -1.0851974 308.47
-3.3297563 -4.1905794 -2.0900443 308.47
-3.5659823 -4.4878755 -2.0863228 308.47
-3.855648 -4.852427 -2.0942054 308.47
-4.1677399 -5.2452021 -2.0904849 308.47
-4.54245 -5.7167835 -2.0937414 308.47
-4.9927359 -6.2834792 -2.1009741 308.47
-5.5413208 -6.973887 -2.1105394 308.47
-6.1873326 -7.7869086 -2.1140461 308.47
-6.9852681 -8.7911301 -2.1155479 308.47
-8.0902395 -10.11997 -2.1286423 308.64001
-9.5188522 -11.907001 -2.1424308 308.64001
-11.254126 -14.077631 -2.1076705 308.64001
-13.205442 -16.518507 -1.9730247 308.64001
-13.949312 -17.449003 -1.5621265 308.64001
-2.921797 -3.6548359 -2.0833051 308.64001
-3.1171446 -3.8991933 -2.0851381 308.64001
-3.3421752 -4.1806812 -2.0900443 308.64001
-3.5769353 -4.4743395 -2.0849547 308.64001
-3.8712115 -4.8424454 -2.0948455 308.64001
-4.1832843 -5.2328129 -2.0904849 308.64001
-4.5677953 -5.7137923 -2.0976002 308.64001
-5.0089412 -6.2656155 -2.099961 308.64001
-5.5668492 -6.9634953 -2.1123838 308.64001
-6.2079663 -7.76546 -2.1132145 308.64001
-7.0125484 -8.7719002 -2.1159182 308.64001
-8.115283 -10.08977 -2.1273453 308.81
-9.5541391 -11.878706 -2.1424308 308.81
-11.288375 -14.03489 -2.1062768 308.81
-13.301822 -16.538218 -1.9800845 308.81
-16.423098 -20.418915 -1.832363 308.81
-2.9337735 -3.6475744 -2.0841186 308.81
-17.473318 -21.724661 -1.3001435 308.81
-3.1298566 -3.8913655 -2.0859089 308.81
-3.3545649 -4.1707463 -2.0900443 308.81
-3.592551 -4.4666357 -2.0863228 308.81
-3.8843749 -4.8294616 -2.0942054 308.81
-4.1963987 -5.2174025 -2.0892935 308.81
-4.5835233 -5.6987162 -2.097049 308.81
-5.0335722 -6.2582645 -2.1024935 308.81
-5.5826068 -6.9408817 -2.1105394 308.81
-6.2322059 -7.7485309 -2.1136303 308.81
-7.0360804 -8.7479925 -2.1151776 308.81
-8.1414604 -10.061045 -2.1263726 308.98001
-9.5868502 -11.847227 -2.1418741 308.98001
-11.314973 -13.982804 -2.1034892 308.98001
-13.547501 -16.741716 -2.0092525 308.98001
-16.46604 -20.348385 -1.8304099 308.98001
-2.9434338 -3.6374333 -2.0833051 308.98001
-17.566605 -21.708441 -1.3022863 308.98001
-3.1413887 -3.882062 -2.0859089 308.98001
-3.366925 -4.1607747 -2.0900443 308.98001
-3.6034236 -4.4530349 -2.0849547 308.98001
-3.8951113 -4.8134966 -2.0922847 308.98001
-4.2142625 -5.2078967 -2.0904849 308.98001
-4.5871086 -5.6686521 -2.0909851 308.98001
-5.0533361 -6.2448058 -2.1029999 308.98001
-5.6068492 -6.9288259 -2.1119227 308.98001
-6.2563992 -7.7315264 -2.1140461 308.98001
-7.0644779 -8.7301331 -2.1159182 308.98001
-8.1742735 -10.036948 -2.1266968 309.16
-9.6190186 -11.810907 -2.1407607 309.16
-11.332502 -13.914843 -2.0986109 309.16
-13.720751 -16.847303 -2.0270877 309.16
-16.439171 -20.185171 -1.820365 309.16
-2.9548466 -3.6281683 -2.0833051 309.16
-18.318508 -22.492752 -1.3527827 309.16
-3.153569 -3.8721738 -2.0859089 309.16
-3.3823326 -4.1530657 -2.0914993 309.16
-3.6162086 -4.4402351 -2.0842707 309.16
-3.9114106 -4.8027053 -2.0929248 309.16
-4.22578 -5.1887102 -2.0881019 309.16
-4.6170349 -5.6691198 -2.0964978 309.16
-5.0704861 -6.2258992 -2.1019871 309.16
-5.6249018 -6.9066501 -2.1105394 309.16
-6.2794223 -7.7103162 -2.1136303 309.16
-7.0906286 -8.7063723 -2.1155479 309.16
-8.2010202 -10.012555 -2.1263726 309.32001
-9.646944 -11.777872 -2.1396472 309.32001
-11.342364 -13.847796 -2.0932679 309.32001
-13.845977 -16.904436 -2.0386064 309.32001
-16.471455 -20.109859 -1.8177142 309.32001
-2.9626513 -3.6170759 -2.0816782 309.32001
-18.957243 -23.144737 -1.3951737 309.32001
-3.1585228 -3.8562138 -2.0820549 309.32001
-31.652473 -38.644238 -1.1597506 309.32001
-3.3939171 -4.1436043 -2.0914993 309.32001
-3.63693 -4.4402971 -2.0890591 309.32001
-3.9248071 -4.7917638 -2.0929248 309.32001
-4.2390437 -5.1754122 -2.0875063 309.32001
-4.6194477 -5.6398444 -2.0904336 309.32001
-5.0890784 -6.2132125 -2.1024935 309.32001
-5.6441669 -6.8909154 -2.1105394 309.32001
-6.3046479 -7.6972909 -2.1148777 309.32001
-7.1149135 -8.6865377 -2.1155479 309.32001
-8.2256718 -9.9820862 -2.1250758 309.48999
-9.6831064 -11.750726 -2.1399257 309.48999
-11.373296 -13.801818 -2.0914094 309.48999
-13.90747 -16.87711 -2.0402784 309.48999
-16.524706 -20.053202 -1.8170166 309.48999
-2.9733703 -3.6082695 -2.0816782 309.48999
-3.1734715 -3.8510981 -2.0843673 309.48999
-3.403827 -4.130641 -2.0900443 309.48999
-3.6488934 -4.4280362 -2.0883751 309.48999
-3.9390073 -4.7800975 -2.0929248 309.48999
-4.2555947 -5.1642852 -2.0881019 309.48999
-4.6386065 -5.6290808 -2.0915363 309.48999
-5.1074905 -6.1980853 -2.1024935 309.48999
-5.6658254 -6.8756404 -2.1110005 309.48999
-6.321238 -7.6710024 -2.1127987 309.48999
-7.1444054 -8.669939 -2.1166587 309.48999
-8.2418718 -9.9379663 -2.1211848 309.67001
-9.7149172 -11.714149 -2.1388123 309.67001
-11.403918 -13.75073 -2.0890865 309.67001
-13.960422 -16.833336 -2.0402784 309.67001
-16.559603 -19.967402 -1.8139473 309.67001
-2.9870241 -3.6017234 -2.0833051 309.67001
-3.1867325 -3.8425298 -2.0851381 309.67001
-31.603312 -38.106953 -1.1493986 309.67001
-3.413219 -4.1156249 -2.087862 309.67001
-3.6591873 -4.4122109 -2.0863228 309.67001
-3.9527953 -4.7662406 -2.0922847 309.67001
-4.2693601 -5.1479516 -2.0869105 309.67001
-4.6550403 -5.6130009 -2.0909851 309.67001
-5.1244674 -6.1790309 -2.1014805 309.67001
-5.6886401 -6.8593049 -2.1114616 309.67001
-6.3503013 -7.6571288 -2.1144619 309.67001
-7.1690984 -8.6444263 -2.1159182 309.67001
-8.2801733 -9.9240761 -2.1234546 309.84
-9.7483625 -11.683752 -2.1385338 309.84
-11.428123 -13.697004 -2.0860665 309.84
-14.003927 -16.784195 -2.0393496 309.84
-16.591932 -19.886011 -1.8110175 309.84
-2.9976974 -3.592845 -2.0833051 309.84
-17.631914 -21.132463 -1.2834666 309.84
-3.200484 -3.8358917 -2.0866799 309.84
-31.749542 -38.052933 -1.1506056 309.84
-3.4278023 -4.1083407 -2.0893168 309.84
-3.6758745 -4.4056635 -2.0883751 309.84
-3.9657059 -4.7530365 -2.0916443 309.84
-4.2870622 -5.1381931 -2.0881019 309.84
-4.6778321 -5.606545 -2.0937414 309.84
-5.1365805 -6.1563706 -2.098948 309.84
-5.7089672 -6.8423963 -2.1114616 309.84
-6.3692327 -7.6337471 -2.1132145 309.84
-7.194715 -8.6231174 -2.1159182 309.84
-8.2986183 -9.8829002 -2.1202121 310.01999
-9.7786522 -11.645485 -2.1371422 310.01999
-11.453214 -13.639736 -2.0828142 310.01999
-14.047623 -16.729443 -2.038049 310.01999
-16.620968 -19.794062 -1.8073902 310.01999
-3.0101447 -3.5848088 -2.0841186 310.01999
-17.696932 -21.075438 -1.2833734 310.01999
-3.2101455 -3.8229916 -2.0851381 310.01999
-31.757072 -37.819786 -1.1465669 310.01999
-3.44189 -4.0989785 -2.0900443 310.01999
-3.6812372 -4.3840189 -2.0835867 310.01999
-3.9781814 -4.7376523 -2.090364 310.01999
-4.3007274 -5.1217756 -2.0869105 310.01999
-4.6917138 -5.5874047 -2.0920875 310.01999
-5.1558957 -6.1402035 -2.098948 310.01999
-5.7291837 -6.822937 -2.1110005 310.01999
-6.3944411 -7.6151981 -2.1136303 310.01999
-7.2217698 -8.6004715 -2.1159182 310.01999
-8.3444614 -9.8778334 -2.1244273 310.19
-9.8029366 -11.604317 -2.1349154 310.19
-11.485942 -13.596589 -2.0814204 310.19
-13.322302 -15.770398 -1.9260213 310.19
-16.669325 -19.732466 -1.8062742 310.19
-3.0148726 -3.5688832 -2.0800512 310.19
-17.73489 -20.993839 -1.2816032 310.19
-3.2202835 -3.8120403 -2.0843673 310.19
-31.947853 -37.818565 -1.1493986 310.19
-3.4492278 -4.0830555 -2.0871344 310.19
-3.6930158 -4.3716416 -2.0829027 310.19
-4.0007801 -4.73596 -2.0948455 310.19
-4.3183694 -5.1119094 -2.0881019 310.19
-4.7070308 -5.571991 -2.0915363 310.19
-5.1765885 -6.1278348 -2.099961 310.19
-5.7494025 -6.8059082 -2.1110005 310.19
-6.4170079 -7.5961919 -2.1136303 310.19
-7.2485247 -8.5805082 -2.1162884 310.19
-8.3673429 -9.8455124 -2.1228061 310.35999
-9.8373241 -11.57518 -2.1349154 310.35999
-11.524946 -13.560936 -2.0811882 310.35999
-13.399985 -15.767219 -1.9304802 310.35999
-16.689037 -19.637312 -1.8020887 310.35999
-3.0242651 -3.5585299 -2.0792377 310.35999
-17.769934 -20.909159 -1.2796468 310.35999
-3.2339702 -3.8052812 -2.0859089 310.35999
-32.062511 -37.726654 -1.1494914 310.35999
-3.4613273 -4.0728035 -2.0871344 310.35999
-16.898163 -19.883383 0 310.35999
-3.7120559 -4.3678255 -2.0863228 310.35999
-4.0099063 -4.7182937 -2.0922847 310.35999
-4.3285718 -5.093255 -2.0857189 310.35999
-4.7272773 -5.5623951 -2.0931902 310.35999
-5.1922417 -6.1094999 -2.098948 310.35999
-5.7733517 -6.7932682 -2.1123838 310.35999
-6.4420514 -7.5801005 -2.1144619 310.35999
-7.2726789 -8.5574656 -2.1159182 310.35999
-8.3811283 -9.8026419 -2.1189151 310.53
-9.8651896 -11.538414 -2.1335237 310.53
-11.553514 -13.513093 -2.0790975 310.53
-13.885796 -16.240952 -1.4941837 310.53
-3.038372 -3.5537071 -2.0816782 310.53
-3.2428477 -3.7928636 -2.0843673 310.53
-17.021381 -19.90836 -0.60812283 310.53
-3.4733963 -4.0625153 -2.0871344 310.53
-16.944088 -19.817955 0 310.53
-3.7298844 -4.3625059 -2.0890591 310.53
-4.0189629 -4.7006145 -2.0897236 310.53
-4.3461461 -5.0832915 -2.0869105 310.53
-4.7387629 -5.5424995 -2.0909851 310.53
-5.2128606 -6.0970082 -2.099961 310.53
-5.7884235 -6.7701917 -2.1105394 310.53
-6.4619713 -7.5579791 -2.1136303 310.53
-7.2942057 -8.5313683 -2.1148071 310.53
-8.4200497 -9.7926674 -2.1218333 310.69
-9.8922081 -11.504813 -2.1324103 310.69
-11.575663 -13.462702 -2.0763099 310.69
-13.38022 -15.561434 -1.9146886 310.69
-3.0494752 -3.5465939 -2.0824916 310.69
-17.133303 -19.926336 -1.2255168 310.69
-3.2510204 -3.7809947 -2.0828257 310.69
-17.069088 -19.851652 -0.60784429 310.69
-3.4871566 -4.0556254 -2.0885894 310.69
-3.7420523 -4.3520732 -2.0890591 310.69
-4.033309 -4.6908097 -2.090364 310.69
-4.3565903 -5.066792 -2.0851233 310.69
-4.7492085 -5.5234141 -2.0887799 310.69
-5.2286048 -6.0809608 -2.0994544 310.69
-5.8098445 -6.7569523 -2.1114616 310.69
-6.4792256 -7.5354548 -2.1123829 310.69
-7.3244081 -8.5184164 -2.1166587 310.69
-8.4563522 -9.7691679 -2.1228061 310.88
-9.9290085 -11.470449 -2.1321318 310.88
-11.612443 -13.41523 -2.0749161 310.88
-13.211493 -15.262527 -1.8832911 310.88
-13.470275 -15.561483 -1.4392155 310.88
-3.0624154 -3.5378435 -2.0833051 310.88
-17.212362 -19.884516 -1.2264484 310.88
-3.2635407 -3.7701931 -2.0828257 310.88
-3.5018058 -4.0454478 -2.0893168 310.88
-3.7564635 -4.3396401 -2.0890591 310.88
-4.0476017 -4.6759768 -2.0897236 310.88
-4.3733683 -5.0523171 -2.0851233 310.88
-4.7674985 -5.5076346 -2.0887799 310.88
-5.2512741 -6.066514 -2.1004674 310.88
-5.8322191 -6.737649 -2.1114616 310.88
-6.5028982 -7.5124483 -2.1119668 310.88
-7.3500433 -8.4911089 -2.1159182 310.88
-8.4610748 -9.7127914 -2.1163213 311.06
-9.9597912 -11.433227 -2.1310186 311.06
-11.649311 -13.372691 -2.0739868 311.06
-13.31693 -15.287014 -1.8914655 311.06
-13.266171 -15.228745 -1.4122896 311.06
-3.0687141 -3.5226946 -2.0800512 311.06
-17.879704 -20.524797 -1.2693983 311.06
-3.2729447 -3.7571387 -2.081284 311.06
-32.316143 -37.096939 -1.1422496 311.06
-3.5120502 -4.0316172 -2.087862 311.06
-17.02684 -19.545761 0 311.06
-3.7651405 -4.3221493 -2.0863228 311.06
-4.0697393 -4.6718097 -2.093565 311.06
-4.3879652 -5.0371132 -2.0845275 311.06
-4.783515 -5.4911804 -2.0882287 311.06
-5.2728481 -6.0529046 -2.1014805 311.06
-5.8546357 -6.7207608 -2.1119227 311.06
-6.5316072 -7.4978819 -2.1136303 311.06
-7.3715186 -8.4620485 -2.1144369 311.06
-8.5050707 -9.7084236 -2.1205363 311.22
-9.9929848 -11.406858 -2.1312969 311.22
-11.669593 -13.320683 -2.070967 311.22
-13.29002 -15.17038 -1.881619 311.22
-13.60971 -15.535301 -1.4442381 311.22
-3.0797434 -3.5154858 -2.0808647 311.22
-17.464336 -19.935305 -1.2359514 311.22
-3.2846398 -3.7493722 -2.0820549 311.22
-32.381405 -36.962936 -1.1409034 311.22
-3.5220673 -4.0203924 -2.0871344 311.22
-17.082674 -19.499641 0 311.22
-3.7821493 -4.3172727 -2.0890591 311.22
-4.0752783 -4.6518755 -2.0897236 311.22
-4.4045305 -5.0277123 -2.0857189 311.22
-4.8051648 -5.4850311 -2.0909851 311.22
-5.2897305 -6.0381565 -2.1014805 311.22
-5.8759456 -6.7073131 -2.1128452 311.22
-6.5499411 -7.4766703 -2.1127987 311.22
-7.4015961 -8.448822 -2.1162884 311.22
-8.5342236 -9.6801767 -2.1202121 311.39999
-10.024842 -11.370952 -2.1304619 311.39999
-11.715324 -13.288426 -2.0716639 311.39999
-13.425846 -15.228633 -1.8940666 311.39999
-13.63338 -15.464034 -1.4415873 311.39999
-3.0895641 -3.5044224 -2.0800512 311.39999
-17.587654 -19.949276 -1.2402371 311.39999
-3.2951822 -3.7376506 -2.081284 311.39999
-3.5334482 -4.0079103 -2.0864069 311.39999
-17.084332 -19.37837 0 311.39999
-3.7919652 -4.3011403 -2.0870068 311.39999
-4.0898724 -4.6390495 -2.0897236 311.39999
-4.4203038 -5.0138502 -2.0857189 311.39999
-4.8147445 -5.4612556 -2.0876772 311.39999
-5.303556 -6.0157032 -2.0994544 311.39999
-5.89184 -6.682981 -2.1110005 311.39999
-6.575985 -7.4589911 -2.1136303 311.39999
-7.4229031 -8.419631 -2.1148071 311.39999
-8.5615978 -9.6533356 -2.1198878 311.57001
-10.055908 -11.338194 -2.1299052 311.57001
-11.745474 -13.243205 -2.0700378 311.57001
-13.464365 -15.181282 -1.8931377 311.57001
-13.794376 -15.553375 -1.4537249 311.57001
-3.0987358 -3.4938734 -2.0792377 311.57001
-3.3087065 -3.7306185 -2.0828257 311.57001
-32.432793 -36.568481 -1.1348221 311.57001
-3.5428522 -3.9946213 -2.0849521 311.57001
-3.8072042 -4.2926822 -2.0883751 311.57001
-4.1061335 -4.6297293 -2.0910041 311.57001
-4.4313602 -4.996428 -2.0839317 311.57001
-4.83603 -5.4526992 -2.0898824 311.57001
-5.3200974 -5.9984932 -2.098948 311.57001
-5.9168081 -6.6712937 -2.1128452 311.57001
-6.594193 -7.4350557 -2.1123829 311.57001
-7.4491563 -8.3990402 -2.1151776 311.57001
-8.5813694 -9.6146116 -2.1172938 311.75
-10.084885 -11.299158 -2.1285133 311.75
-11.776438 -13.194385 -2.0681794 311.75
-13.488123 -15.112165 -1.8897935 311.75
-13.982665 -15.666252 -1.4683738 311.75
-3.1121302 -3.4868472 -2.0808647 311.75
-18.109613 -20.290108 -1.2682804 311.75
-3.3167238 -3.7160749 -2.080513 311.75
-32.612755 -36.539505 -1.1370968 311.75
-3.5603461 -3.9890308 -2.087862 311.75
-3.8194199 -4.2792983 -2.0876911 311.75
-4.1156111 -4.6111526 -2.0884433 311.75
-4.4457636 -4.9810572 -2.0833359 311.75
-4.8531361 -5.4374795 -2.0898824 311.75
-5.3376279 -5.9803066 -2.0984416 311.75
-5.9325538 -6.6468654 -2.1110005 311.75
-6.6162157 -7.4128437 -2.1119668 311.75
-7.472888 -8.3726635 -2.1144369 311.75
-8.6170549 -9.6038647 -2.1198878 311.89999
-10.121044 -11.280088 -2.1299052 311.89999
-11.80298 -13.154637 -2.0667856 311.89999
-13.519661 -15.067908 -1.8886788 311.89999
-13.622575 -15.182608 -1.4263804 311.89999
-3.1188076 -3.4759679 -2.0792377 311.89999
-17.714375 -19.742992 -1.2369763 311.89999
-3.3276734 -3.7087526 -2.081284 311.89999
-32.267651 -35.962887 -1.1217777 311.89999
-3.5695331 -3.9783096 -2.0871344 311.89999
-3.8306098 -4.2692847 -2.0876911 311.89999
-4.1264033 -4.5989518 -2.0878029 311.89999
-4.4587889 -4.9694014 -2.0833359 311.89999
-4.8724904 -5.4304795 -2.0920875 311.89999
-5.3584342 -5.9720726 -2.1004674 311.89999
-5.9512348 -6.6327596 -2.1114616 311.89999
-6.6342936 -7.3940406 -2.111551 311.89999
-7.4974074 -8.3559971 -2.1151776 311.89999
-8.6435633 -9.5693789 -2.1185908 312.09
-10.170342 -11.259691 -2.1324103 312.09
-11.831892 -13.099209 -2.0642302 312.09
-13.568219 -15.021515 -1.8884931 312.09
-13.897519 -15.386086 -1.4498185 312.09
-3.1303172 -3.4656065 -2.0792377 312.09
-17.639137 -19.528471 -1.2271938 312.09
-3.3411908 -3.6990669 -2.0820549 312.09
-31.708574 -35.104889 -1.0982884 312.09
-3.5877011 -3.9719808 -2.0900443 312.09
-3.8397074 -4.2509794 -2.0849547 312.09
-4.1479816 -4.5922732 -2.0910041 312.09
-4.4714041 -4.9503379 -2.0815487 312.09
-4.8866057 -5.4100118 -2.0904336 312.09
-5.3756151 -5.9513993 -2.0994544 312.09
-5.973197 -6.612988 -2.1114616 312.09
-6.6627102 -7.3763552 -2.1127987 312.09
-7.5263929 -8.3325472 -2.1155479 312.09
-8.6559925 -9.5261631 -2.1147001 312.26001
-10.197046 -11.222136 -2.1310186 312.26001
-11.866698 -13.059635 -2.0635333 312.26001
-13.798875 -15.18605 -1.914317 312.26001
-14.024954 -15.434856 -1.4583288 312.26001
-3.1393573 -3.4549513 -2.0784242 312.26001
-18.05035 -19.86492 -1.2516967 312.26001
-3.3521514 -3.689137 -2.0820549 312.26001
-31.637791 -34.818279 -1.0922536 312.26001
-3.5919533 -3.9530456 -2.0856795 312.26001
-3.8573589 -4.245132 -2.0876911 312.26001
-4.1577663 -4.5757389 -2.0890834 312.26001
-4.4886403 -4.9398751 -2.0827403 312.26001
-4.9026361 -5.3954892 -2.0904336 312.26001
-5.3880453 -5.9296951 -2.0974286 312.26001
-5.9941006 -6.5966763 -2.1119227 312.26001
-6.6832514 -7.3551064 -2.1123829 312.26001
-7.5524049 -8.3116341 -2.1159182 312.26001
-8.6842184 -9.5004387 -2.1147001 312.42999
-10.224954 -11.185985 -2.1299052 312.42999
-11.885291 -13.002376 -2.0600488 312.42999
-13.388411 -14.646771 -1.8513362 312.42999
-14.086841 -15.410847 -1.460003 312.42999
-3.1508274 -3.44697 -2.0792377 312.42999
-17.982508 -19.672663 -1.242939 312.42999
-3.3630826 -3.6791749 -2.0820549 312.42999
-31.827295 -34.818707 -1.0952245 312.42999
-3.6074371 -3.946496 -2.087862 312.42999
-3.8686693 -4.2322812 -2.0870068 312.42999
-4.1726027 -4.5647807 -2.0897236 312.42999
-4.5019894 -4.9251261 -2.0821445 312.42999
-4.916029 -5.3780808 -2.0893312 312.42999
-5.414753 -5.9236794 -2.1009741 312.42999
-6.0123339 -6.577426 -2.1114616 312.42999
-6.7024055 -7.3323565 -2.111551 312.42999
-7.5743804 -8.2862873 -2.1151776 312.42999
-8.7300558 -9.4905386 -2.1185908 312.60999
-10.256022 -11.149434 -2.12907 312.60999
-11.918011 -12.956201 -2.058655 312.60999
-14.136537 -15.367984 -1.4601425 312.60999
-3.1641147 -3.4397438 -2.0808647 312.60999
-17.994179 -19.561668 -1.2394918 312.60999
-3.3708763 -3.6645164 -2.0797422 312.60999
-30.589649 -33.254341 -1.0490351 312.60999
-3.6198175 -3.9351435 -2.087862 312.60999
-3.8819463 -4.2201066 -2.0870068 312.60999
-4.1933365 -4.5586224 -2.0929248 312.60999
-4.5161471 -4.9095531 -2.0815487 312.60999
-4.9315991 -5.3611951 -2.0887799 312.60999
-5.4346457 -5.9080629 -2.1014805 312.60999
-6.0290151 -6.5542083 -2.1100783 312.60999
-6.7254076 -7.311264 -2.111551 312.60999
-7.6003752 -8.2624512 -2.1151776 312.60999
-8.7565241 -9.4661226 -2.1185908 312.76999
-10.284428 -11.117843 -2.1285133 312.76999
-11.942005 -12.909744 -2.0565643 312.76999
-14.139041 -15.284821 -1.9425561 312.76999
-14.274234 -15.430969 -1.4699084 312.76999
-3.1699858 -3.4268708 -2.0784242 312.76999
-18.06637 -19.530409 -1.240703 312.76999
-3.3836029 -3.6577985 -2.081284 312.76999
-31.92609 -34.513271 -1.0915573 312.76999
-3.6244671 -3.9181817 -2.0842245 312.76999
-3.8937161 -4.2092495 -2.0870068 312.76999
-4.1957574 -4.5357671 -2.0878029 312.76999
-4.5324326 -4.8997254 -2.0827403 312.76999
-4.9387178 -5.3389349 -2.0854723 312.76999
-5.4498091 -5.8914433 -2.1009741 312.76999
-6.051259 -6.5416327 -2.1114616 312.76999
-6.7457981 -7.2924547 -2.111551 312.76999
-7.6220841 -8.2397518 -2.1148071 312.76999
-8.7805386 -9.4357662 -2.1176181 312.94
-10.310623 -11.080029 -2.1271217 312.94
-11.96537 -12.858258 -2.054009 312.94
-14.159911 -15.216561 -1.9392121 312.94
-14.083464 -15.13441 -1.4456332 312.94
-3.1801395 -3.4174502 -2.0784242 312.94
-18.411407 -19.785316 -1.2603612 312.94
-3.3931835 -3.6463921 -2.080513 312.94
-30.728912 -33.021988 -1.047271 312.94
-3.6348073 -3.9060464 -2.083497 312.94
-3.9049077 -4.1963024 -2.0863228 312.94
-4.2104874 -4.5246854 -2.0884433 312.94
-4.5469503 -4.8862562 -2.0827403 312.94
-4.9623952 -5.3327026 -2.0887799 312.94
-5.4659472 -5.8738313 -2.1004674 312.94
-6.0666647 -6.5193753 -2.1100783 312.94
-6.7674055 -7.2724075 -2.111551 312.94
-7.6505151 -8.2214165 -2.1159182 312.94
-8.8087893 -9.4066944 -2.1172938 313.12
-10.346735 -11.049029 -2.1273999 313.12
-11.994844 -12.809005 -2.0521505 313.12
-14.199478 -15.16328 -1.9380974 313.12
-14.248221 -15.215332 -1.4576312 313.12
-3.1896112 -3.4061089 -2.0776107 313.12
-18.676945 -19.944658 -1.274243 313.12
-3.407145 -3.6384082 -2.0820549 313.12
-32.423328 -34.624092 -1.1013057 313.12
-3.6508808 -3.8986876 -2.0856795 313.12
-3.9180715 -4.1840138 -2.0863228 313.12
-4.2311568 -4.5183506 -2.0916443 313.12
-4.5635834 -4.8733411 -2.0833359 313.12
-4.9804382 -5.3184896 -2.0893312 313.12
-5.4843736 -5.8566303 -2.1004674 313.12
-6.0937667 -6.5073867 -2.1123838 313.12
-6.7888818 -7.2496834 -2.1111352 313.12
-7.674962 -8.1959066 -2.1155479 313.12
-8.8353081 -9.3790798 -2.1169696 313.29001
-10.379473 -11.018281 -2.1273999 313.29001
-12.020537 -12.760346 -2.0500598 313.29001
-14.208904 -15.083397 -1.933267 313.29001
-14.271415 -15.149754 -1.455399 313.29001
-3.1997032 -3.39663 -2.0776107 313.29001
-19.141527 -20.319599 -1.3018204 313.29001
-3.4128637 -3.6229098 -2.0789714 313.29001
-32.436802 -34.433136 -1.0982884 313.29001
-3.661155 -3.886482 -2.0849521 313.29001
-3.931757 -4.1737385 -2.0870068 313.29001
-4.2445445 -4.5057764 -2.0916443 313.29001
-4.5754046 -4.8569999 -2.0821445 313.29001
-4.9935598 -5.3008904 -2.0882287 313.29001
-5.499073 -5.8375154 -2.0994544 313.29001
-6.1063757 -6.4821949 -2.1100783 313.29001
-6.8117037 -7.2309322 -2.111551 313.29001
-7.7005935 -8.1745291 -2.1159182 313.29001
-8.8628216 -9.3558035 -2.1172938 313.45001
-10.407476 -10.986378 -2.1268432 313.45001
-12.047928 -12.718076 -2.048666 313.45001
-14.315336 -15.111606 -1.9419988 313.45001
-14.231339 -15.022937 -1.4470283 313.45001
