# .PCD v0.7 - Point Cloud Data file format
VERSION 0.7
FIELDS x y z intensity
SIZE 4 4 4 4
TYPE F F F F
COUNT 1 1 1 1
WIDTH 1198
HEIGHT 1
VIEWPOINT 0 0 0 1 0 0 0
POINTS 1198
DATA ascii
4.9260812 -0.48908341 -1.8017621 185.67
38.211781 -3.7938368 0.89152664 185.67
5.4471684 -0.54081929 -1.849636 185.67
44.922073 -4.4600649 2.1051981 185.67
5.7984004 -0.57569116 -1.8182274 185.67
30.566708 -3.0347998 2.1479414 185.67
6.278851 -0.62339246 -1.8092836 185.67
6.756 -0.67076594 -1.7773187 185.67
45.996864 -4.5667748 5.4054213 185.67
7.3203292 -0.72679514 -1.743028 185.67
7.9874082 -0.79302567 -1.7061234 185.67
7.5885186 -0.75342214 -1.4367802 185.67
7.5765061 -0.77360165 -1.2512461 185.83
7.5738029 -0.77332562 -1.0699629 185.83
7.5885639 -0.77483279 -0.89203739 185.83
7.6745973 -0.78361726 -0.71972674 185.83
8.5426159 -0.87224662 -0.60046375 185.83
4.211473 -0.43001384 -1.8848176 185.83
4.4503055 -0.45439988 -1.8685305 185.83
4.7056956 -0.48047659 -1.8470668 185.83
4.9265656 -0.50302857 -1.8024461 185.83
36.963802 -3.7742012 0.86265236 185.83
5.4362121 -0.55506623 -1.8464348 185.83
36.385078 -3.7151101 1.7056056 185.83
5.7587833 -0.58800244 -1.8063124 185.83
30.701019 -3.1347375 2.1579862 185.83
6.2789984 -0.64111918 -1.8098348 185.83
6.7541003 -0.68962961 -1.7773187 185.83
46.094597 -4.7065039 5.4184299 185.83
7.3221436 -0.74762982 -1.7439502 185.83
7.9890547 -0.81572503 -1.706955 185.83
7.6294007 -0.77900243 -1.444927 185.83
7.585815 -0.79863989 -1.2531916 186.00999
7.5811844 -0.79815239 -1.0713545 186.00999
7.5821414 -0.79825312 -0.89157277 186.00999
7.693882 -0.81001729 -0.72177035 186.00999
8.4624519 -0.8909328 -0.59502274 186.00999
4.2064676 -0.44285983 -1.8831906 186.00999
4.4543619 -0.46895835 -1.8708431 186.00999
24.171858 -2.5448301 -0.56430084 186.00999
4.7004576 -0.49486744 -1.8456118 186.00999
8.628314 -0.90839487 0 186.00999
4.9343066 -0.5194872 -1.8058664 186.00999
36.878189 -3.8825617 0.86093479 186.00999
5.3835645 -0.56678545 -1.8291485 186.00999
36.116924 -3.8024149 1.6935871 186.00999
5.7701983 -0.60749054 -1.8104827 186.00999
46.244865 -4.8686919 3.2516282 186.00999
6.2712173 -0.66023815 -1.808181 186.00999
6.7519007 -0.71084481 -1.7773187 186.00999
7.3178229 -0.77042556 -1.7434891 186.00999
7.9786706 -0.84000003 -1.7052916 186.00999
7.646462 -0.80502486 -1.44863 186.00999
7.6187291 -0.8249681 -1.259028 186.17999
7.5984731 -0.82277477 -1.074138 186.17999
7.6133132 -0.82438165 -0.89552188 186.17999
7.6775861 -0.83134127 -0.72046983 186.17999
8.3467093 -0.903795 -0.58707047 186.17999
4.2105842 -0.45592877 -1.8856311 186.17999
4.4492812 -0.48177528 -1.8693013 186.17999
4.704525 -0.50941342 -1.8477942 186.17999
4.9308748 -0.53392297 -1.8051823 186.17999
37.293896 -4.0382423 0.87091541 186.17999
5.1821823 -0.56113493 -1.7612836 186.17999
36.214725 -3.9213879 1.6987113 186.17999
5.8006387 -0.62810242 -1.8206104 186.17999
30.746754 -3.3293076 2.1625903 186.17999
6.265408 -0.67842835 -1.8070785 186.17999
46.982155 -5.0873027 4.4088368 186.17999
6.747838 -0.7306667 -1.7768122 186.17999
46.28223 -5.0115132 5.4439831 186.17999
7.3174396 -0.79234403 -1.7439502 186.17999
7.9780879 -0.8638801 -1.7057076 186.17999
7.6850739 -0.83215201 -1.4564064 186.17999
7.6319394 -0.84931588 -1.2616218 186.35001
7.6196189 -0.84794486 -1.0774782 186.35001
7.628602 -0.84894449 -0.89761257 186.35001
7.6968565 -0.85654014 -0.7225135 186.35001
8.3201962 -0.92590821 -0.58539635 186.35001
4.2092133 -0.46841982 -1.8856311 186.35001
4.4515009 -0.49538264 -1.8708431 186.35001
4.7011414 -0.52316374 -1.8470668 186.35001
4.9330049 -0.54896653 -1.8065504 186.35001
37.480469 -4.1709919 0.8755576 186.35001
5.1409488 -0.57210743 -1.7478387 186.35001
30.520224 -3.3964252 1.4320678 186.35001
5.7778769 -0.64298767 -1.8140572 186.35001
30.762518 -3.423389 2.1644039 186.35001
6.2633677 -0.69701517 -1.8070785 186.35001
38.141891 -4.2445979 3.5804267 186.35001
6.7437177 -0.7504707 -1.7763057 186.35001
37.848843 -4.2119865 4.4534502 186.35001
7.3150568 -0.81405181 -1.7439502 186.35001
37.391445 -4.1610851 5.2874646 186.35001
7.9677124 -0.88668221 -1.7040442 186.35001
7.7040577 -0.85734159 -1.4604797 186.35001
7.6628718 -0.87442875 -1.267134 186.50999
7.6447701 -0.87236315 -1.081375 186.50999
7.6577802 -0.87384772 -0.9013294 186.50999
7.7181764 -0.88073975 -0.72474289 186.50999
8.2957735 -0.94665068 -0.58386171 186.50999
4.2115192 -0.48058662 -1.8872581 186.50999
4.4519334 -0.50802088 -1.8716139 186.50999
4.6996617 -0.53628975 -1.8470668 186.50999
38.098747 -4.3475399 0 186.50999
4.9277182 -0.5623138 -1.8051823 186.50999
37.881882 -4.3227925 0.88521326 186.50999
5.1750994 -0.59054303 -1.7600032 186.50999
30.429237 -3.4723537 1.4282478 186.50999
5.7703681 -0.65847063 -1.8122699 186.50999
29.496084 -3.3658693 2.0759528 186.50999
6.2594867 -0.71428508 -1.8065273 186.50999
29.574802 -3.3748519 2.7770972 186.50999
6.7473626 -0.76995784 -1.7778251 186.50999
38.338242 -4.3748693 4.5124545 186.50999
7.3127546 -0.83447605 -1.7439502 186.50999
31.161539 -3.5559185 4.4078903 186.50999
7.9671493 -0.9091506 -1.70446 186.50999
7.7328777 -0.88241732 -1.4664046 186.50999
7.6775703 -0.90190727 -1.2700521 186.7
7.6693735 -0.90094429 -1.0852718 186.7
7.6528673 -0.89900529 -0.90109712 186.7
7.7310357 -0.90818793 -0.72622913 186.7
8.262866 -0.97066367 -0.58176899 186.7
4.2044587 -0.49391037 -1.8848176 186.7
4.4575558 -0.52364248 -1.8746972 186.7
4.6960073 -0.5516541 -1.8463392 186.7
4.9258261 -0.57865161 -1.8051823 186.7
38.012302 -4.4654193 0.88860208 186.7
5.2690849 -0.61897522 -1.7926551 186.7
29.592134 -3.4762769 1.3894905 186.7
5.7055793 -0.67025155 -1.7926102 186.7
37.72781 -4.4319992 2.6563265 186.7
6.2609024 -0.73548698 -1.8076298 186.7
29.67618 -3.48615 2.7876871 186.7
6.7466941 -0.79255438 -1.7783316 186.7
38.276173 -4.496417 4.5068793 186.7
7.3099475 -0.85872144 -1.7439502 186.7
7.9640903 -0.93556559 -1.70446 186.7
7.7591891 -0.91149521 -1.4719591 186.7
7.7042513 -0.92822409 -1.2749157 186.87
7.6902623 -0.92653865 -1.088612 186.87
7.679749 -0.92527205 -0.90458167 186.87
7.7283068 -0.93112236 -0.72622913 186.87
8.2322187 -0.9918347 -0.5798158 186.87
4.2011604 -0.50616449 -1.8840041 186.87
4.4321637 -0.53399622 -1.8646762 186.87
4.6961994 -0.56580782 -1.8470668 186.87
4.9259534 -0.59348905 -1.8058664 186.87
38.165634 -4.5982742 0.89250147 186.87
5.2540574 -0.63301969 -1.7881736 186.87
37.991665 -4.5773139 1.7845179 186.87
37.906631 -4.5670695 2.6698592 186.87
6.2529664 -0.75337029 -1.8059759 186.87
6.7404709 -0.81210583 -1.7773187 186.87
7.3092995 -0.88063949 -1.7444113 186.87
31.229033 -3.7625382 4.4206944 186.87
7.9593372 -0.95895737 -1.7040442 186.87
7.7759633 -0.93686414 -1.4756622 186.87
7.7269258 -0.95422339 -1.2791308 187.03999
7.7287569 -0.95444953 -1.0944573 187.03999
7.7085137 -0.95194966 -0.90829843 187.03999
7.7867765 -0.96161455 -0.73198843 187.03999
8.2193394 -1.0150331 -0.57911825 187.03999
4.2032671 -0.51907521 -1.8856311 187.03999
8.0302057 -0.99167645 -0.37732574 187.03999
4.4452124 -0.54895383 -1.8708431 187.03999
4.6963491 -0.57996756 -1.8477942 187.03999
4.9223056 -0.60787165 -1.8051823 187.03999
38.312557 -4.7313433 0.89626163 187.03999
5.2051439 -0.64280033 -1.7721677 187.03999
30.39978 -3.7541687 1.4284343 187.03999
5.3566451 -0.66150963 -1.6841838 187.03999
29.701298 -3.6679106 2.0926943 187.03999
6.2564278 -0.77262676 -1.8076298 187.03999
37.902233 -4.6806712 3.562963 187.03999
6.7341909 -0.83162737 -1.7763057 187.03999
37.675114 -4.6526237 4.4392796 187.03999
7.3105173 -0.90279973 -1.7453336 187.03999
31.044758 -3.8338189 4.3961997 187.03999
7.9622817 -0.98328829 -1.7052916 187.03999
7.8121614 -0.96474946 -1.4830682 187.03999
7.7475557 -0.98011774 -1.2830218 187.21001
7.7337508 -0.97837126 -1.0955707 187.21001
7.7253628 -0.97731018 -0.91062146 187.21001
7.7759867 -0.9837144 -0.73124534 187.21001
8.2301464 -1.0411687 -0.58009481 187.21001
4.2017083 -0.53154427 -1.8856311 187.21001
8.0272284 -1.0154982 -0.37732574 187.21001
4.4362402 -0.56121415 -1.8677596 187.21001
20.540707 -2.598537 -0.48069555 187.21001
4.6946077 -0.59389931 -1.8477942 187.21001
4.9204803 -0.62247372 -1.8051823 187.21001
38.562176 -4.8783736 0.90243566 187.21001
5.2633667 -0.66585118 -1.7926551 187.21001
29.893 -3.7816648 1.4051424 187.21001
5.4076939 -0.68410951 -1.7008648 187.21001
29.664553 -3.7527647 2.0908806 187.21001
5.3061686 -0.6712659 -1.5336462 187.21001
38.478886 -4.867837 3.6185124 187.21001
6.7336135 -0.85184723 -1.7768122 187.21001
37.641438 -4.7618942 4.4369569 187.21001
7.3174601 -0.92570776 -1.7476392 187.21001
31.147209 -3.9403307 4.412344 187.21001
7.9573884 -1.006663 -1.7048758 187.21001
7.8814101 -0.99705118 -1.4967695 187.21001
7.7796669 -1.0090216 -1.2888581 187.39
7.7483158 -1.0049554 -1.0980757 187.39
7.7616539 -1.0066854 -0.91526753 187.39
7.8024802 -1.0119805 -0.73403209 187.39
8.2624493 -1.0716385 -0.58260608 187.39
4.1982055 -0.54450667 -1.8848176 187.39
8.0656042 -1.0461076 -0.37928227 187.39
4.4362855 -0.57538557 -1.8685305 187.39
20.46106 -2.6537964 -0.47902438 187.39
4.6945662 -0.60888451 -1.8485217 187.39
68.524048 -8.8875589 0 187.39
4.9203644 -0.63817054 -1.8058664 187.39
38.766758 -5.0280428 0.90758848 187.39
5.2875552 -0.68579513 -1.8016185 187.39
29.980034 -3.888406 1.4098008 187.39
5.5077591 -0.71435553 -1.7330352 187.39
31.63315 -4.1028147 2.2305331 187.39
36.907253 -4.7868652 3.4721148 187.39
6.7404976 -0.87424153 -1.7793447 187.39
37.892235 -4.9146175 4.4683175 187.39
7.3164458 -0.94894195 -1.7481003 187.39
31.203419 -4.0470786 4.4220862 187.39
7.9541864 -1.0316567 -1.7048758 187.39
7.9932356 -1.0367215 -1.5186175 187.39
7.8118539 -1.0367736 -1.2946944 187.56
7.7806396 -1.0326308 -1.103086 187.56
7.7743864 -1.031801 -0.91712594 187.56
7.8251057 -1.0385324 -0.73644727 187.56
8.2295666 -1.0922115 -0.58051336 187.56
4.1947603 -0.5567202 -1.8840041 187.56
8.0604839 -1.0697713 -0.3791891 187.56
4.4382176 -0.58903134 -1.8700721 187.56
20.443184 -2.7131784 -0.47879228 187.56
4.6890454 -0.62232065 -1.8470668 187.56
4.9128599 -0.65202492 -1.8038143 187.56
61.159096 -8.1169128 1.4323845 187.56
5.298645 -0.70322555 -1.8061 187.56
30.043623 -3.9873292 1.4133412 187.56
5.5472527 -0.73622024 -1.7461418 187.56
5.303875 -0.70391965 -1.5341976 187.56
36.902756 -4.8976598 3.4730437 187.56
6.7359562 -0.89398259 -1.7788382 187.56
29.516281 -3.9173415 3.4819655 187.56
7.3000937 -0.96885377 -1.7448725 187.56
29.100338 -3.8621385 4.1256475 187.56
7.9510903 -1.0552528 -1.7048758 187.56
8.0115557 -1.0632776 -1.5226908 187.56
7.826714 -1.0596043 -1.2976125 187.71001
7.7975359 -1.055654 -1.1058694 187.71001
7.8051229 -1.0566813 -0.92107505 187.71001
7.8361735 -1.060885 -0.73774773 187.71001
4.1914778 -0.56745499 -1.8831906 187.71001
8.0992308 -1.0964985 -0.3811456 187.71001
4.4330029 -0.60015339 -1.8685305 187.71001
20.493471 -2.7744684 -0.48013848 187.71001
4.685554 -0.63434446 -1.8463392 187.71001
4.9167233 -0.66564095 -1.8058664 187.71001
31.35939 -4.2455297 0.73471451 187.71001
5.2836428 -0.71531558 -1.8016185 187.71001
37.552238 -5.0839362 1.7671889 187.71001
5.3144884 -0.71949154 -1.6734604 187.71001
31.060112 -4.2050118 2.1917484 187.71001
6.2107673 -0.84083253 -1.7971556 187.71001
29.724573 -4.0242028 2.7984624 187.71001
6.7278409 -0.9108355 -1.7773187 187.71001
29.464586 -3.9890049 3.4770873 187.71001
7.2936749 -0.98743987 -1.7439502 187.71001
29.726019 -4.0243988 4.2158318 187.71001
7.9483004 -1.0760651 -1.7048758 187.71001
7.9951115 -1.0824025 -1.5200987 187.71001
7.8466153 -1.0888078 -1.3015035 187.89999
7.8214564 -1.0853168 -1.1097664 187.89999
7.8271551 -1.0861075 -0.92409497 187.89999
7.848392 -1.0890543 -0.73923403 187.89999
4.1913829 -0.58160245 -1.8840041 187.89999
8.103466 -1.1244488 -0.38151827 187.89999
4.4309883 -0.6148504 -1.8685305 187.89999
4.6852698 -0.65013492 -1.8470668 187.89999
4.9089046 -0.68116677 -1.8038143 187.89999
31.063911 -4.3104739 0.72812259 187.89999
5.2587199 -0.72970772 -1.7939357 187.89999
30.120356 -4.1795444 1.4180927 187.89999
5.6865091 -0.78906834 -1.7914187 187.89999
31.16852 -4.3249898 2.2003982 187.89999
5.3453074 -0.7417227 -1.5474281 187.89999
30.715044 -4.2620645 2.8930264 187.89999
6.7171178 -0.93207711 -1.7752926 187.89999
29.535803 -4.0984311 3.4870763 187.89999
7.2884331 -1.0113536 -1.7434891 187.89999
28.927814 -4.0140662 4.1044931 187.89999
7.9446883 -1.1024166 -1.7048758 187.89999
30.254625 -4.1981759 5.0182786 187.89999
7.9661698 -1.1053975 -1.5152848 187.89999
7.9117398 -1.1217812 -1.3128519 188.07001
7.8633032 -1.1149135 -1.1161683 188.07001
7.8474994 -1.1126727 -0.92688257 188.07001
7.8904738 -1.118766 -0.74350703 188.07001
8.0377846 -1.1396526 -0.56767821 188.07001
4.1896391 -0.59403592 -1.8840041 188.07001
8.1554794 -1.1563402 -0.38412693 188.07001
4.4327989 -0.62851286 -1.8700721 188.07001
4.6870093 -0.66455656 -1.8485217 188.07001
4.910583 -0.69625646 -1.8051823 188.07001
5.2715397 -0.74743533 -1.7990575 188.07001
30.776402 -4.3636909 1.4495831 188.07001
5.7521939 -0.81558579 -1.8128657 188.07001
5.4934583 -0.7789005 -1.5909789 188.07001
38.034763 -5.3928318 3.5839567 188.07001
6.7296476 -0.95417595 -1.7793447 188.07001
37.408382 -5.304019 4.4183726 188.07001
7.2796197 -1.0321548 -1.7421057 188.07001
30.051153 -4.26086 4.2656555 188.07001
7.9394455 -1.1257095 -1.70446 188.07001
7.9589634 -1.1284769 -1.5145441 188.07001
7.9161897 -1.1463822 -1.3141489 188.24001
7.8834815 -1.1416457 -1.1195084 188.24001
7.8677549 -1.1393682 -0.92967021 188.24001
7.9048567 -1.1447411 -0.74517912 188.24001
8.0383167 -1.164068 -0.56795722 188.24001
4.1842413 -0.60594052 -1.8823771 188.24001
8.1441031 -1.1793876 -0.38375428 188.24001
4.4236088 -0.6406045 -1.8669888 188.24001
4.6794858 -0.67765927 -1.8463392 188.24001
104.36929 -15.114229 0 188.24001
4.902916 -0.7100153 -1.8031301 188.24001
31.174324 -4.5145068 0.73132569 188.24001
5.2655487 -0.76252991 -1.7977771 188.24001
37.203072 -5.3875589 1.7530276 188.24001
5.6514945 -0.81842065 -1.7818867 188.24001
29.614019 -4.2885513 2.0924151 188.24001
37.955532 -5.4965267 3.5780115 188.24001
5.5510831 -0.80387956 -1.468352 188.24001
31.144672 -4.5102124 3.6801188 188.24001
7.276525 -1.0537492 -1.7421057 188.24001
7.9360709 -1.1492614 -1.70446 188.24001
29.793623 -4.3145604 4.9459729 188.24001
7.9594703 -1.1526499 -1.5152848 188.24001
7.9301195 -1.1738468 -1.317067 188.42
7.8955297 -1.1687267 -1.1217352 188.42
7.8955774 -1.1687338 -0.93338698 188.42
7.8854623 -1.1672364 -0.74369282 188.42
8.0681715 -1.1942818 -0.57032895 188.42
4.1823173 -0.61908269 -1.8823771 188.42
8.1779079 -1.2105254 -0.38552445 188.42
4.4233999 -0.65476871 -1.8677596 188.42
4.6810193 -0.69290251 -1.8477942 188.42
104.34108 -15.444968 0 188.42
4.9043794 -0.72596508 -1.8044983 188.42
31.067026 -4.5986605 0.72914392 188.42
5.3024879 -0.7848947 -1.811222 188.42
30.456678 -4.5083146 1.4357944 188.42
5.5676847 -0.82415009 -1.7562695 188.42
30.443138 -4.5063105 2.1519873 188.42
5.7415376 -0.84988445 -1.6642983 188.42
30.793291 -4.5581417 2.9041734 188.42
5.4930258 -0.81309885 -1.4536633 188.42
30.460266 -4.5088458 3.600904 188.42
7.2731786 -1.0766039 -1.7421057 188.42
28.872561 -4.2738276 4.1019878 188.42
7.9362917 -1.1747605 -1.7052916 188.42
29.73502 -4.4014921 4.9385152 188.42
7.9733081 -1.1802397 -1.5186175 188.42
7.9988036 -1.2082773 -1.329064 188.59
7.9292355 -1.1977686 -1.1270238 188.59
7.9058247 -1.1942322 -0.93501312 188.59
7.9114995 -1.1950895 -0.74647957 188.59
4.1822686 -0.63176203 -1.8831906 188.59
8.2394686 -1.2446316 -0.38859895 188.59
4.4104891 -0.6662364 -1.8631345 188.59
21.664318 -3.2725525 -0.50868779 188.59
4.6752586 -0.70623177 -1.8463392 188.59
4.9022036 -0.74051344 -1.8044983 188.59
31.001841 -4.683053 0.72793692 188.59
5.2270694 -0.78958678 -1.7862527 188.59
55.035149 -8.3134584 2.5956285 188.59
5.6596041 -0.85492432 -1.786057 188.59
29.727335 -4.4905295 2.1023207 188.59
6.0811629 -0.91860378 -1.7635278 188.59
5.444675 -0.82245767 -1.4415072 188.59
30.625494 -4.6262031 3.6220434 188.59
7.2680278 -1.0978884 -1.7416446 188.59
28.881294 -4.3627291 4.1050496 188.59
7.9405084 -1.1994715 -1.706955 188.59
28.902239 -4.3658934 4.8023338 188.59
8.0983429 -1.2493482 -1.3462487 188.77
7.9704528 -1.2296183 -1.1334257 188.77
7.9452248 -1.2257264 -0.94012374 188.77
7.9588757 -1.2278323 -0.75130999 188.77
8.411706 -1.2976913 -0.59516221 188.77
4.180263 -0.64489788 -1.8831906 188.77
4.4211416 -0.68205869 -1.8685305 188.77
4.6785407 -0.7217682 -1.8485217 188.77
61.012226 -9.4124832 0 188.77
4.8998532 -0.75591052 -1.8044983 188.77
30.645113 -4.7276855 0.71990597 188.77
5.2395439 -0.80831528 -1.7913747 188.77
30.531244 -4.7101183 1.440639 188.77
5.6267004 -0.86804277 -1.776525 188.77
30.306593 -4.6754608 2.1443141 188.77
5.582335 -0.86119837 -1.6196451 188.77
5.512815 -0.8504734 -1.4602479 188.77
29.289551 -4.5185599 3.4657044 188.77
7.2587729 -1.119826 -1.7402613 188.77
28.957485 -4.4673314 4.1178536 188.77
7.9425011 -1.2253062 -1.7082025 188.77
28.927391 -4.4626884 4.8088188 188.77
8.0987215 -1.2725708 -1.3468972 188.92999
8.0295973 -1.2617091 -1.1423328 188.92999
7.9613948 -1.2509923 -0.94244677 188.92999
7.9750881 -1.253144 -0.75316781 188.92999
8.2720547 -1.299807 -0.58553582 188.92999
4.171226 -0.65543437 -1.8799368 188.92999
17.213848 -2.7048516 -0.81260127 188.92999
4.4064579 -0.69239688 -1.8631345 188.92999
4.685709 -0.73627621 -1.852159 188.92999
30.612387 -4.8101945 0 188.92999
4.89958 -0.76988226 -1.8051823 188.92999
30.572535 -4.8039327 0.71851337 188.92999
5.2204199 -0.82029665 -1.7856126 188.92999
30.585073 -4.805903 1.4438068 188.92999
5.450736 -0.85648674 -1.721716 188.92999
30.470804 -4.7879477 2.1568701 188.92999
5.5172338 -0.86693567 -1.6014531 188.92999
30.033466 -4.7192278 2.8363624 188.92999
5.3804464 -0.845442 -1.4258057 188.92999
29.33569 -4.6095843 3.4726737 188.92999
7.2594624 -1.140696 -1.7411835 188.92999
28.643593 -4.5008335 4.0749884 188.92999
7.9448462 -1.248392 -1.7094499 188.92999
8.2576094 -1.2975372 -1.5749037 188.92999
8.0788689 -1.2969177 -1.3443034 189.12
8.0390577 -1.2905267 -1.1442813 189.12
7.9768162 -1.280535 -0.9447698 189.12
8.0102119 -1.2858962 -0.7568835 189.12
8.1928425 -1.315214 -0.58023435 189.12
4.1672258 -0.66897345 -1.8791233 189.12
17.198868 -2.7609701 -0.81232178 189.12
4.420537 -0.70963806 -1.8700721 189.12
20.503885 -3.2915318 -0.48213461 189.12
4.6814022 -0.75151527 -1.8514316 189.12
4.8932886 -0.78552985 -1.8038143 189.12
5.1933508 -0.83369946 -1.7772895 189.12
54.139248 -8.6910868 2.5570574 189.12
5.5949016 -0.89816129 -1.7681845 189.12
38.46637 -6.1750865 2.7242694 189.12
5.4611788 -0.87669444 -1.5860174 189.12
30.001923 -4.8162713 2.8348761 189.12
29.404581 -4.7203789 3.4826624 189.12
7.2614045 -1.1656884 -1.7425669 189.12
28.74975 -4.6152573 4.0922461 189.12
7.9406629 -1.2747312 -1.7094499 189.12
8.1639948 -1.3105831 -1.5578697 189.12
8.0557384 -1.3162905 -1.3410609 189.28
8.0354223 -1.3129709 -1.1442813 189.28
7.9986954 -1.3069698 -0.94778967 189.28
8.0242777 -1.31115 -0.75855553 189.28
8.175354 -1.3358356 -0.57925779 189.28
4.1707511 -0.68149185 -1.8815637 189.28
17.195034 -2.8096318 -0.81250811 189.28
4.4039674 -0.71959895 -1.8639054 189.28
4.6719308 -0.76338357 -1.8485217 189.28
4.8947854 -0.79979753 -1.8051823 189.28
30.578138 -4.9964027 0.71934897 189.28
5.1966124 -0.84911537 -1.7792102 189.28
29.634371 -4.8421931 1.4002978 189.28
5.6451302 -0.92240226 -1.7848655 189.28
29.942825 -4.8925943 2.1215734 189.28
31.016203 -5.0679817 2.9320409 189.28
29.299143 -4.7874174 3.4717443 189.28
5.542984 -0.90571183 -1.330788 189.28
28.812981 -4.7079797 4.1031013 189.28
7.9370723 -1.2969007 -1.7094499 189.28
8.1021118 -1.3238679 -1.5467606 189.28
8.090497 -1.3480792 -1.3475457 189.46001
8.0566549 -1.3424401 -1.1478997 189.46001
8.0337391 -1.3386219 -0.95243573 189.46001
8.0240479 -1.337007 -0.75892711 189.46001
8.2222853 -1.3700384 -0.58288509 189.46001
4.1667871 -0.69429094 -1.8807502 189.46001
17.217651 -2.8688915 -0.81399882 189.46001
4.4162483 -0.73585743 -1.8700721 189.46001
4.6676717 -0.77775085 -1.8477942 189.46001
4.8959565 -0.81578881 -1.8065504 189.46001
30.499178 -5.0819259 0.71786344 189.46001
5.1883121 -0.86450255 -1.7772895 189.46001
53.117157 -8.850647 2.5112193 189.46001
5.3314691 -0.88835603 -1.6865668 189.46001
29.860395 -4.9754887 2.1168299 189.46001
5.4160562 -0.90245044 -1.5744406 189.46001
23.264828 -3.8765023 2.2004242 189.46001
5.7178326 -0.95273387 -1.5174826 189.46001
29.281998 -4.8791132 3.4715121 189.46001
7.267797 -1.2109967 -1.7457948 189.46001
28.850794 -4.8072639 4.1106167 189.46001
7.9310288 -1.3215078 -1.7090341 189.46001
8.1483192 -1.3577138 -1.5563885 189.46001
8.1175938 -1.3773606 -1.3527336 189.63
8.0741148 -1.3699833 -1.1509615 189.63
8.0473576 -1.3654432 -0.95452642 189.63
8.090724 -1.3728014 -0.76561534 189.63
8.2142506 -1.3937608 -0.58260608 189.63
4.1701126 -0.70756793 -1.8831906 189.63
17.197247 -2.9179592 -0.81343979 189.63
4.4049482 -0.74741381 -1.866218 189.63
4.6745272 -0.79315495 -1.8514316 189.63
4.8935142 -0.83031178 -1.8065504 189.63
30.349918 -5.1496515 0.71470678 189.63
5.1651754 -0.87640613 -1.770247 189.63
53.212784 -9.0289297 2.5169957 189.63
5.596097 -0.94952315 -1.7711632 189.63
5.5194988 -0.9365263 -1.605312 189.63
31.328241 -5.3156495 2.9645531 189.63
5.3906994 -0.91467208 -1.4313772 189.63
29.216473 -4.9573331 3.4654722 189.63
5.3282104 -0.90406924 -1.2805262 189.63
29.699465 -5.0392857 4.2336459 189.63
7.927073 -1.3450338 -1.7090341 189.63
8.1868849 -1.3891176 -1.5645353 189.63
8.1387529 -1.4058067 -1.3569487 189.8
8.0992889 -1.3989902 -1.1551367 189.8
8.0628462 -1.3926953 -0.95684946 189.8
8.1160498 -1.4018852 -0.7684021 189.8
8.2729912 -1.4289937 -0.58707047 189.8
4.1643944 -0.71931577 -1.8815637 189.8
17.200325 -2.9710119 -0.81399882 189.8
4.4063482 -0.76110846 -1.8677596 189.8
17.43111 -3.0108755 -0.4106918 189.8
4.6611385 -0.80511844 -1.8470668 189.8
4.894733 -0.84546721 -1.8079184 189.8
30.462574 -5.2618003 0.7177242 189.8
5.1644197 -0.89205015 -1.7708871 189.8
31.888618 -5.508121 1.5091166 189.8
5.4145269 -0.93525118 -1.7145671 189.8
29.889326 -5.1627831 2.1210153 189.8
5.2211585 -0.9018507 -1.5193131 189.8
46.347431 -8.0055914 4.3880291 189.8
5.3917747 -0.9313212 -1.4323902 189.8
29.739941 -5.1369796 3.529355 189.8
5.310163 -0.91722441 -1.2768372 189.8
7.9269028 -1.3692138 -1.7098657 189.8
29.721519 -5.1337976 4.9553757 189.8
8.1846638 -1.4137369 -1.5649055 189.8
8.1814461 -1.4367212 -1.3647305 189.96001
8.1207094 -1.4260554 -1.1587552 189.96001
8.0863171 -1.4200157 -0.96010166 189.96001
8.1454458 -1.4303992 -0.77156043 189.96001
8.3259554 -1.4620979 -0.59111637 189.96001
4.1695676 -0.73220623 -1.8848176 189.96001
17.197865 -3.0200694 -0.8142783 189.96001
4.4078407 -0.77404875 -1.8693013 189.96001
17.365524 -3.0495114 -0.40934557 189.96001
4.660707 -0.81845385 -1.8477942 189.96001
4.8979063 -0.86010772 -1.8099706 189.96001
53.526302 -9.3996058 1.2617388 189.96001
5.1619081 -0.90646845 -1.7708871 189.96001
30.257616 -5.3134561 1.4326267 189.96001
5.3742852 -0.94376338 -1.7026521 189.96001
29.849247 -5.2417436 2.1192017 189.96001
5.1106877 -0.89747369 -1.4878905 189.96001
53.848595 -9.4562025 5.1006961 189.96001
5.4082093 -0.94972068 -1.4374552 189.96001
31.14983 -5.4701352 3.6984706 189.96001
6.1356325 -1.0774615 -1.4760404 189.96001
30.986662 -5.4414821 4.4215293 189.96001
7.9269018 -1.3920213 -1.7106974 189.96001
8.2058496 -1.4410065 -1.5697194 189.96001
8.1980066 -1.4676696 -1.3682971 190.14999
8.1783218 -1.4641454 -1.1676623 190.14999
8.1284924 -1.4552246 -0.9656769 190.14999
8.1720209 -1.4630175 -0.77453297 190.14999
8.3348083 -1.4921609 -0.59209293 190.14999
4.1617208 -0.74506301 -1.8823771 190.14999
17.183821 -3.0763788 -0.81409198 190.14999
4.4034333 -0.78833616 -1.8685305 190.14999
17.37303 -3.1102521 -0.40976337 190.14999
4.6579671 -0.8339048 -1.8477942 190.14999
4.8987269 -0.87700742 -1.8113387 190.14999
53.071682 -9.501297 1.2517581 190.14999
5.1719298 -0.92591828 -1.7753688 190.14999
30.548578 -5.4690394 1.4472539 190.14999
5.2790389 -0.94509381 -1.6734604 190.14999
46.501316 -8.3250198 3.3033876 190.14999
5.5486207 -0.99335641 -1.6163374 190.14999
31.123854 -5.5720296 2.9498763 190.14999
5.5250149 -0.98913032 -1.4693649 190.14999
31.246885 -5.5940557 3.7121763 190.14999
5.9078937 -1.0576762 -1.4220896 190.14999
29.149527 -5.2185702 4.1618323 190.14999
7.9203167 -1.4179555 -1.7102816 190.14999
8.1913528 -1.4664783 -1.567868 190.14999
8.3415117 -1.5189177 -1.1916001 190.32001
8.1534538 -1.484674 -0.96916145 190.32001
8.1598072 -1.4858309 -0.77378982 190.32001
8.3813782 -1.526177 -0.59572029 190.32001
4.1630869 -0.75806242 -1.8840041 190.32001
17.168722 -3.1262767 -0.81381249 190.32001
4.3974438 -0.80073673 -1.8669888 190.32001
17.353889 -3.1599941 -0.40953127 190.32001
4.6628041 -0.8490566 -1.8507041 190.32001
53.602589 -9.7605715 0 190.32001
4.8961034 -0.89153838 -1.8113387 190.32001
30.205051 -5.5000806 0.71280348 190.32001
5.0312161 -0.91614127 -1.7279915 190.32001
30.661942 -5.5832763 1.4534029 190.32001
5.2254968 -0.95151812 -1.6573751 190.32001
46.321346 -8.4347191 3.292366 190.32001
5.258153 -0.95746452 -1.5325437 190.32001
5.2803116 -0.96149939 -1.4050391 190.32001
7.9218488 -1.4425006 -1.711529 190.32001
8.2185268 -1.5202467 -1.3731607 190.48
8.3255529 -1.5400442 -1.18993 190.48
8.1707621 -1.5114114 -0.97171676 190.48
8.2045794 -1.5176668 -0.7784344 190.48
8.4202442 -1.5575601 -0.59878957 190.48
4.160954 -0.76968497 -1.8840041 190.48
17.161888 -3.174572 -0.81390566 190.48
4.3951902 -0.81301355 -1.8669888 190.48
17.352861 -3.2098978 -0.40971693 190.48
4.6622467 -0.86241311 -1.8514316 190.48
4.8954425 -0.90554923 -1.8120227 190.48
53.210724 -9.8428135 1.2563539 190.48
4.9969645 -0.92432857 -1.7171075 190.48
52.560249 -9.7224903 2.4926791 190.48
5.2566118 -0.97235763 -1.6680986 190.48
29.998592 -5.5490799 2.1332924 190.48
5.2460065 -0.9703958 -1.5297873 190.48
23.131432 -4.2788062 2.194665 190.48
5.2034073 -0.96251595 -1.3852854 190.48
5.4768729 -1.0131011 -1.3197212 190.48
7.9177895 -1.4646169 -1.711529 190.48
8.2173185 -1.5482228 -1.3738092 190.67
8.289259 -1.5617771 -1.1854764 190.67
8.2184124 -1.5484289 -0.9779889 190.67
8.2464676 -1.5537148 -0.78289324 190.67
8.4483633 -1.5917538 -0.6011613 190.67
4.1601744 -0.78381723 -1.8848176 190.67
17.161083 -3.233315 -0.81437147 190.67
4.3960972 -0.82826746 -1.8685305 190.67
17.348017 -3.2685349 -0.4098562 190.67
4.6502075 -0.87614429 -1.8477942 190.67
4.8924127 -0.92177814 -1.8120227 190.67
30.361485 -5.7203989 0.71730638 190.67
5.0106297 -0.94405138 -1.7228696 190.67
30.381853 -5.7242365 1.4417571 190.67
5.285254 -0.99579322 -1.6782264 190.67
31.087782 -5.8572407 2.2121172 190.67
5.2011952 -0.97995579 -1.5176593 190.67
5.610878 -1.0571439 -1.4946901 190.67
5.7278414 -1.0791811 -1.38105 190.67
22.942896 -4.3226643 3.2811451 190.67
7.9109664 -1.4905031 -1.7111132 190.67
8.6335249 -1.6266401 -1.6552597 190.67
8.3660965 -1.6004586 -1.3994243 190.83
8.2128916 -1.5711499 -1.1751777 190.83
8.2218609 -1.5728658 -0.97891808 190.83
8.2773027 -1.5834721 -0.78623736 190.83
8.4771986 -1.6217128 -0.60353303 190.83
4.1525855 -0.79440171 -1.8823771 190.83
17.151987 -3.2812252 -0.81437147 190.83
4.3883295 -0.83950019 -1.866218 190.83
17.423267 -3.3331215 -0.41185233 190.83
4.6422529 -0.88807648 -1.8456118 190.83
4.8898196 -0.93543673 -1.8120227 190.83
30.156862 -5.7690954 0.71284992 190.83
5.0544991 -0.9669404 -1.7388755 190.83
23.994337 -4.5901866 1.1392443 190.83
5.1905675 -0.99297065 -1.6490346 190.83
24.373417 -4.6627054 1.735262 190.83
23.085304 -4.416286 2.192807 190.83
5.3703613 -1.0273658 -1.4313772 190.83
31.162687 -5.9615126 3.7103179 190.83
7.219563 -1.3811234 -1.7416446 190.83
23.037724 -4.4071836 3.296454 190.83
7.9106164 -1.5133239 -1.7119448 190.83
23.559206 -4.5069447 3.9408255 190.83
8.6405315 -1.6529589 -1.6574816 190.83
8.3339062 -1.6214567 -1.3948849 191.00999
8.2915106 -1.6132082 -1.1871465 191.00999
8.2773256 -1.6104485 -0.98611945 191.00999
8.3133364 -1.6174546 -0.79013878 191.00999
8.4818544 -1.6502419 -0.60423058 191.00999
4.1500692 -0.8074435 -1.8823771 191.00999
17.1514 -3.3370011 -0.81483728 191.00999
4.3856702 -0.85328233 -1.866218 191.00999
4.6376114 -0.90230036 -1.8448843 191.00999
4.8905463 -0.95151174 -1.8133909 191.00999
53.519745 -10.412879 1.2658703 191.00999
5.1016531 -0.992585 -1.7561618 191.00999
45.090572 -8.7728872 2.1421854 191.00999
5.1892962 -1.009637 -1.6496303 191.00999
24.29402 -4.7266798 1.7306581 191.00999
5.0405436 -0.98069537 -1.4724548 191.00999
22.451675 -4.3682303 2.1339135 191.00999
31.212051 -6.0726619 3.7184484 191.00999
6.401402 -1.245466 -1.5452082 191.00999
22.947945 -4.4647856 3.2855985 191.00999
7.903903 -1.5377947 -1.711529 191.00999
8.6410837 -1.6812217 -1.6585925 191.00999
8.3832693 -1.6568911 -1.4039637 191.17999
8.3410902 -1.6485548 -1.1949402 191.17999
8.3114862 -1.6427039 -0.99076545 191.17999
8.3514786 -1.6506081 -0.79422605 191.17999
8.5141087 -1.6827506 -0.60688132 191.17999
4.1476555 -0.81975341 -1.8823771 191.17999
17.153183 -3.3901999 -0.81539631 191.17999
4.3849297 -0.86664891 -1.8669888 191.17999
18.497107 -3.6558166 -0.43775558 191.17999
4.644052 -0.91786253 -1.8485217 191.17999
4.8913889 -0.96674687 -1.8147589 191.17999
46.874378 -9.2643738 1.1093367 191.17999
5.087533 -1.0055133 -1.7523204 191.17999
23.791418 -4.702198 1.1309525 191.17999
24.358179 -4.8142142 1.7362386 191.17999
5.0413833 -0.99639219 -1.4735574 191.17999
22.40736 -4.4286489 2.1309409 191.17999
6.189652 -1.223339 -1.651706 191.17999
23.170826 -4.5795426 2.7620635 191.17999
6.3575859 -1.2565298 -1.5355247 191.17999
23.210497 -4.5873828 3.3251238 191.17999
7.9012246 -1.5616186 -1.7119448 191.17999
23.455729 -4.6358514 3.92818 191.17999
8.6476259 -1.7091393 -1.6608143 191.17999
8.4747658 -1.7026564 -1.4201757 191.36
8.3611126 -1.6798223 -1.1985587 191.36
8.3296556 -1.6735023 -0.9935531 191.36
8.3325853 -1.6740911 -0.79292554 191.36
8.5322523 -1.714206 -0.6085555 191.36
4.1450596 -0.83277959 -1.8823771 191.36
17.144407 -3.4444649 -0.81548947 191.36
4.3839946 -0.8807838 -1.8677596 191.36
4.6393189 -0.93208075 -1.8477942 191.36
4.8901706 -0.98247904 -1.8154429 191.36
46.809753 -9.4044991 1.1085011 191.36
5.0657725 -1.0177591 -1.745918 191.36
45.641376 -9.1697607 2.170974 191.36
5.2298274 -1.0507191 -1.6645241 191.36
29.913742 -6.0099387 2.1335716 191.36
5.0815802 -1.0209349 -1.4862366 191.36
22.207863 -4.4617586 2.1132915 191.36
6.1630154 -1.2382051 -1.645628 191.36
23.166063 -4.6542697 2.7632251 191.36
5.7735777 -1.1599635 -1.3953446 191.36
23.213446 -4.6637893 3.3276289 191.36
7.8924437 -1.5856626 -1.7111132 191.36
23.131468 -4.6473193 3.8763015 191.36
8.6518488 -1.7382339 -1.6626658 191.36
8.42237 -1.7166125 -1.2080225 191.52
8.3736105 -1.7066745 -0.99936062 191.52
8.4059277 -1.7132612 -0.80035692 191.52
8.6134491 -1.7555574 -0.61469406 191.52
4.1409273 -0.84398663 -1.8815637 191.52
17.136679 -3.4927266 -0.81558263 191.52
4.3779016 -0.89228565 -1.866218 191.52
4.6330471 -0.94428843 -1.8463392 191.52
4.8892493 -0.99650645 -1.8161269 191.52
46.636372 -9.5052309 1.1050195 191.52
5.053628 -1.0300094 -1.7427169 191.52
47.224724 -9.6251469 2.2475572 191.52
5.2661586 -1.0733265 -1.6770349 191.52
22.857117 -4.6586423 1.6311854 191.52
5.9169979 -1.2059779 -1.7315539 191.52
22.138731 -4.5122242 2.1079037 191.52
6.0344095 -1.2299082 -1.6121987 191.52
23.224995 -4.7336216 2.7718203 191.52
5.7684093 -1.1756932 -1.3948835 191.52
23.113003 -4.7107959 3.3151033 191.52
7.8764834 -1.605352 -1.7086183 191.52
23.04685 -4.6973133 3.8643045 191.52
8.6527386 -1.7635652 -1.6637768 191.52
9.6027775 -1.9886397 -1.6111537 191.7
8.4557238 -1.7510962 -1.2135894 191.7
8.4323988 -1.7462659 -1.0070266 191.7
8.4317036 -1.7461219 -0.80332947 191.7
8.6586876 -1.7931279 -0.61832136 191.7
4.1382556 -0.85699153 -1.8815637 191.7
17.13736 -3.5489764 -0.81614166 191.7
4.3804979 -0.90715754 -1.8685305 191.7
17.329533 -3.5887735 -0.4108775 191.7
4.6318822 -0.95921665 -1.8470668 191.7
4.8897753 -1.0126238 -1.817495 191.7
46.668934 -9.6646719 1.106505 191.7
5.0373793 -1.0431911 -1.7382352 191.7
22.896765 -4.7416921 1.0904249 191.7
5.4179325 -1.1219999 -1.726482 191.7
6.3260736 -1.3100668 -1.6912131 191.7
5.7627816 -1.1934147 -1.3944224 191.7
22.756758 -4.712698 3.2661142 191.7
7.8809795 -1.6320724 -1.7106974 191.7
8.6433058 -1.7899426 -1.6630361 191.7
9.616148 -2.0211823 -1.6143961 191.87
8.514451 -1.7896206 -1.2227749 191.87
8.4777241 -1.7819011 -1.0130664 191.87
8.4635124 -1.778914 -0.80685937 191.87
8.6767588 -1.8237355 -0.61999553 191.87
4.1321187 -0.86851454 -1.8799368 191.87
17.128708 -3.6002192 -0.81623483 191.87
4.3777871 -0.9201507 -1.8685305 191.87
17.332504 -3.6430545 -0.41120243 191.87
4.6308389 -0.97333872 -1.8477942 191.87
4.8867493 -1.0271275 -1.817495 191.87
5.0157194 -1.0542353 -1.7318329 191.87
22.843493 -4.8013883 1.0885615 191.87
5.2875295 -1.111366 -1.685971 191.87
23.253868 -4.8876438 1.6615992 191.87
5.1023941 -1.0724531 -1.495057 191.87
22.317326 -4.6907949 2.1275969 191.87
6.2956505 -1.3232592 -1.6841221 191.87
23.115942 -4.8586531 2.762296 191.87
6.4257913 -1.350613 -1.5558139 191.87
22.713602 -4.774087 3.261939 191.87
7.8684444 -1.653839 -1.7090341 191.87
8.636034 -1.8151757 -1.6626658 191.87
9.6085367 -2.0476165 -1.6140718 192.03
8.5830278 -1.8290765 -1.2333521 192.03
8.5446005 -1.8208874 -1.0216615 192.03
8.5422592 -1.8203886 -0.81484807 192.03
4.1350379 -0.88119262 -1.8823771 192.03
17.14399 -3.6534507 -0.81744599 192.03
4.3643708 -0.93006438 -1.8639054 192.03
17.332041 -3.6935253 -0.41143453 192.03
4.6372132 -0.98820812 -1.8514316 192.03
82.52494 -17.586386 0 192.03
4.887538 -1.0415533 -1.8188632 192.03
45.534988 -9.7036819 1.0809267 192.03
5.0590844 -1.0781106 -1.7478387 192.03
22.640461 -4.82477 1.0795243 192.03
5.3721676 -1.1448298 -1.7139713 192.03
23.286961 -4.9625416 1.6649475 192.03
5.7217593 -1.2193291 -1.677529 192.03
22.621601 -4.8207507 2.1578796 192.03
6.2465153 -1.3311566 -1.6719661 192.03
23.148911 -4.9331226 2.7678711 192.03
6.389637 -1.3616564 -1.5479748 192.03
22.688559 -4.8350201 3.2602692 192.03
7.8695354 -1.6770285 -1.7102816 192.03
8.6270866 -1.8384656 -1.6619252 192.03
9.6055517 -2.0803037 -1.6147203 192.22
8.629178 -1.8688475 -1.2408674 192.22
8.5948172 -1.8614058 -1.0283983 192.22
8.5984554 -1.8621937 -0.82079315 192.22
17.11252 -3.7061112 -1.2243656 192.22
4.1356645 -0.89567357 -1.8840041 192.22
17.131781 -3.7102821 -0.81744599 192.22
4.3612628 -0.94453204 -1.8639054 192.22
4.6302691 -1.0027915 -1.8499767 192.22
82.532631 -17.874344 0 192.22
4.8914046 -1.0593464 -1.8215992 192.22
46.004776 -9.9633951 1.092857 192.22
5.0036306 -1.0836517 -1.7299122 192.22
23.51861 -5.0934978 1.1221948 192.22
4.9914193 -1.081007 -1.5936298 192.22
5.7120476 -1.2370756 -1.6758751 192.22
22.525694 -4.8784585 2.1502626 192.22
5.2720032 -1.1417738 -1.4121301 192.22
23.481886 -5.0855441 2.8096855 192.22
5.7536154 -1.2460781 -1.3948835 192.22
22.291075 -4.8276463 3.2054348 192.22
7.8658428 -1.7035297 -1.7106974 192.22
23.965658 -5.1903157 4.0286946 192.22
8.6190214 -1.866648 -1.6615549 192.22
9.601264 -2.1092181 -1.6150446 192.39
8.6785059 -1.9065053 -1.0390842 192.39
16.250252 -3.5698764 -1.5522243 192.39
17.115089 -3.7598653 -1.2253423 192.39
4.127635 -0.90676427 -1.8815637 192.39
17.128502 -3.7628114 -0.81781864 192.39
4.3566384 -0.95707202 -1.8631345 192.39
4.6327324 -1.0177246 -1.852159 192.39
46.022564 -10.110296 0 192.39
4.886404 -1.0734516 -1.8209152 192.39
46.224983 -10.154764 1.098799 192.39
5.144742 -1.1302036 -1.7798505 192.39
5.0068374 -1.0999086 -1.5995873 192.39
5.678308 -1.247418 -1.6670548 192.39
22.723124 -4.9918451 2.1705129 192.39
23.165964 -5.089129 2.7736788 192.39
5.6890674 -1.2497817 -1.3801278 192.39
22.251507 -4.8882399 3.2018163 192.39
7.8626647 -1.7272804 -1.7111132 192.39
22.984436 -5.0492506 3.86625 192.39
8.6172848 -1.8930563 -1.6622955 192.39
9.6003695 -2.1406596 -1.6160173 192.57001
16.260336 -3.6256776 -1.5542679 192.57001
17.12851 -3.8192599 -1.2271559 192.57001
4.130116 -0.92092001 -1.8840041 192.57001
17.132195 -3.8200819 -0.818564 192.57001
4.35361 -0.97075403 -1.8631345 192.57001
4.6313305 -1.0326792 -1.8528866 192.57001
4.8866763 -1.0896153 -1.8222833 192.57001
44.524288 -9.9278831 1.0591085 192.57001
5.1522622 -1.1488348 -1.7836919 192.57001
23.05027 -5.1396751 1.1013254 192.57001
5.2549229 -1.1717257 -1.6800135 192.57001
23.258629 -5.1861343 1.6663426 192.57001
5.6405849 -1.2577195 -1.6571318 192.57001
22.823946 -5.08921 2.1816599 192.57001
5.5576363 -1.2392238 -1.490638 192.57001
23.200272 -5.1731219 2.7797184 192.57001
5.5882401 -1.2460479 -1.3566107 192.57001
22.226374 -4.9559655 3.2004247 192.57001
7.8667464 -1.7541019 -1.7131923 192.57001
8.6112947 -1.9201189 -1.6622955 192.57001
9.5924292 -2.1670256 -1.6156931 192.73
11.129406 -2.5142441 -1.6035525 192.73
13.555692 -3.062366 -1.6251806 192.73
16.271515 -3.6758976 -1.5563115 192.73
17.127506 -3.8692749 -1.2278534 192.73
4.1257463 -0.93204725 -1.8831906 192.73
17.117563 -3.8670285 -0.81837761 192.73
4.3670835 -0.9865678 -1.8700721 192.73
4.624794 -1.0447872 -1.8514316 192.73
23.279358 -5.2590394 0 192.73
4.8891139 -1.1044997 -1.8243355 192.73
47.094208 -10.639052 1.1209421 192.73
5.1601229 -1.1657233 -1.7875333 192.73
22.961777 -5.187295 1.097785 192.73
5.4248223 -1.2255216 -1.7354183 192.73
23.214865 -5.2444701 1.6642499 192.73
5.7101865 -1.2899882 -1.6786315 192.73
23.202011 -5.2415657 2.2191882 192.73
6.0108666 -1.3579148 -1.6132118 192.73
5.7195168 -1.2920959 -1.3893501 192.73
22.216312 -5.0188866 3.2009814 192.73
7.850368 -1.7734766 -1.7106974 192.73
8.6231537 -1.9480565 -1.6656282 192.73
9.5932684 -2.1989141 -1.61699 192.91
11.123383 -2.549638 -1.6038308 192.91
13.551812 -3.1062689 -1.6258775 192.91
16.26959 -3.7292225 -1.5572404 192.91
17.119156 -3.923955 -1.2281325 192.91
4.1210165 -0.94459581 -1.8823771 192.91
17.128698 -3.926142 -0.81949562 192.91
4.3585663 -0.99904555 -1.8677596 192.91
4.6105938 -1.0568138 -1.8470668 192.91
23.151602 -5.3066773 0 192.91
4.8874521 -1.1202737 -1.8250195 192.91
5.1416607 -1.1785419 -1.7824113 192.91
5.4228063 -1.2429847 -1.736014 192.91
23.126322 -5.3008828 1.659088 192.91
5.7923059 -1.3276792 -1.7039901 192.91
45.421703 -10.411303 4.3475285 192.91
5.8594708 -1.3430744 -1.5737045 192.91
22.894218 -5.2476816 2.7467318 192.91
5.8614922 -1.3435377 -1.4248562 192.91
7.8485713 -1.7990046 -1.711529 192.91
22.258614 -5.1019921 3.7517929 192.91
8.616991 -1.9751372 -1.6656282 192.91
23.10955 -5.297039 4.4669795 192.91
9.5870905 -2.2256949 -1.61699 193.07001
11.149016 -2.5883045 -1.6085627 193.07001
13.53341 -3.1418543 -1.6247159 193.07001
16.276571 -3.7786942 -1.5589124 193.07001
17.117849 -3.9740012 -1.2288301 193.07001
4.1148033 -0.95527381 -1.8807502 193.07001
17.129343 -3.9766698 -0.82005465 193.07001
4.3395801 -1.007457 -1.860822 193.07001
4.6058097 -1.0692636 -1.8463392 193.07001
4.8879657 -1.1347677 -1.8263875 193.07001
5.0903621 -1.1817551 -1.7657653 193.07001
22.874155 -5.3103585 1.0950832 193.07001
5.4397712 -1.2628723 -1.7425673 193.07001
23.206657 -5.3875508 1.6659241 193.07001
5.5975585 -1.2995034 -1.6477602 193.07001
23.129763 -5.3696995 2.215287 193.07001
5.934854 -1.3778085 -1.5949776 193.07001
23.21423 -5.3893089 2.7869198 193.07001
7.1941872 -1.6701694 -1.7499448 193.07001
22.433079 -5.2079606 3.2366097 193.07001
7.8511395 -1.8226845 -1.7131923 193.07001
8.6076126 -1.9983038 -1.6648877 193.07001
22.79792 -5.2926602 4.4095821 193.07001
9.588129 -2.2559385 -1.618287 193.24001
11.150928 -2.6236408 -1.6099545 193.24001
13.504692 -3.1774452 -1.6223929 193.24001
16.259474 -3.8256028 -1.5583551 193.24001
17.125402 -4.0293427 -1.2302252 193.24001
4.1155081 -0.96831536 -1.8823771 193.24001
17.142752 -4.0334244 -0.82126582 193.24001
4.358129 -1.0254004 -1.8700721 193.24001
4.6207519 -1.0871915 -1.853614 193.24001
4.8864069 -1.149696 -1.8270715 193.24001
45.370525 -10.674983 1.0821337 193.24001
5.1366315 -1.20857 -1.7830516 193.24001
22.869967 -5.3809495 1.0956422 193.24001
5.4360003 -1.2790068 -1.7425673 193.24001
23.26437 -5.4737463 1.6712255 193.24001
5.6610494 -1.3319573 -1.667606 193.24001
23.073023 -5.4287252 2.2113855 193.24001
23.103388 -5.4358702 2.775537 193.24001
5.7949309 -1.3634577 -1.4105616 193.24001
22.623812 -5.3230333 3.2663927 193.24001
7.8418884 -1.8450751 -1.7123607 193.24001
22.063646 -5.1912351 3.7239082 193.24001
8.6035585 -2.0242844 -1.6652579 193.24001
22.518099 -5.2981606 4.3584805 193.24001
9.5790749 -2.2855914 -1.6179627 193.42
11.152262 -2.6609578 -1.6113461 193.42
13.473389 -3.2147844 -1.6198376 193.42
16.278366 -3.884059 -1.5613277 193.42
17.124304 -4.0859022 -1.2310623 193.42
4.1106682 -0.98081577 -1.8815637 193.42
17.131939 -4.0877237 -0.82135898 193.42
4.3512959 -1.0382302 -1.8685305 193.42
18.517067 -4.4182186 -0.44197994 193.42
4.611877 -1.1004055 -1.8514316 193.42
4.8900833 -1.1667862 -1.8298078 193.42
45.253136 -10.797512 1.0801375 193.42
5.1235943 -1.2225025 -1.7798505 193.42
44.726486 -10.671852 2.1443284 193.42
5.4189558 -1.2929765 -1.738397 193.42
37.838814 -9.0284357 2.7202234 193.42
5.6063461 -1.3376883 -1.6527216 193.42
39.675129 -9.4665852 3.8054111 193.42
5.4257226 -1.2945911 -1.4602479 193.42
22.647581 -5.40377 2.7228048 193.42
5.7622242 -1.3748811 -1.4036448 193.42
22.32379 -5.3265123 3.2254758 193.42
7.8417621 -1.8710641 -1.7136081 193.42
16.303623 -3.8900855 2.7537792 193.42
8.6028919 -2.0526717 -1.6663688 193.42
22.956339 -5.4774404 4.4466128 193.42
9.5680103 -2.3147454 -1.6173142 193.60001
11.168873 -2.7020347 -1.6149646 193.60001
13.438123 -3.251024 -1.6168177 193.60001
16.275761 -3.937521 -1.5622566 193.60001
17.126898 -4.1434326 -1.2321783 193.60001
4.1111183 -0.99458426 -1.8831906 193.60001
17.13843 -4.1462226 -0.82229066 193.60001
4.3498063 -1.0523289 -1.8693013 193.60001
18.468115 -4.467907 -0.44114435 193.60001
4.5975327 -1.1122602 -1.8470668 193.60001
4.8863935 -1.182143 -1.8298078 193.60001
45.650425 -11.044001 1.0904431 193.60001
5.1160455 -1.2377017 -1.7785699 193.60001
23.093966 -5.5870185 1.1080334 193.60001
5.3610525 -1.2969751 -1.7211202 193.60001
44.678864 -10.808954 3.2143784 193.60001
5.6095905 -1.3571028 -1.6549267 193.60001
23.019102 -5.5689068 2.2095275 193.60001
5.6021619 -1.3553056 -1.5088722 193.60001
5.742744 -1.389316 -1.3999559 193.60001
22.183744 -5.3668127 3.2076616 193.60001
7.8244367 -1.8929304 -1.7111132 193.60001
23.016552 -5.5682898 3.890568 193.60001
8.594491 -2.0792263 -1.6659986 193.60001
9.5611 -2.3431239 -1.6173142 193.77
11.183889 -2.7408185 -1.6183048 193.77
13.414912 -3.2875717 -1.6151916 193.77
16.275612 -3.9886389 -1.5633713 193.77
17.126154 -4.1970801 -1.2330154 193.77
4.1099238 -1.0072126 -1.8840041 193.77
17.141575 -4.2008591 -0.82303596 193.77
4.3412876 -1.0639126 -1.8669888 193.77
17.349781 -4.251884 -0.41473049 193.77
4.60145 -1.1276702 -1.8499767 193.77
79.798645 -19.556129 0 193.77
4.8865151 -1.1975306 -1.8311758 193.77
46.308807 -11.348827 1.1069692 193.77
5.1160312 -1.2537777 -1.7798505 193.77
23.257746 -5.6997395 1.1166979 193.77
5.3071136 -1.3006061 -1.7050351 193.77
22.691477 -5.5609646 1.6336966 193.77
5.5551229 -1.3613853 -1.6400423 193.77
38.860321 -9.5234375 3.7327695 193.77
5.5680485 -1.364553 -1.5007681 193.77
16.200674 -3.970274 2.3442316 193.77
7.8149853 -1.9152063 -1.7102816 193.77
16.181799 -3.9656482 2.7372427 193.77
8.5978289 -2.1070564 -1.66785 193.77
9.5655985 -2.3743346 -1.6192597 193.94
11.168019 -2.7720811 -1.6171914 193.94
13.339548 -3.3110893 -1.6072934 193.94
16.277235 -4.0402699 -1.5646718 193.94
17.13299 -4.2526822 -1.2344105 193.94
4.1015978 -1.0180821 -1.8815637 193.94
17.140671 -4.2545886 -0.82359499 193.94
4.3452764 -1.0785671 -1.8700721 193.94
17.33709 -4.3033428 -0.41473049 193.94
4.5998921 -1.1417668 -1.8507041 193.94
4.8829408 -1.212024 -1.8311758 193.94
46.457344 -11.531456 1.1113329 193.94
5.123322 -1.2716905 -1.7836919 193.94
23.314413 -5.7870102 1.1202383 193.94
5.3124962 -1.3186466 -1.7080138 193.94
37.94508 -9.4185762 2.7338958 193.94
5.3663349 -1.3320101 -1.585466 193.94
23.165392 -5.750021 2.2268054 193.94
5.558342 -1.3796694 -1.4992486 193.94
22.632311 -5.6177015 2.7269862 193.94
16.184978 -4.0173707 2.3436751 193.94
7.8149648 -1.9397992 -1.711529 193.94
16.104837 -3.997478 2.7262187 193.94
8.5991688 -2.1344514 -1.6693313 193.94
9.5642538 -2.4041491 -1.6202325 194.11
11.167429 -2.8071363 -1.6183048 194.11
13.289208 -3.3404841 -1.6024151 194.11
16.276762 -4.0914602 -1.5657865 194.11
4.0985589 -1.0302473 -1.8815637 194.11
17.141533 -4.3088365 -0.82424718 194.11
4.3402672 -1.0910051 -1.8693013 194.11
17.33588 -4.3576889 -0.41500899 194.11
4.5892568 -1.1535932 -1.8477942 194.11
4.8847909 -1.2278811 -1.833228 194.11
46.620716 -11.718966 1.1160679 194.11
5.1176891 -1.2864242 -1.7830516 194.11
23.27389 -5.8503156 1.1191202 194.11
5.314115 -1.3357996 -1.7098011 194.11
22.530373 -5.6634188 1.6244887 194.11
5.3194752 -1.3371469 -1.5727868 194.11
38.627377 -9.7096939 3.7158632 194.11
5.6668096 -1.4244556 -1.5296388 194.11
16.173223 -4.065434 1.9501703 194.11
6.0944185 -1.531943 -1.4889517 194.11
7.8072772 -1.9625012 -1.7111132 194.11
22.883774 -5.7522531 3.8766258 194.11
8.6023283 -2.1623518 -1.6711828 194.11
9.5666409 -2.4349501 -1.6218536 194.28
11.145615 -2.8368387 -1.6163564 194.28
13.21186 -3.3627498 -1.5942845 194.28
16.278061 -4.1431746 -1.5670869 194.28
4.1007957 -1.0437554 -1.8840041 194.28
17.132545 -4.3606629 -0.82443351 194.28
4.3370113 -1.1038781 -1.8693013 194.28
17.342251 -4.4140377 -0.41547322 194.28
4.6002574 -1.1708809 -1.853614 194.28
4.8793049 -1.2419056 -1.832544 194.28
82.626617 -21.030548 1.9795094 194.28
5.1065044 -1.2997335 -1.7804906 194.28
38.177948 -9.7172461 1.8371571 194.28
5.247221 -1.3355494 -1.6895455 194.28
22.925301 -5.8350644 1.654205 194.28
5.3043056 -1.3500788 -1.5694791 194.28
38.496117 -9.7982273 3.7060165 194.28
5.6006827 -1.4255142 -1.5129242 194.28
16.338198 -4.1584816 1.971542 194.28
16.068726 -4.0898938 2.3303144 194.28
7.8014202 -1.9856572 -1.7111132 194.28
16.119083 -4.1027112 2.7327034 194.28
8.5882559 -2.1859267 -1.6697016 194.28
9.5536413 -2.4618468 -1.620881 194.45
11.169753 -2.8782976 -1.6210883 194.45
13.121033 -3.3811164 -1.5845279 194.45
16.281122 -4.1954298 -1.5685732 194.45
17.136963 -4.4159684 -1.2374798 194.45
4.0923729 -1.0545504 -1.8815637 194.45
17.136944 -4.4159636 -0.82527196 194.45
4.3337169 -1.1167414 -1.8693013 194.45
17.338758 -4.4679685 -0.41570532 194.45
4.5877428 -1.1822006 -1.8499767 194.45
69.809486 -17.988981 0 194.45
4.8810587 -1.2577841 -1.834596 194.45
82.672287 -21.303553 1.982109 194.45
5.0952864 -1.3129879 -1.7779298 194.45
37.678837 -9.7093372 1.8145176 194.45
5.0712957 -1.3068057 -1.6341408 194.45
5.3710213 -1.3840411 -1.5904275 194.45
38.55365 -9.9347658 3.7143769 194.45
5.573945 -1.4363319 -1.5068461 194.45
23.560534 -6.0712376 2.8452275 194.45
5.6555424 -1.4573585 -1.3838167 194.45
16.238718 -4.1845031 2.3567574 194.45
7.7936001 -2.0083075 -1.7106974 194.45
16.146973 -4.160861 2.7395124 194.45
8.5912485 -2.2138512 -1.6715531 194.45
9.5534983 -2.4938421 -1.6221778 194.63
11.147242 -2.9098723 -1.6191399 194.63
13.043074 -3.4047599 -1.5763973 194.63
16.283276 -4.2505813 -1.5700595 194.63
17.15003 -4.4768386 -1.2394331 194.63
4.0908079 -1.0678632 -1.8823771 194.63
17.140383 -4.4743204 -0.82611048 194.63
4.3230443 -1.1284862 -1.866218 194.63
17.343983 -4.5274677 -0.41616955 194.63
4.5804009 -1.1956664 -1.8485217 194.63
4.8770828 -1.2731122 -1.834596 194.63
82.690071 -21.585392 1.9841516 194.63
5.1369696 -1.340953 -1.7939357 194.63
39.546406 -10.323181 1.9060075 194.63
5.1262789 -1.3381623 -1.6532048 194.63
22.653715 -5.9135189 1.6371844 194.63
5.3424644 -1.3945953 -1.583261 194.63
22.618551 -5.9043398 2.1809168 194.63
5.5207314 -1.44113 -1.493677 194.63
16.31249 -4.2582078 1.971542 194.63
5.6019778 -1.4623386 -1.3718276 194.63
16.219744 -4.2339969 2.3559222 194.63
7.7777877 -2.0303113 -1.7086183 194.63
8.5937595 -2.2433124 -1.6734047 194.63
9.5365162 -2.5196564 -1.6205567 194.8
11.163451 -2.9495111 -1.6227584 194.8
13.038675 -3.4449668 -1.5770942 194.8
16.282145 -4.301928 -1.5711741 194.8
