# .PCD v0.7 - Point Cloud Data file format
VERSION 0.7
FIELDS x y z intensity
SIZE 4 4 4 4
TYPE F F F F
COUNT 1 1 1 1
WIDTH 1149
HEIGHT 1
VIEWPOINT 0 0 0 1 0 0 0
POINTS 1149
DATA ascii
-3.6027279 -6.3885965 -2.1031129 299.42001
-3.9545703 -7.012507 -2.1075585 299.42001
-4.3925796 -7.7892146 -2.1188395 299.42001
-4.8969884 -8.6836662 -2.119036 299.42001
-5.5444622 -9.831809 -2.126657 299.42001
-6.4687939 -11.396398 -2.1529605 299.57999
-7.7010951 -13.567404 -2.192533 299.57999
-9.7304382 -17.142599 -2.3051267 299.57999
-11.465804 -20.199879 -2.1669831 299.57999
-11.373299 -20.036907 -1.6110955 299.57999
-2.3251553 -4.0963421 -2.0971341 299.57999
-16.10078 -28.365549 -1.5210421 299.57999
-2.4788301 -4.3670788 -2.0974717 299.57999
-17.006193 -29.960661 -0.79984397 299.57999
-2.6513484 -4.6710129 -2.0973191 299.57999
-2.8481512 -5.0177302 -2.1000037 299.57999
-3.075346 -5.4179907 -2.1050894 299.57999
-3.3259385 -5.8594718 -2.1024001 299.57999
-3.6290953 -6.3935585 -2.1080744 299.57999
-3.9760478 -7.0048018 -2.1085715 299.57999
-4.4133534 -7.7752252 -2.1183784 299.57999
-4.9202533 -8.6682558 -2.1186202 299.57999
-5.5718961 -9.816288 -2.126657 299.57999
-6.5045376 -11.380581 -2.153609 299.75
-7.7472129 -13.554811 -2.1942031 299.75
-9.7891436 -17.127449 -2.3069851 299.75
-11.468375 -20.065495 -2.1562076 299.75
-11.452499 -20.037718 -1.6138858 299.75
-2.3363924 -4.0878386 -2.0963206 299.75
-2.4908609 -4.3581023 -2.0967009 299.75
-16.997782 -29.73995 -0.79529464 299.75
-2.6642714 -4.6615081 -2.0965917 299.75
-2.860229 -5.0043626 -2.0979517 299.75
-3.091408 -5.4088421 -2.1050894 299.75
-3.3395197 -5.8429475 -2.1000168 299.75
-3.6375556 -6.3644023 -2.1020105 299.75
-3.9977739 -6.9946537 -2.1090782 299.75
-4.4335065 -7.7570276 -2.1169951 299.75
-4.9459505 -8.6536188 -2.1186202 299.75
-5.600997 -9.7997122 -2.126657 299.75
-6.5402589 -11.36009 -2.153609 299.92999
-7.7946992 -13.538988 -2.1955948 299.92999
-9.8538055 -17.115549 -2.3095405 299.92999
-11.488632 -19.955158 -2.1482189 299.92999
-11.682629 -20.29212 -1.637324 299.92999
-2.3492231 -4.0804787 -2.0963206 299.92999
-16.617651 -28.863997 -1.5531846 299.92999
-2.5017776 -4.3454576 -2.0943882 299.92999
-16.912556 -29.37623 -0.78698522 299.92999
-2.6807618 -4.6563439 -2.0980465 299.92999
-2.8796873 -5.0018673 -2.1006877 299.92999
-3.1093304 -5.4007454 -2.1057296 299.92999
-3.3578594 -5.8324275 -2.1000168 299.92999
-3.657532 -6.3529434 -2.1020105 299.92999
-4.0206938 -6.9837365 -2.1095846 299.92999
-4.456883 -7.7413745 -2.116534 299.92999
-4.9721365 -8.636343 -2.1182044 299.92999
-5.6317558 -9.7820683 -2.126657 299.92999
-6.5709672 -11.340075 -2.1532848 300.09
-7.8344626 -13.520596 -2.1961515 300.09
-9.9115219 -17.105152 -2.3118634 300.09
-11.514361 -19.871309 -2.1426454 300.09
-11.582206 -19.988394 -1.6154205 300.09
-2.3606088 -4.0739026 -2.0963206 300.09
-16.670143 -28.769077 -1.550576 300.09
-2.5129774 -4.3368578 -2.0936174 300.09
-2.6928203 -4.6472278 -2.0973191 300.09
-2.8927016 -4.9921799 -2.1000037 300.09
-3.1215501 -5.3871231 -2.1038089 300.09
-3.3770051 -5.8279834 -2.1018043 300.09
-3.6771863 -6.3460317 -2.1031129 300.09
-4.0401802 -6.9724813 -2.1095846 300.09
-4.4794593 -7.7305822 -2.1169951 300.09
-4.992311 -8.615654 -2.1165409 300.09
-5.6590505 -9.7663031 -2.126657 300.09
-6.6065736 -11.323937 -2.153933 300.26001
-7.8815308 -13.509266 -2.1980999 300.26001
-9.9652328 -17.080816 -2.3125603 300.26001
-11.543165 -19.785456 -2.1370718 300.26001
-2.3736067 -4.0684586 -2.0971341 300.26001
-16.709118 -28.640112 -1.5462903 300.26001
-2.5267639 -4.3309765 -2.0943882 300.26001
-21.095659 -36.158821 -0.97192883 300.26001
-2.7094135 -4.6440454 -2.0995016 300.26001
-2.906554 -4.9819522 -2.0993197 300.26001
-3.1375203 -5.3778377 -2.1038089 300.26001
-3.3923578 -5.81464 -2.1006126 300.26001
-3.6940615 -6.3317723 -2.1020105 300.26001
-4.0598755 -6.9587922 -2.1090782 300.26001
-4.5082607 -7.7273431 -2.1197619 300.26001
-5.0227814 -8.609252 -2.1186202 300.26001
-5.6899838 -9.7528648 -2.1273975 300.26001
-6.6450891 -11.303668 -2.1542573 300.45001
-7.929297 -13.488177 -2.198935 300.45001
-10.025847 -17.054527 -2.3134897 300.45001
-11.552198 -19.650934 -2.126668 300.45001
-11.649935 -19.81719 -1.6074681 300.45001
-2.388937 -4.0637155 -2.0987611 300.45001
-16.714903 -28.432985 -1.5380915 300.45001
-2.5401769 -4.3209829 -2.0936174 300.45001
-2.7229104 -4.6318231 -2.0980465 300.45001
-2.9192488 -4.9658055 -2.0965834 300.45001
-3.1562967 -5.3690372 -2.104449 300.45001
-3.4106538 -5.8017125 -2.1000168 300.45001
-3.7130895 -6.3161726 -2.100908 300.45001
-4.0799875 -6.9402871 -2.1075585 300.45001
-4.526957 -7.7006068 -2.116534 300.45001
-5.0503116 -8.5908623 -2.1182044 300.45001
-5.7262783 -9.7407198 -2.1288788 300.45001
-6.6785984 -11.283902 -2.1542573 300.62
-7.9723086 -13.469705 -2.19977 300.62
-10.080452 -17.031542 -2.3144188 300.62
-11.544524 -19.505182 -2.1145921 300.62
-11.693439 -19.756783 -1.6053755 300.62
-2.3991225 -4.0534644 -2.0971341 300.62
-16.840912 -28.453754 -1.5419115 300.62
-2.5511062 -4.3102508 -2.0920758 300.62
-2.7347436 -4.6205168 -2.0965917 300.62
-2.934927 -4.9587393 -2.0972676 300.62
-3.1722131 -5.3596487 -2.104449 300.62
-3.4297976 -5.7948537 -2.1012084 300.62
-3.7416058 -6.3216724 -2.1064208 300.62
-4.1005616 -6.9281507 -2.1075585 300.62
-4.5428467 -7.6754179 -2.1133063 300.62
-5.0747824 -8.5741558 -2.1177886 300.62
-5.7491479 -9.7135382 -2.126657 300.62
-6.714015 -11.262865 -2.1542573 300.79999
-8.0034304 -13.425879 -2.1967082 300.79999
-10.142046 -17.013439 -2.3162773 300.79999
-11.537428 -19.354216 -2.1021445 300.79999
-11.862716 -19.899891 -1.6200243 300.79999
-2.411845 -4.0459075 -2.0971341 300.79999
-16.885208 -28.325201 -1.5378121 300.79999
-2.5646348 -4.3022146 -2.0920758 300.79999
-2.7511537 -4.6151032 -2.0980465 300.79999
-2.9514532 -4.9511089 -2.0979517 300.79999
-3.1870949 -5.3464012 -2.1031687 300.79999
-3.4450529 -5.77913 -2.0994213 300.79999
-3.760463 -6.3082352 -2.1058693 300.79999
-4.1213164 -6.9135723 -2.1070521 300.79999
-4.5679336 -7.6627798 -2.1137674 300.79999
-5.1016936 -8.5581713 -2.1177886 300.79999
-5.7816482 -9.6988049 -2.1273975 300.79999
-6.7474027 -11.242894 -2.1542573 300.97
-8.0462875 -13.407168 -2.1975434 300.97
-10.201681 -16.998602 -2.318368 300.97
-11.460563 -19.09622 -2.0778067 300.97
-11.800561 -19.662745 -1.6035618 300.97
-2.4228985 -4.0371671 -2.0963206 300.97
-12.224674 -20.369427 -1.1078471 300.97
-2.5802374 -4.2993336 -2.0943882 300.97
-2.7638762 -4.6053228 -2.0973191 300.97
-2.9670975 -4.9439416 -2.0986357 300.97
-3.2039189 -5.3385463 -2.1038089 300.97
-3.4612024 -5.7672458 -2.0988255 300.97
-3.7742167 -6.2888079 -2.1031129 300.97
-4.1418109 -6.9013138 -2.1070521 300.97
-4.5936537 -7.6541986 -2.1151507 300.97
-5.1280704 -8.5446739 -2.1182044 300.97
-5.8103995 -9.6816082 -2.1273975 300.97
-6.776732 -11.22063 -2.153609 301.13
-8.0929117 -13.399904 -2.2000484 301.13
-10.255272 -16.980249 -2.3197618 301.13
-11.472665 -18.995958 -2.0703754 301.13
-11.829638 -19.587019 -1.6000741 301.13
-2.4341631 -4.0303855 -2.0963206 301.13
-16.80122 -27.818758 -1.5155452 301.13
-2.589371 -4.2873721 -2.0920758 301.13
-2.7738364 -4.5928025 -2.0951366 301.13
-2.9789488 -4.9324188 -2.0972676 301.13
-3.2178349 -5.3279567 -2.1031687 301.13
-3.4723589 -5.7493868 -2.0958467 301.13
-3.7897758 -6.2749524 -2.1020105 301.13
-4.1570659 -6.8830962 -2.105026 301.13
-4.6089735 -7.6313457 -2.1123838 301.13
-5.1519117 -8.5303202 -2.1182044 301.13
-5.8394456 -9.6687098 -2.1281381 301.13
-6.8079438 -11.197101 -2.1529605 301.29999
-8.1346922 -13.379218 -2.2006052 301.29999
-10.308704 -16.95484 -2.3204587 301.29999
-11.533114 -18.968641 -2.0711186 301.29999
-11.539434 -18.979036 -1.5531976 301.29999
-2.4442122 -4.0200229 -2.0946937 301.29999
-16.813108 -27.652704 -1.5092099 301.29999
-2.6011217 -4.2780938 -2.091305 301.29999
-2.7874513 -4.5845518 -2.0951366 301.29999
-2.9945469 -4.9251642 -2.0979517 301.29999
-3.2346134 -5.3200045 -2.1038089 301.29999
-3.4864268 -5.7341647 -2.0940595 301.29999
-3.809376 -6.2653232 -2.1025617 301.29999
-4.1784754 -6.8723845 -2.1055326 301.29999
-4.6356401 -7.6242886 -2.1142285 301.29999
-5.1782155 -8.5166683 -2.1186202 301.29999
-5.8670864 -9.6496611 -2.1277678 301.29999
-6.8451481 -11.179024 -2.153609 301.48001
-8.1756496 -13.351907 -2.2003267 301.48001
-10.366068 -16.929146 -2.3213878 301.48001
-11.526096 -18.823626 -2.0592284 301.48001
-11.764657 -19.213226 -1.5753802 301.48001
-2.4549212 -4.0092082 -2.0930667 301.48001
-16.934326 -27.655973 -1.5122844 301.48001
-2.6155126 -4.2714748 -2.0920758 301.48001
-16.898045 -27.596722 -0.75128698 301.48001
-2.7998946 -4.5725946 -2.0936818 301.48001
-3.0119677 -4.9189382 -2.0993197 301.48001
-3.2483425 -5.3049688 -2.1018882 301.48001
-3.5034268 -5.7215552 -2.0934637 301.48001
-3.83406 -6.2615223 -2.1053181 301.48001
-4.1990347 -6.8575735 -2.105026 301.48001
-4.6595697 -7.6096878 -2.1142285 301.48001
-5.2029023 -8.4970217 -2.1177886 301.48001
-5.8973722 -9.6311817 -2.1277678 301.48001
-6.8812699 -11.159143 -2.153933 301.66
-8.2227535 -13.334585 -2.2017186 301.66
-10.419201 -16.896498 -2.3213878 301.66
-11.564272 -18.753424 -2.0555127 301.66
-11.580962 -18.780489 -1.5428737 301.66
-2.4694223 -4.0045862 -2.0946937 301.66
-17.373461 -28.174007 -1.5435884 301.66
-2.6308563 -4.2663784 -2.0936174 301.66
-2.8152239 -4.565362 -2.0944092 301.66
-3.0283926 -4.9110513 -2.1000037 301.66
-3.2639978 -5.2931247 -2.101248 301.66
-3.5223866 -5.7121458 -2.0940595 301.66
-3.8496759 -6.2429008 -2.1031129 301.66
-4.2205577 -6.8443484 -2.105026 301.66
-4.6824317 -7.5933552 -2.1137674 301.66
-5.230598 -8.4822989 -2.1182044 301.66
-5.9234743 -9.605916 -2.1262867 301.66
-6.9103241 -11.13653 -2.1532848 301.82001
-8.2610025 -13.313254 -2.2019968 301.82001
-10.473676 -16.87915 -2.323014 301.82001
-11.5347 -18.589075 -2.0410216 301.82001
-11.700686 -18.856573 -1.5518025 301.82001
-2.4796324 -3.9961224 -2.0938802 301.82001
-16.881149 -27.205297 -1.4930919 301.82001
-2.6388679 -4.2527428 -2.090534 301.82001
-2.8269794 -4.5558996 -2.0936818 301.82001
-3.0411041 -4.9009781 -2.0993197 301.82001
-3.2787664 -5.2839894 -2.101248 301.82001
-3.5383241 -5.7022872 -2.0940595 301.82001
-3.8660808 -6.2304926 -2.1025617 301.82001
-4.2365937 -6.8276033 -2.1035066 301.82001
-4.6964355 -7.5686746 -2.1105394 301.82001
-5.2542644 -8.46766 -2.1182044 301.82001
-5.954421 -9.5960169 -2.1277678 301.82001
-6.9442306 -11.113092 -2.1529605 302
-8.3080339 -13.295633 -2.2033885 302
-10.526651 -16.846163 -2.323014 302
-11.239532 -17.987011 -1.978784 302
-12.898533 -20.641968 -1.702058 302
-2.490238 -3.9852135 -2.0922532 302
-18.149088 -29.044613 -1.5971594 302
-2.6512372 -4.2428665 -2.0897632 302
-2.8422656 -4.5485759 -2.0944092 302
-3.0544941 -4.8882122 -2.0979517 302
-3.2963543 -5.2752695 -2.1018882 302
-3.5582442 -5.6943812 -2.0952508 302
-3.8825788 -6.2134252 -2.100908 302
-4.2580223 -6.81426 -2.1035066 302
-4.7263775 -7.5637851 -2.1133063 302
-5.2787671 -8.447793 -2.1173728 302
-5.9845381 -9.5772629 -2.1277678 302
-6.9782243 -11.09411 -2.1532848 302.17001
-8.3569365 -13.286013 -2.2058938 302.17001
-10.587165 -16.831671 -2.3253369 302.17001
-11.095642 -17.640057 -1.9442282 302.17001
-13.686316 -21.758759 -1.7974849 302.17001
-2.5020514 -3.9778075 -2.0922532 302.17001
-17.034256 -27.081375 -1.491974 302.17001
-2.6638143 -4.2349815 -2.0897632 302.17001
-2.8547571 -4.5385456 -2.0936818 302.17001
-3.0689843 -4.879128 -2.0979517 302.17001
-3.3099742 -5.2622581 -2.1006076 302.17001
-3.571058 -5.6773343 -2.0928679 302.17001
-3.8999739 -6.2002506 -2.1003566 302.17001
-4.2792521 -6.8032341 -2.104013 302.17001
-4.7425818 -7.5398445 -2.1105394 302.17001
-5.3038087 -8.4320936 -2.1173728 302.17001
-6.0139747 -9.5611286 -2.1281381 302.17001
-7.0172668 -11.078801 -2.1545815 302.35001
-8.3943958 -13.253001 -2.2047803 302.35001
-10.646368 -16.808395 -2.3267307 302.35001
-11.291657 -17.827173 -1.9687517 302.35001
-13.66493 -21.574076 -1.7857658 302.35001
-2.5096471 -3.9622097 -2.088186 302.35001
-18.520733 -29.240376 -1.6141157 302.35001
-2.6771057 -4.2265921 -2.0897632 302.35001
-2.8690012 -4.5295548 -2.0936818 302.35001
-3.0812805 -4.8646994 -2.0958993 302.35001
-3.3275037 -5.2534347 -2.101248 302.35001
-3.5878546 -5.6644745 -2.0922723 302.35001
-3.9173758 -6.1847196 -2.0992541 302.35001
-4.2985334 -6.7864881 -2.1029999 302.35001
-4.770411 -7.5314846 -2.1123838 302.35001
-5.3313198 -8.4170418 -2.1177886 302.35001
-6.0460854 -9.5455084 -2.1288788 302.35001
-7.0460558 -11.055834 -2.153933 302.51001
-8.4356298 -13.236188 -2.2058938 302.51001
-10.696467 -16.783627 -2.3274276 302.51001
-11.249355 -17.651152 -1.9527743 302.51001
-13.783026 -21.626686 -1.7932994 302.51001
-2.522666 -3.9582677 -2.0898128 302.51001
-17.294516 -27.136499 -1.5006385 302.51001
-2.6908817 -4.2222118 -2.091305 302.51001
-2.8826401 -4.5230961 -2.0944092 302.51001
-3.0968733 -4.8592458 -2.0972676 302.51001
-3.3380876 -5.2377305 -2.0986869 302.51001
-3.605711 -5.6576533 -2.0934637 302.51001
-3.9346313 -6.1737561 -2.0992541 302.51001
-4.3164282 -6.7728262 -2.1024935 302.51001
-4.7935162 -7.5214157 -2.1133063 302.51001
-5.3548036 -8.4021215 -2.1177886 302.51001
-6.0695491 -9.5236149 -2.1277678 302.51001
-7.08182 -11.035304 -2.1542573 302.69
-8.4857283 -13.222957 -2.2081203 302.69
-10.75236 -16.754955 -2.3281245 302.69
-12.956529 -20.189617 -1.6775037 302.69
-2.5400229 -3.9580114 -2.0938802 302.69
-18.706869 -29.150135 -1.6152338 302.69
-2.7011428 -4.2090783 -2.0889924 302.69
-2.8968356 -4.5140181 -2.0944092 302.69
-3.1100938 -4.8463292 -2.0958993 302.69
-3.3586192 -5.2335963 -2.101248 302.69
-3.6244984 -5.6479044 -2.0940595 302.69
-3.9529691 -6.1597466 -2.0987029 302.69
-4.3355942 -6.7559757 -2.1014805 302.69
-4.808713 -7.4932165 -2.1096172 302.69
-5.3822298 -8.3869038 -2.1182044 302.69
-6.0973153 -9.5011921 -2.1270273 302.69
-7.115602 -11.015902 -2.1545815 302.85999
-8.5270739 -13.201048 -2.2086771 302.85999
-10.817116 -16.74634 -2.3313768 302.85999
-11.227311 -17.381376 -1.9304802 302.85999
-11.539801 -17.86515 -1.487208 302.85999
-2.5467985 -3.9427838 -2.0898128 302.85999
-18.836637 -29.161629 -1.6189604 302.85999
-2.7156222 -4.2041454 -2.090534 302.85999
-2.9102161 -4.505403 -2.0944092 302.85999
-3.1264989 -4.8402376 -2.0972676 302.85999
-3.3731048 -5.2220163 -2.1006076 302.85999
-3.6402042 -5.6355219 -2.0934637 302.85999
-3.9691417 -6.1447611 -2.0976002 302.85999
-4.3566704 -6.7447071 -2.1019871 302.85999
-4.8309245 -7.4789157 -2.1096172 302.85999
-5.4049678 -8.3676109 -2.1173728 302.85999
-6.1265454 -9.4847097 -2.1273975 302.85999
-7.1493311 -10.996395 -2.1549058 303.03
-8.5683632 -13.17901 -2.2092338 303.03
-10.885163 -16.742483 -2.335326 303.03
-11.228903 -17.271191 -1.9219341 303.03
-12.972795 -19.953472 -1.6642499 303.03
-2.5594816 -3.9367418 -2.0906262 303.03
-18.930702 -29.117336 -1.6196126 303.03
-2.7270782 -4.1945224 -2.0897632 303.03
-2.9225557 -4.4951863 -2.0936818 303.03
-3.1387975 -4.8277884 -2.0958993 303.03
-3.3865185 -5.2088079 -2.0993273 303.03
-3.6527464 -5.6182938 -2.0910807 303.03
-3.9946916 -6.1442399 -2.1014593 303.03
-4.3766632 -6.731751 -2.1019871 303.03
-4.8541546 -7.4661808 -2.1100783 303.03
-5.4287047 -8.3498974 -2.1169569 303.03
-6.1557312 -9.4681377 -2.1277678 303.03
-7.1827612 -10.97223 -2.1545815 303.20999
-8.612978 -13.156998 -2.2100689 303.20999
-10.962731 -16.746429 -2.3406689 303.20999
-11.324553 -17.299141 -1.9289939 303.20999
-11.495731 -17.560629 -1.4676762 303.20999
-2.573838 -3.9317389 -2.0922532 303.20999
-2.7402422 -4.1859345 -2.0897632 303.20999
-24.301884 -37.123028 -1.0301415 303.20999
-2.9376836 -4.4875417 -2.0944092 303.20999
-3.1529195 -4.8163314 -2.0952153 303.20999
-3.40079 -5.194973 -2.0980468 303.20999
-3.6682873 -5.6035957 -2.0898893 303.20999
-4.0129213 -6.1300516 -2.100908 303.20999
-4.3935509 -6.711493 -2.099961 303.20999
-4.8765202 -7.449266 -2.1096172 303.20999
-5.4516954 -8.3278913 -2.1157093 303.20999
-6.1832929 -9.4454641 -2.1270273 303.20999
-7.2163706 -10.952518 -2.1549058 303.38
-8.659606 -13.142962 -2.2120173 303.38
-11.002534 -16.6989 -2.3385782 303.38
-11.394456 -17.293732 -1.9321523 303.38
-12.230553 -18.562702 -1.5544533 303.38
-2.5854924 -3.9240849 -2.0922532 303.38
-17.035154 -25.854801 -1.4438999 303.38
-2.7546809 -4.1808677 -2.091305 303.38
-24.359119 -36.970615 -1.0279132 303.38
-2.9489355 -4.4756942 -2.0929544 303.38
-3.1692641 -4.8100939 -2.0965834 303.38
-3.4182739 -5.188024 -2.0993273 303.38
-3.6859479 -5.5942817 -2.0904849 303.38
-4.0268612 -6.1116962 -2.0987029 303.38
-4.413445 -6.6984277 -2.099961 303.38
-4.899672 -7.4363894 -2.1100783 303.38
-5.4763808 -8.3116789 -2.1157093 303.38
-6.2123723 -9.4287176 -2.1273975 303.38
-7.2488356 -10.931058 -2.1549058 303.54999
-8.6963739 -13.11391 -2.2114606 303.54999
-11.034467 -16.639692 -2.3348613 303.54999
-11.119954 -16.768606 -1.8771602 303.54999
-13.173198 -19.864843 -1.6667612 303.54999
-2.5940945 -3.911828 -2.0898128 303.54999
-17.02346 -25.670942 -1.4364465 303.54999
-2.7599339 -4.1619096 -2.0859089 303.54999
-2.9611726 -4.4653721 -2.0922267 303.54999
-3.1793673 -4.794404 -2.0938473 303.54999
-3.4326048 -5.17628 -2.0986869 303.54999
-3.6993647 -5.578547 -2.0886977 303.54999
-4.0481644 -6.1045284 -2.1003566 303.54999
-4.4322309 -6.6836905 -2.0994544 303.54999
-4.9249411 -7.4266849 -2.1114616 303.54999
-5.5053425 -8.3019152 -2.1173728 303.54999
-6.2414069 -9.4118814 -2.1277678 303.54999
-7.2760468 -10.905848 -2.153933 303.70999
-8.7406559 -13.101106 -2.2134089 303.70999
-11.065455 -16.58568 -2.331609 303.70999
-11.36125 -17.029036 -1.9098582 303.70999
-2.6029804 -3.9015291 -2.088186 303.70999
-17.027447 -25.521927 -1.4307634 303.70999
-2.7776909 -4.1633973 -2.090534 303.70999
-24.485094 -36.69997 -1.0242923 303.70999
-2.9725966 -4.4555359 -2.0914993 303.70999
-3.1937864 -4.7870703 -2.0945313 303.70999
-3.4438915 -5.1619453 -2.0967662 303.70999
-3.7159882 -5.5697827 -2.0892935 303.70999
-4.0662627 -6.094799 -2.100908 303.70999
-4.445509 -6.66324 -2.0969219 303.70999
-4.943501 -7.4096651 -2.1105394 303.70999
-5.5274186 -8.2848816 -2.1169569 303.70999
-6.2676654 -9.3944149 -2.1277678 303.70999
-7.314373 -10.884935 -2.1545815 303.89999
-8.7862616 -13.075336 -2.2139657 303.89999
-11.103776 -16.524162 -2.3281245 303.89999
-11.302148 -16.81937 -1.8905367 303.89999
-11.631816 -17.309967 -1.4583288 303.89999
-2.6148849 -3.8913593 -2.0873725 303.89999
-2.7894232 -4.1510997 -2.0889924 303.89999
-24.632311 -36.656746 -1.0253601 303.89999
-2.9883945 -4.4472003 -2.0922267 303.89999
-3.2096434 -4.776453 -2.0945313 303.89999
-3.4609902 -5.150497 -2.0967662 303.89999
-3.7333729 -5.5558448 -2.0886977 303.89999
-4.0832348 -6.0764942 -2.0992541 303.89999
-4.4675808 -6.6484613 -2.0969219 303.89999
-4.9713016 -7.398077 -2.1119227 303.89999
-5.5526795 -8.2632589 -2.1161251 303.89999
-6.2954955 -9.3686857 -2.126657 303.89999
-7.3477426 -10.86482 -2.1549058 304.07001
-8.826128 -13.05085 -2.2142441 304.07001
-11.152756 -16.491144 -2.3281245 304.07001
-11.169049 -16.515238 -1.8600681 304.07001
-11.649593 -17.2258 -1.4541434 304.07001
-2.6264193 -3.8835835 -2.0873725 304.07001
-17.1427 -25.348242 -1.4270366 304.07001
-2.7975922 -4.1366901 -2.0859089 304.07001
-24.807051 -36.681217 -1.0280989 304.07001
-3.0047073 -4.4429436 -2.0944092 304.07001
-3.2206426 -4.7622385 -2.0924792 304.07001
-3.4720111 -5.1339273 -2.0942054 304.07001
-3.749841 -5.5447435 -2.0886977 304.07001
-4.1023231 -6.0659447 -2.0998054 304.07001
-4.4829516 -6.6287661 -2.0948961 304.07001
-4.996501 -7.3881307 -2.1133063 304.07001
-5.5771728 -8.246747 -2.1161251 304.07001
-6.3243661 -9.351593 -2.1270273 304.07001
-7.385499 -10.851129 -2.156527 304.23999
-8.872612 -13.036066 -2.2161925 304.23999
-11.159163 -16.395576 -2.3192971 304.23999
-11.603438 -17.048326 -1.9239777 304.23999
-11.892613 -17.473196 -1.4780002 304.23999
-2.6358745 -3.8727529 -2.0857456 304.23999
-21.473677 -31.550152 -1.7797664 304.23999
-2.8129687 -4.1329484 -2.0882215 304.23999
-25.018154 -36.75787 -1.0323232 304.23999
-3.018925 -4.4355488 -2.0951366 304.23999
-3.2368731 -4.7557693 -2.0938473 304.23999
-3.4872284 -5.1236029 -2.0942054 304.23999
-3.7673502 -5.5351715 -2.0892935 304.23999
-4.1170578 -6.0489783 -2.0981514 304.23999
-4.5036888 -6.6170349 -2.0954025 304.23999
-5.0129247 -7.3652291 -2.1110005 304.23999
-5.6016169 -8.2301636 -2.1161251 304.23999
-6.3565083 -9.3392868 -2.1285086 304.23999
-7.4150901 -10.821362 -2.15523 304.42001
-8.9191198 -13.016296 -2.2175841 304.42001
-11.158965 -16.285061 -2.3086114 304.42001
-11.251717 -16.420418 -1.8570956 304.42001
-11.990303 -17.498289 -1.4833016 304.42001
-2.6500936 -3.8674674 -2.0873725 304.42001
-11.344774 -16.556225 -0.93595421 304.42001
-2.8228095 -4.1195235 -2.0859089 304.42001
-21.173267 -30.899635 -0.86966205 304.42001
-3.0338976 -4.4275799 -2.0958643 304.42001
-3.2517979 -4.7455769 -2.0938473 304.42001
-3.5022364 -5.1110592 -2.093565 304.42001
-3.7814832 -5.5185838 -2.0875063 304.42001
-4.1360407 -6.0360146 -2.0981514 304.42001
-4.5244546 -6.6028538 -2.0954025 304.42001
-5.0360384 -7.3494439 -2.1110005 304.42001
-5.6274447 -8.2125244 -2.1161251 304.42001
-6.3791513 -9.3095427 -2.1262867 304.42001
-7.4449244 -10.796063 -2.1545815 304.59
-8.9599495 -12.993037 -2.2181408 304.59
-11.159871 -16.183195 -2.2988546 304.59
-11.320736 -16.41647 -1.8604397 304.59
-2.6605196 -3.8580832 -2.0865591 304.59
-17.004574 -24.658741 -1.3968506 304.59
-2.8339722 -4.109611 -2.0851381 304.59
-21.263721 -30.83503 -0.86961561 304.59
-3.0427907 -4.4124236 -2.0929544 304.59
-3.264797 -4.7343602 -2.0931633 304.59
-3.5173857 -5.1006451 -2.093565 304.59
-3.794589 -5.5026245 -2.0857189 304.59
-4.1506577 -6.0189681 -2.0964978 304.59
-4.5429273 -6.5878077 -2.0948961 304.59
-5.0611372 -7.3392758 -2.1123838 304.59
-5.6506763 -8.1941814 -2.1157093 304.59
-6.4056296 -9.2889566 -2.1259162 304.59
-7.4780493 -10.775547 -2.1549058 304.76001
-8.9984608 -12.966395 -2.2181408 304.76001
-11.181789 -16.112476 -2.2935116 304.76001
-11.473846 -16.533319 -1.8775318 304.76001
-11.566127 -16.666292 -1.4185677 304.76001
-2.6771636 -3.8576777 -2.0906262 304.76001
-19.335245 -27.861258 -1.5815073 304.76001
-2.8493097 -4.1057324 -2.0874507 304.76001
-25.285744 -36.435669 -1.0296773 304.76001
-3.0579937 -4.4064374 -2.0944092 304.76001
-3.2788298 -4.7246528 -2.0931633 304.76001
-3.5335844 -5.091743 -2.0942054 304.76001
-3.8108988 -5.4913416 -2.0857189 304.76001
-4.1674018 -6.0050468 -2.0959466 304.76001
-4.5668659 -6.5806575 -2.0969219 304.76001
-5.0806718 -7.3210292 -2.1114616 304.76001
-5.674964 -8.1773796 -2.1157093 304.76001
-6.438765 -9.2779837 -2.1277678 304.76001
-7.5088582 -10.751694 -2.1545815 304.92999
-9.0425634 -12.947758 -2.2195327 304.92999
-11.213623 -16.056429 -2.2902594 304.92999
-11.655114 -16.688587 -1.8990827 304.92999
-2.683367 -3.8422277 -2.0865591 304.92999
-11.885197 -17.018034 -0.96800363 304.92999
-2.8604224 -4.0957475 -2.0866799 304.92999
-3.0710542 -4.3973446 -2.0944092 304.92999
-3.2928336 -4.7149034 -2.0931633 304.92999
-3.5465066 -5.0781298 -2.0929248 304.92999
-3.8293617 -5.4831405 -2.0869105 304.92999
-4.1874022 -5.9958076 -2.097049 304.92999
-4.5786161 -6.5559745 -2.0933764 304.92999
-5.1034856 -7.307518 -2.1119227 304.92999
-5.7003222 -8.1621094 -2.1161251 304.92999
-6.4628887 -9.2540045 -2.126657 304.92999
-7.5425982 -10.728051 -2.1545815 305.10999
-9.088891 -12.927386 -2.2209244 305.10999
-11.240018 -15.986996 -2.2853811 305.10999
-11.636476 -16.55089 -1.8875641 305.10999
-11.651654 -16.572477 -1.4166144 305.10999
-2.6943736 -3.832284 -2.0857456 305.10999
-16.999006 -24.178167 -1.3783104 305.10999
-2.8732753 -4.086741 -2.0866799 305.10999
-16.939297 -24.093241 -0.68379003 305.10999
-3.0827107 -4.3846269 -2.0929544 305.10999
-16.915104 -24.058832 0 305.10999
-3.3065488 -4.7029982 -2.0924792 305.10999
-3.5624425 -5.0669627 -2.0929248 305.10999
-3.8432741 -5.4663978 -2.0851233 305.10999
-4.2051125 -5.9810505 -2.0964978 305.10999
-4.604754 -6.5494719 -2.0959089 305.10999
-5.120821 -7.2834888 -2.1096172 305.10999
-5.7203102 -8.1361589 -2.1140461 305.10999
-6.4930596 -9.2352629 -2.1270273 305.10999
-7.5748067 -10.710169 -2.15523 305.26999
-9.12953 -12.908423 -2.2220378 305.26999
-11.231853 -15.88094 -2.2746952 305.26999
-11.092768 -15.684284 -1.792257 305.26999
-11.636829 -16.453545 -1.4092203 305.26999
-2.707175 -3.8277283 -2.0873725 305.26999
-11.950212 -16.896643 -0.96511543 305.26999
-2.8846765 -4.0787015 -2.0866799 305.26999
-3.0960188 -4.3775225 -2.0936818 305.26999
-3.318584 -4.6922116 -2.0917952 305.26999
-3.5776722 -5.0585418 -2.093565 305.26999
-3.8607292 -5.4587617 -2.0863147 305.26999
-4.2173576 -5.9630055 -2.0942926 305.26999
-4.6140876 -6.5239506 -2.091857 305.26999
-5.1456351 -7.275516 -2.1114616 305.26999
-5.7486563 -8.1281395 -2.1161251 305.26999
-6.5165544 -9.2138853 -2.1262867 305.26999
-7.6049824 -10.681497 -2.1542573 305.45001
-9.1746321 -12.886132 -2.2231512 305.45001
-11.237908 -15.784084 -2.2658677 305.45001
-11.192805 -15.720735 -1.8004315 305.45001
-2.7170672 -3.8162279 -2.0857456 305.45001
-16.927818 -23.775785 -1.3610746 305.45001
-2.897476 -4.0696187 -2.0866799 305.45001
-3.1097558 -4.367774 -2.0936818 305.45001
-3.3322184 -4.680232 -2.0911112 305.45001
-3.5935464 -5.0472775 -2.093565 305.45001
-3.8789666 -5.4481611 -2.0869105 305.45001
-4.2394152 -5.9544253 -2.0959466 305.45001
-4.642416 -6.5204554 -2.0954025 305.45001
-5.1639514 -7.2529731 -2.1096172 305.45001
-5.7707591 -8.105258 -2.1148777 305.45001
-6.546608 -9.1949682 -2.126657 305.45001
-7.6423883 -10.666906 -2.1558785 305.62
-9.2174397 -12.865294 -2.2242644 305.62
-11.243042 -15.692539 -2.2575049 305.62
-11.211565 -15.648605 -1.7959727 305.62
-14.262094 -19.906399 -1.712382 305.62
-2.7262502 -3.8051789 -2.0841186 305.62
-17.016905 -23.75144 -1.3625653 305.62
-2.9041638 -4.053503 -2.0828257 305.62
-3.1216164 -4.3570137 -2.0929544 305.62
-3.3471849 -4.6718521 -2.0917952 305.62
-3.6096098 -5.0381331 -2.0942054 305.62
-3.8895547 -5.4288678 -2.0839317 305.62
-4.2537045 -5.9371324 -2.0942926 305.62
-4.660615 -6.5050797 -2.0948961 305.62
-5.1877155 -7.2407832 -2.1105394 305.62
-5.7947826 -8.0881004 -2.1148777 305.62
-6.5761509 -9.1786995 -2.1273975 305.62
-7.6705413 -10.639381 -2.1549058 305.79001
-9.2578878 -12.841102 -2.2248211 305.79001
-11.238438 -15.588212 -2.2472837 305.79001
-11.298706 -15.671807 -1.8024751 305.79001
-11.809011 -16.379623 -1.4120106 305.79001
-2.7450078 -3.8074477 -2.0898128 305.79001
-19.438046 -26.961433 -1.550017 305.79001
-2.920495 -4.0508561 -2.0859089 305.79001
-3.1323512 -4.3447104 -2.0914993 305.79001
-3.3621309 -4.663425 -2.0924792 305.79001
-3.6223261 -5.0243273 -2.0929248 305.79001
-3.9034123 -5.414206 -2.0827403 305.79001
-4.269053 -5.9213662 -2.0931902 305.79001
-4.6798954 -6.4912229 -2.0948961 305.79001
-5.2069006 -7.2222023 -2.1096172 305.79001
-5.8221874 -8.0756321 -2.1161251 305.79001
-6.6010566 -9.1559582 -2.126657 305.79001
-7.7060156 -10.625908 -2.156527 305.95001
-9.2971992 -12.820008 -2.2256563 305.95001
-11.241107 -15.500484 -2.2391531 305.95001
-11.255914 -15.520902 -1.788727 305.95001
-14.43976 -19.911142 -1.7199156 305.95001
-2.7567022 -3.8012464 -2.0906262 305.95001
-16.912979 -23.321489 -1.343466 305.95001
-2.9307122 -4.0411911 -2.0851381 305.95001
-3.1444716 -4.3359461 -2.0914993 305.95001
-3.3729339 -4.6509748 -2.0911112 305.95001
-3.637455 -5.0157261 -2.093565 305.95001
-3.9207582 -5.4063759 -2.0839317 305.95001
-4.2889581 -5.9140906 -2.0948439 305.95001
-4.6957326 -6.4749961 -2.093883 305.95001
-5.2281909 -7.209209 -2.1100783 305.95001
-5.8447161 -8.0593424 -2.1161251 305.95001
-6.6254454 -9.1358986 -2.1262867 305.95001
-7.7423739 -10.60189 -2.1568513 306.14001
-9.3419962 -12.792306 -2.226213 306.14001
-11.24207 -15.39414 -2.2291641 306.14001
-11.347252 -15.538168 -1.7950437 306.14001
-14.462173 -19.803534 -1.7147536 306.14001
-2.7628272 -3.7832308 -2.0857456 306.14001
-17.042065 -23.336266 -1.3475654 306.14001
-2.9397438 -4.0254889 -2.0820549 306.14001
-3.1577342 -4.3239903 -2.0907719 306.14001
-3.3894467 -4.6412821 -2.0917952 306.14001
-3.6518328 -5.000576 -2.0922847 306.14001
-3.9341609 -5.387177 -2.0815487 306.14001
-4.3074126 -5.898283 -2.0942926 306.14001
-4.7148962 -6.456264 -2.09287 306.14001
-5.2509208 -7.1902604 -2.1096172 306.14001
-5.8737168 -8.0430756 -2.1169569 306.14001
-6.6568637 -9.1154642 -2.126657 306.14001
-7.7754545 -10.584999 -2.157824 306.29999
-9.3835459 -12.774149 -2.2276046 306.29999
-11.250911 -15.316258 -2.2224274 306.29999
-11.441291 -15.575431 -1.8030325 306.29999
-12.042925 -16.394457 -1.422474 306.29999
-2.7755444 -3.778446 -2.0873725 306.29999
-17.122541 -23.309515 -1.3487766 306.29999
-2.9509735 -4.0172634 -2.0820549 306.29999
-3.1697967 -4.3151555 -2.0907719 306.29999
-3.3990567 -4.627255 -2.0897431 306.29999
-3.6635394 -4.9873042 -2.0910041 306.29999
-3.9491894 -5.3761697 -2.0815487 306.29999
-4.3215904 -5.8831325 -2.0931902 306.29999
-4.7329073 -6.4430723 -2.09287 306.29999
-5.2721314 -7.1771374 -2.1100783 306.29999
-5.8938384 -8.023489 -2.1161251 306.29999
-6.6834564 -9.098423 -2.1270273 306.29999
-7.814034 -10.563916 -2.1587968 306.48999
-9.429388 -12.747739 -2.2284398 306.48999
-11.257931 -15.219775 -2.2138324 306.48999
-11.368535 -15.369303 -1.7835251 306.48999
-15.777648 -21.330051 -1.8552432 306.48999
-2.7826262 -3.7618766 -2.0833051 306.48999
-17.04767 -23.047016 -1.3368512 306.48999
-2.9653766 -4.0089393 -2.0828257 306.48999
-30.180328 -40.801266 -1.1782727 306.48999
-3.1840889 -4.3046203 -2.0907719 306.48999
-3.4143825 -4.6159577 -2.0897431 306.48999
-3.6800578 -4.9751282 -2.0910041 306.48999
-3.9794848 -5.3799286 -2.0881019 306.48999
-4.3422194 -5.8703146 -2.0937414 306.48999
-4.7542472 -6.4273419 -2.09287 306.48999
-5.29706 -7.1611795 -2.1105394 306.48999
-5.9180861 -8.0007544 -2.1152935 306.48999
-6.7124224 -9.0746298 -2.126657 306.48999
-7.8418083 -10.535935 -2.157824 306.66
-9.4683523 -12.721294 -2.228718 306.66
-11.254411 -15.120971 -2.204308 306.66
-11.483047 -15.428156 -1.7943007 306.66
-11.970587 -16.083195 -1.4019656 306.66
-2.7981393 -3.7594664 -2.0865591 306.66
-12.212236 -16.407866 -0.95384222 306.66
-2.9728508 -3.9942017 -2.0797422 306.66
-30.081594 -40.416409 -1.1697311 306.66
-3.1990716 -4.2981429 -2.0922267 306.66
-3.4291854 -4.6073146 -2.0904272 306.66
-3.6925404 -4.9611473 -2.0897236 306.66
-3.9920101 -5.363503 -2.0863147 306.66
-4.3584695 -5.8558631 -2.0931902 306.66
-4.7756071 -6.4163117 -2.093883 306.66
-5.3113127 -7.1360645 -2.1077728 306.66
-5.9417987 -7.9831595 -2.1152935 306.66
-6.7369709 -9.0515203 -2.1259162 306.66
-7.8801327 -10.5221 -2.1597695 306.82999
-9.5096169 -12.697901 -2.229553 306.82999
-11.253977 -15.027091 -2.1954806 306.82999
-11.991928 -16.012455 -1.8663847 306.82999
-15.841754 -21.153009 -1.8479885 306.82999
-2.8059957 -3.7467604 -2.0841186 306.82999
-19.876303 -26.540218 -1.5462903 306.82999
-2.9946449 -3.9986579 -2.0866799 306.82999
-30.430305 -40.632656 -1.1785977 306.82999
-3.2028763 -4.2767029 -2.0864069 306.82999
-3.4428403 -4.5971193 -2.0904272 306.82999
-3.7106514 -4.9547195 -2.0916443 306.82999
-4.0113397 -5.3562193 -2.0881019 306.82999
-4.37813 -5.845983 -2.0942926 306.82999
-4.7946234 -6.4021139 -2.093883 306.82999
-5.3347955 -7.1233892 -2.108695 306.82999
-5.9678044 -7.9686265 -2.1161251 306.82999
-6.7626195 -9.0299187 -2.125546 306.82999
-7.9131498 -10.497292 -2.1597695 307.01001
-9.5470772 -12.6648 -2.2289963 307.01001
-11.267649 -14.947247 -2.188976 307.01001
-12.121288 -16.079653 -1.8786465 307.01001
-15.874502 -21.058529 -1.8440821 307.01001
-2.816653 -3.7364676 -2.0833051 307.01001
-17.001183 -22.553141 -1.3170998 307.01001
-3.0083032 -3.9907038 -2.0874507 307.01001
-30.528919 -40.498535 -1.1774836 307.01001
-3.2140532 -4.2636442 -2.0849521 307.01001
-3.4538717 -4.5817785 -2.0883751 307.01001
-3.7239177 -4.9400115 -2.090364 307.01001
-4.0258484 -5.3405418 -2.0869105 307.01001
-4.3918452 -5.8260593 -2.0920875 307.01001
-4.8088894 -6.3792949 -2.0913506 307.01001
-5.3606625 -7.1112566 -2.1100783 307.01001
-5.9951644 -7.9529634 -2.1169569 307.01001
-6.788588 -9.0054903 -2.1248055 307.01001
-7.9436255 -10.476727 -2.1600938 307.17001
-9.591979 -12.650715 -2.2312231 307.17001
-11.266139 -14.858739 -2.1806133 307.17001
-11.803999 -15.568114 -1.8227255 307.17001
-15.872976 -20.934626 -1.8371065 307.17001
-2.8281801 -3.7300434 -2.0841186 307.17001
-17.182386 -22.661589 -1.3262302 307.17001
-3.0194356 -3.9822876 -2.0874507 307.17001
-30.674511 -40.456142 -1.178737 307.17001
-3.2259469 -4.254652 -2.0849521 307.17001
-3.4655175 -4.5706182 -2.0876911 307.17001
-3.7354088 -4.9265738 -2.0890834 307.17001
-4.0372858 -5.3247147 -2.0851233 307.17001
-4.4092588 -5.8153043 -2.0926387 307.17001
-4.8255157 -6.3642993 -2.0908439 307.17001
-5.3781481 -7.0931578 -2.1091561 307.17001
-6.0126219 -7.929955 -2.1152935 307.17001
-6.8160844 -8.9896297 -2.125546 307.17001
-7.9758725 -10.454679 -2.160418 307.34
-9.6306744 -12.623775 -2.2315016 307.34
-11.287283 -14.795238 -2.1761994 307.34
-11.799409 -15.466527 -1.8149226 307.34
-15.887825 -20.825575 -1.8316655 307.34
-2.840343 -3.7230883 -2.0849321 307.34
-20.323811 -26.640213 -1.5625944 307.34
-3.0345962 -3.9777129 -2.0897632 307.34
-21.556816 -28.25642 -0.82514375 307.34
-3.2430766 -4.2509866 -2.087862 307.34
-3.4790635 -4.5603156 -2.0876911 307.34
-3.7442634 -4.9079366 -2.0858822 307.34
-4.0576987 -5.3187838 -2.0875063 307.34
-4.4264936 -5.802196 -2.0926387 307.34
-4.849072 -6.3561068 -2.09287 307.34
-5.3979902 -7.0756221 -2.108695 307.34
-6.033751 -7.9089699 -2.1144619 307.34
-6.840343 -8.9662418 -2.1248055 307.34
-8.0122833 -10.434267 -2.1613908 307.51999
-9.6751099 -12.59974 -2.232615 307.51999
-11.334918 -14.761281 -2.1764319 307.51999
-11.789725 -15.353569 -1.806005 307.51999
-15.898493 -20.70435 -1.8253874 307.51999
-2.8464615 -3.7069011 -2.0808647 307.51999
-17.3424 -22.584726 -1.3279072 307.51999
-3.0448296 -3.9652324 -2.0882215 307.51999
-3.2496076 -4.2319117 -2.083497 307.51999
-3.4887946 -4.5434008 -2.0849547 307.51999
-3.7642796 -4.9021606 -2.0884433 307.51999
-4.0720625 -5.3029814 -2.0863147 307.51999
-4.4400163 -5.7821617 -2.0904336 307.51999
-4.8690162 -6.3408413 -2.09287 307.51999
-5.4178214 -7.0555415 -2.1077728 307.51999
-6.0609508 -7.8930783 -2.1152935 307.51999
-6.8708715 -8.9478254 -2.125546 307.51999
-8.0425959 -10.413414 -2.161715 307.67999
-9.7078362 -12.569538 -2.2320583 307.67999
-11.405236 -14.767303 -2.1820071 307.67999
-11.758305 -15.224448 -1.7946721 307.67999
-15.894053 -20.579342 -1.8182722 307.67999
-2.8590357 -3.7018297 -2.0824916 307.67999
-20.427807 -26.44957 -1.5584952 307.67999
-3.0547626 -3.9552536 -2.0874507 307.67999
-3.2648289 -4.2272439 -2.0856795 307.67999
-3.4957247 -4.5262036 -2.0815346 307.67999
-3.7779543 -4.8916297 -2.0884433 307.67999
-4.0856886 -5.2900786 -2.0857189 307.67999
-4.4537959 -5.7666974 -2.0893312 307.67999
-4.8831563 -6.3226261 -2.0913506 307.67999
-5.4363136 -7.0388446 -2.1073117 307.67999
-6.0853601 -7.8792191 -2.1161251 307.67999
-6.8898249 -8.920826 -2.1236944 307.67999
-8.0782957 -10.388245 -2.1620393 307.87
-9.7567596 -12.546657 -2.2337282 307.87
-11.471216 -14.751354 -2.1852593 307.87
-11.845399 -15.232533 -1.8002456 307.87
-15.869127 -20.406826 -1.8076693 307.87
-2.8701742 -3.6908863 -2.0816782 307.87
-20.580404 -26.465269 -1.5634329 307.87
-3.0655961 -3.9421883 -2.0859089 307.87
-22.162172 -28.499336 -0.83818823 307.87
-3.2799726 -4.2178645 -2.0864069 307.87
-3.5130222 -4.5175538 -2.0829027 307.87
-3.7953179 -4.8805704 -2.0890834 307.87
-4.1008644 -5.2734866 -2.0845275 307.87
-4.4658132 -5.7427907 -2.0860236 307.87
-4.9040961 -6.3063984 -2.0913506 307.87
-5.4584308 -7.0192423 -2.1068506 307.87
-6.1054506 -7.851274 -2.1140461 307.87
-6.9241958 -8.9041357 -2.1251757 307.87
-8.1066504 -10.361121 -2.1613908 308.04001
-9.7976046 -12.522332 -2.2345634 308.04001
-11.521054 -14.725076 -2.1864207 308.04001
-11.778877 -15.0546 -1.7833394 308.04001
-15.939441 -20.372221 -1.8087853 308.04001
-2.8856161 -3.6881099 -2.0849321 308.04001
-20.857042 -26.657415 -1.5784328 308.04001
-3.0784166 -3.9345286 -2.0866799 308.04001
-22.278667 -28.474398 -0.83939517 308.04001
-3.2924728 -4.2081141 -2.0864069 308.04001
-3.5252526 -4.5056305 -2.0822186 308.04001
-3.8109498 -4.8707805 -2.0897236 308.04001
-4.1129637 -5.2567849 -2.0827403 308.04001
-4.4899406 -5.7385998 -2.0893312 308.04001
-4.9239783 -6.2933435 -2.091857 308.04001
-5.4768348 -6.9999504 -2.1059282 308.04001
-6.1323352 -7.8377466 -2.1152935 308.04001
-6.9493732 -8.8820038 -2.1248055 308.04001
-8.1422396 -10.343225 -2.1626878 308.20999
-9.8347158 -12.493207 -2.2345634 308.20999
-11.556092 -14.679901 -2.1847947 308.20999
-13.311438 -16.909746 -2.0077662 308.20999
-15.941814 -20.251158 -1.8022282 308.20999
-2.8976762 -3.6809676 -2.0857456 308.20999
-18.773485 -23.848278 -1.4153908 308.20999
-3.0900769 -3.9253774 -2.0866799 308.20999
-22.544859 -28.639118 -0.84621912 308.20999
-3.3026392 -4.1953988 -2.0849521 308.20999
-3.539768 -4.4966273 -2.0829027 308.20999
-3.8253849 -4.8594518 -2.0897236 308.20999
-4.1356282 -5.2535591 -2.0863147 308.20999
-4.5045695 -5.7222314 -2.0882287 308.20999
-4.9366455 -6.2711048 -2.0893245 308.20999
-5.496376 -6.9821401 -2.1054671 308.20999
-6.1531434 -7.816443 -2.1144619 308.20999
-6.9732647 -8.8582573 -2.1240649 308.20999
-8.1753435 -10.322116 -2.163336 308.38
-9.8791189 -12.473288 -2.2362335 308.38
-11.532997 -14.56146 -2.1722503 308.38
-12.08808 -15.262303 -1.8164089 308.38
-15.959714 -20.150593 -1.7974849 308.38
-2.9085851 -3.6723537 -2.0857456 308.38
-3.0994186 -3.9132984 -2.0851381 308.38
-22.529179 -28.445141 -0.84245902 308.38
-3.3173862 -4.1885023 -2.0864069 308.38
-3.5507603 -4.4831586 -2.0815346 308.38
-3.8386099 -4.8465948 -2.0890834 308.38
-4.1452708 -5.2337823 -2.0833359 308.38
-4.5227213 -5.7103481 -2.0887799 308.38
-4.9600353 -6.2624969 -2.0913506 308.38
-5.5206933 -6.9703784 -2.1068506 308.38
-6.1799517 -7.8027525 -2.1157093 308.38
-7.0031776 -8.8421497 -2.1251757 308.38
-8.2052708 -10.293295 -2.1626878 308.56
-9.9182558 -12.44219 -2.2362335 308.56
-11.433813 -14.343417 -2.145071 308.56
-11.262109 -14.128018 -1.6856171 308.56
-15.986875 -20.055113 -1.7934389 308.56
-2.9155521 -3.6574833 -2.0824916 308.56
-20.355907 -25.535948 -1.5229053 308.56
-3.1139979 -3.9064281 -2.0866799 308.56
-22.672022 -28.441452 -0.84445512 308.56
-3.3258832 -4.1722326 -2.083497 308.56
-3.5648272 -4.4719815 -2.0815346 308.56
-3.8502736 -4.8300667 -2.0871627 308.56
-4.1616926 -5.2207336 -2.0833359 308.56
-4.5406384 -5.6961112 -2.0887799 308.56
-4.9869213 -6.2559609 -2.0943894 308.56
-5.5389247 -6.9484348 -2.1054671 308.56
-6.2044344 -7.783299 -2.1157093 308.56
-7.0296965 -8.8185682 -2.1248055 308.56
-8.2389202 -10.276501 -2.1639845 308.72
-9.9603949 -12.423716 -2.2379034 308.72
-11.400512 -14.21999 -2.1313653 308.72
-11.307746 -14.104282 -1.686546 308.72
-16.012865 -19.97303 -1.7900907 308.72
-2.9257545 -3.6493273 -2.0824916 308.72
-20.317167 -25.341837 -1.5147067 308.72
-3.1248946 -3.897717 -2.0866799 308.72
-3.3398519 -4.1658359 -2.0849521 308.72
-3.5796525 -4.4649415 -2.0829027 308.72
-3.8625617 -4.8178177 -2.0865226 308.72
-4.1762557 -5.2090917 -2.0833359 308.72
-4.5517173 -5.6774092 -2.0865748 308.72
-5.0031614 -6.2405009 -2.093883 308.72
-5.5595241 -6.9344583 -2.1059282 308.72
-6.2236977 -7.7628899 -2.1148777 308.72
-7.0493774 -8.7927694 -2.1233242 308.72
-8.2693748 -10.25201 -2.1639845 308.89001
-10.000943 -12.398733 -2.2387385 308.89001
-11.428934 -14.169093 -2.1288099 308.89001
-11.308288 -14.01952 -1.6804152 308.89001
-15.053696 -18.662914 -1.6766666 308.89001
-2.9365695 -3.6406302 -2.0824916 308.89001
-17.15996 -21.274168 -1.2746158 308.89001
-3.1329696 -3.8841188 -2.0843673 308.89001
-3.3475189 -4.1501079 -2.0820422 308.89001
-3.5917046 -4.4528384 -2.0822186 308.89001
-3.8768394 -4.8063359 -2.0865226 308.89001
-4.1904941 -5.1951914 -2.0827403 308.89001
-4.5697494 -5.6653757 -2.087126 308.89001
-5.0180111 -6.2211108 -2.0923634 308.89001
-5.5788527 -6.9164176 -2.1054671 308.89001
-6.2503881 -7.7489576 -2.1161251 308.89001
-7.0742011 -8.7702856 -2.1229539 308.89001
-8.3015423 -10.225981 -2.1639845 309.07001
-10.03735 -12.364178 -2.2381818 309.07001
-11.44084 -14.09302 -2.1227701 309.07001
-11.290775 -13.908169 -1.6713117 309.07001
-15.066983 -18.559767 -1.6716441 309.07001
-2.9491439 -3.6328053 -2.0833051 309.07001
-20.253756 -24.948919 -1.4985888 309.07001
-3.1451564 -3.8742571 -2.0843673 309.07001
-3.3652372 -4.1453562 -2.0849521 309.07001
-3.6068604 -4.4429917 -2.0829027 309.07001
-3.8919196 -4.7941327 -2.0865226 309.07001
-4.2092013 -5.1849656 -2.0839317 309.07001
-4.5851016 -5.648006 -2.0860236 309.07001
-5.0411892 -6.2098222 -2.093883 309.07001
-5.6030068 -6.9018788 -2.1063895 309.07001
-6.2710023 -7.7247272 -2.1148777 309.07001
-7.1066737 -8.7541208 -2.1244352 309.07001
-8.3468275 -10.219646 -2.1678755 309.23999
-10.08276 -12.345079 -2.2401302 309.23999
-11.402183 -13.960547 -2.1079028 309.23999
-11.394976 -13.951723 -1.6806009 309.23999
-15.209067 -18.621601 -1.6812705 309.23999
-2.9587538 -3.6226239 -2.0824916 309.23999
-20.122961 -24.638048 -1.4834958 309.23999
-3.1543028 -3.8620496 -2.0828257 309.23999
-3.3751647 -4.1324673 -2.083497 309.23999
-3.6188381 -4.4308147 -2.0822186 309.23999
-3.9085243 -4.7854991 -2.0878029 309.23999
-4.2149053 -5.1606245 -2.0791657 309.23999
-4.6018395 -5.634377 -2.0860236 309.23999
-5.0595918 -6.1948376 -2.093883 309.23999
-5.6197672 -6.8807025 -2.105006 309.23999
-6.2938943 -7.7060866 -2.1148777 309.23999
-7.1301298 -8.7299528 -2.1236944 309.23999
-8.3688669 -10.181177 -2.1652815 309.42001
-10.120236 -12.311812 -2.239852 309.42001
-11.420756 -13.893966 -2.1032569 309.42001
-11.51715 -14.011233 -1.6921195 309.42001
-12.27886 -14.937895 -1.3521595 309.42001
-2.97012 -3.6133111 -2.0824916 309.42001
-20.306828 -24.70435 -1.4913218 309.42001
-3.1652484 -3.8506954 -2.0820549 309.42001
-3.3893137 -4.1232829 -2.0842245 309.42001
-3.6315467 -4.4179721 -2.0815346 309.42001
-3.9211326 -4.7702689 -2.0865226 309.42001
-4.2359462 -5.1532569 -2.0815487 309.42001
-4.6231799 -5.6243477 -2.0876772 309.42001
-5.0777998 -6.1774168 -2.0933764 309.42001
-5.64012 -6.8615098 -2.1045449 309.42001
-6.319315 -7.6877871 -2.1152935 309.42001
-7.1537766 -8.7029543 -2.1225836 309.42001
-8.4015532 -10.159343 -2.16593 309.59
-10.164294 -12.290889 -2.2415221 309.59
-11.429016 -13.820217 -2.0972171 309.59
-11.526944 -13.938635 -1.6874748 309.59
-16.090506 -19.456993 -1.7655363 309.59
-2.9796634 -3.6030746 -2.0816782 309.59
-19.301641 -23.33997 -1.4124095 309.59
-3.1813641 -3.8469756 -2.0851381 309.59
-17.014868 -20.574753 -0.6198675 309.59
-3.3967838 -4.1074657 -2.0813146 309.59
-17.0322 -20.595711 0 309.59
-3.6458368 -4.4086261 -2.0822186 309.59
-3.9364765 -4.7600741 -2.0871627 309.59
-4.254868 -5.1450796 -2.0833359 309.59
-4.6361718 -5.6061611 -2.0860236 309.59
-5.0961061 -6.1623235 -2.0933764 309.59
-5.661694 -6.8462448 -2.105006 309.59
-6.3420973 -7.6690035 -2.1152935 309.59
-7.1833248 -8.6862345 -2.1236944 309.59
-8.4329214 -10.135887 -2.1662543 309.76001
-10.200717 -12.260676 -2.2415221 309.76001
-11.461078 -13.775557 -2.0955908 309.76001
-11.528769 -13.856917 -1.6817156 309.76001
-16.08564 -19.334015 -1.7587003 309.76001
-2.9891722 -3.5928133 -2.0808647 309.76001
-20.399403 -24.518909 -1.4874088 309.76001
-3.1951251 -3.8403566 -2.0866799 309.76001
-3.4125304 -4.1016655 -2.083497 309.76001
-3.6576993 -4.3963447 -2.0815346 309.76001
-3.948159 -4.74546 -2.0858822 309.76001
-4.2603464 -5.1206913 -2.0785699 309.76001
-4.6527853 -5.5923805 -2.0860236 309.76001
-5.1131301 -6.1456885 -2.09287 309.76001
-5.6882057 -6.8368964 -2.1073117 309.76001
-6.3660746 -7.6516562 -2.1157093 309.76001
-7.2078085 -8.663372 -2.1233242 309.76001
-8.4642248 -10.112335 -2.1665785 309.92999
-10.240864 -12.234912 -2.242357 309.92999
-11.487875 -13.724734 -2.0930357 309.92999
-11.564719 -13.816542 -1.6809725 309.92999
-16.095552 -19.229595 -1.7535383 309.92999
-3.0033374 -3.5881317 -2.0833051 309.92999
-20.451544 -24.433764 -1.4859182 309.92999
-3.1993983 -3.8223686 -2.0820549 309.92999
-3.4222937 -4.088665 -2.0820422 309.92999
-3.67314 -4.3883548 -2.0829027 309.92999
-3.9585731 -4.7293658 -2.0839615 309.92999
-4.2767463 -5.1094923 -2.0791657 309.92999
-4.6681237 -5.5770764 -2.0854723 309.92999
-5.1338263 -6.1334581 -2.093883 309.92999
-5.7034698 -6.8140197 -2.1054671 309.92999
-6.3887496 -7.6327338 -2.1157093 309.92999
-7.2309585 -8.6389332 -2.1225836 309.92999
-8.4911604 -10.08715 -2.1662543 310.09
-10.282643 -12.215358 -2.2440271 310.09
-11.476265 -13.633332 -2.0839758 310.09
-11.517336 -13.682121 -1.668525 310.09
-16.123491 -19.154047 -1.7507479 310.09
-3.0192287 -3.5867198 -2.0873725 310.09
-20.609756 -24.483545 -1.4924399 310.09
-3.2112484 -3.8148313 -2.0828257 310.09
-3.4324982 -4.0776672 -2.0813146 310.09
-3.6817493 -4.3737669 -2.0808506 310.09
-3.9717646 -4.7182932 -2.0839615 310.09
-4.2959161 -5.1033716 -2.0815487 310.09
-4.688632 -5.5699019 -2.0876772 310.09
-5.1484418 -6.1161375 -2.09287 310.09
-5.7249823 -6.801044 -2.1063895 310.09
-6.4112992 -7.6163602 -2.1161251 310.09
-7.255055 -8.6187077 -2.1225836 310.09
-8.5296679 -10.064959 -2.1675513 310.28
-10.317972 -12.175148 -2.2429137 310.28
-11.457197 -13.519427 -2.0723608 310.28
-11.732588 -13.844387 -1.6930484 310.28
-16.130165 -19.033503 -1.7446094 310.28
-3.0275624 -3.5725062 -2.0849321 310.28
-17.138815 -20.223703 -1.236231 310.28
-3.2250743 -3.8055692 -2.0835965 310.28
-3.444797 -4.0648408 -2.0805871 310.28
-3.6950181 -4.3601003 -2.0801666 310.28
-3.9873891 -4.7050962 -2.0839615 310.28
-4.3152847 -5.092011 -2.0827403 310.28
-4.7033477 -5.5499234 -2.0860236 310.28
-5.1674447 -6.0975552 -2.0923634 310.28
-5.7462459 -6.7805371 -2.1059282 310.28
-6.4289317 -7.586103 -2.1136303 310.28
-7.2874079 -8.5990992 -2.1236944 310.28
-8.5569324 -10.036603 -2.1669028 310.45001
-10.356621 -12.147495 -2.2434704 310.45001
-11.490816 -13.477816 -2.0711992 310.45001
-11.442872 -13.421581 -1.6454878 310.45001
-16.145147 -18.936975 -1.740145 310.45001
-3.0417049 -3.5676787 -2.0873725 310.45001
-20.978346 -24.605936 -1.5079055 310.45001
-3.2375488 -3.7973878 -2.0843673 310.45001
-3.4592597 -4.0574374 -2.0820422 310.45001
-3.7091577 -4.3505478 -2.0808506 310.45001
-4.0013318 -4.6932449 -2.0839615 310.45001
-4.3266578 -5.0748262 -2.0809529 310.45001
-4.7197938 -5.535944 -2.0860236 310.45001
-5.1855135 -6.0821962 -2.0923634 310.45001
-5.767601 -6.7649388 -2.1063895 310.45001
-6.4463353 -7.5610399 -2.1119668 310.45001
-7.3065138 -8.5699615 -2.1218431 310.45001
-8.5918131 -10.017161 -2.1681998 310.62
-10.408091 -12.134753 -2.2468104 310.62
-11.485491 -13.390889 -2.0630686 310.62
-11.496905 -13.404198 -1.6475314 310.62
-15.659618 -18.257488 -1.6819681 310.62
-3.0487087 -3.5544775 -2.0849321 310.62
-20.302078 -23.670115 -1.4542414 310.62
-3.2463987 -3.7849636 -2.0828257 310.62
-3.472496 -4.0485697 -2.0827696 310.62
-3.7232733 -4.34095 -2.0815346 310.62
-4.0201735 -4.6871047 -2.0865226 310.62
-4.344182 -5.0648651 -2.0821445 310.62
-4.7361984 -5.5219154 -2.0860236 310.62
-5.203537 -6.0667834 -2.0923634 310.62
-5.7914486 -6.7522278 -2.1077728 310.62
-6.4687409 -7.5418797 -2.1119668 310.62
-7.3383074 -8.5557041 -2.1236944 310.62
-8.6374254 -10.006554 -2.1717665 310.79999
-10.451339 -12.107992 -2.2479239 310.79999
-11.387319 -13.192336 -2.0379801 310.79999
-11.4739 -13.292641 -1.6382421 310.79999
-16.187519 -18.753422 -1.7323322 310.79999
-3.0634418 -3.5490315 -2.0873725 310.79999
-19.781067 -22.916588 -1.4117573 310.79999
-3.2570674 -3.773349 -2.0820549 310.79999
-3.4839807 -4.0362306 -2.0820422 310.79999
-3.7368925 -4.3292313 -2.0815346 310.79999
-4.0311646 -4.6701488 -2.0846019 310.79999
-4.3575773 -5.0483017 -2.0809529 310.79999
-4.7497544 -5.5026431 -2.0843697 310.79999
-5.223835 -6.0518708 -2.09287 310.79999
-5.8075466 -6.7281075 -2.1059282 310.79999
-6.4924026 -7.5215206 -2.1119668 310.79999
-7.3600125 -8.5266562 -2.1222134 310.79999
-8.6606073 -9.9734316 -2.1701453 310.97
-10.476829 -12.064965 -2.2456973 310.97
-11.340449 -13.059499 -2.0226483 310.97
