# .PCD v0.7 - Point Cloud Data file format
VERSION 0.7
FIELDS x y z intensity
SIZE 4 4 4 4
TYPE F F F F
COUNT 1 1 1 1
WIDTH 1155
HEIGHT 1
VIEWPOINT 0 0 0 1 0 0 0
POINTS 1155
DATA ascii
-17.423313 -33.598625 -2.6465607 297.41
-2.1885681 -4.2203727 -2.1166575 297.41
-2.3354831 -4.5036793 -2.1190553 297.41
-2.5025985 -4.8259401 -2.1227808 297.41
-2.6872611 -5.1820383 -2.124629 297.41
-2.9037533 -5.5995154 -2.1313388 297.41
-3.1473904 -6.0693388 -2.133379 297.41
-3.4472415 -6.647563 -2.1472149 297.41
-3.7872343 -7.3031955 -2.1536503 297.41
-4.2268748 -8.1509857 -2.1755571 297.41
-4.7497106 -9.1592073 -2.1930525 297.41
-5.4640284 -10.536678 -2.2362671 297.41
-6.529469 -12.500347 -2.3170264 297.57999
-7.9555607 -15.230531 -2.4149315 297.57999
-10.307145 -19.732523 -2.6034017 297.57999
-10.635841 -20.361795 -2.1432028 297.57999
-17.561722 -33.621052 -2.65242 297.57999
-2.2010806 -4.2138605 -2.1166575 297.57999
-2.3496897 -4.4983659 -2.1198263 297.57999
-2.5186315 -4.8217959 -2.1242359 297.57999
-2.704365 -5.1773739 -2.1259973 297.57999
-2.9221091 -5.5942345 -2.1326194 297.57999
-3.1653845 -6.0599737 -2.133379 297.57999
-3.4678402 -6.6390095 -2.1477664 297.57999
-3.810678 -7.2953563 -2.1546633 297.57999
-4.2519417 -8.1401339 -2.1760182 297.57999
-4.7804885 -9.15201 -2.1947157 297.57999
-5.5034571 -10.536098 -2.2395997 297.57999
-6.5656104 -12.479173 -2.3167021 297.75
-8.0090151 -15.222633 -2.4174368 297.75
-10.376746 -19.72295 -2.6061893 297.75
-10.650776 -20.243795 -2.1340992 297.75
-17.705061 -33.651783 -2.6589773 297.75
-2.2135737 -4.2073112 -2.1166575 297.75
-2.3621671 -4.4897413 -2.1190553 297.75
-2.5311918 -4.8110046 -2.1227808 297.75
-2.7214649 -5.1726537 -2.1273654 297.75
-2.9386945 -5.5855398 -2.1326194 297.75
-3.182462 -6.0488653 -2.1327832 297.75
-3.4848378 -6.6235871 -2.1461124 297.75
-3.8314061 -7.2823052 -2.1541569 297.75
-4.2760754 -8.1274824 -2.1760182 297.75
-4.8103542 -9.1429796 -2.1959634 297.75
-5.5346942 -10.519723 -2.2395997 297.75
-6.6090765 -12.471844 -2.3189719 297.92001
-8.0606375 -15.211054 -2.4193852 297.92001
-10.43987 -19.700851 -2.6073508 297.92001
-10.641794 -20.081898 -2.1203513 297.92001
-17.853407 -33.690777 -2.6662319 297.92001
-2.2286136 -4.2055683 -2.1190979 297.92001
-21.569836 -40.703964 -2.1482413 297.92001
-2.3780704 -4.4876046 -2.1213679 297.92001
-2.5480723 -4.8084116 -2.1249633 297.92001
-2.7341604 -5.1595745 -2.1253133 297.92001
-2.9561415 -5.5784698 -2.1332595 297.92001
-3.2021832 -6.0427699 -2.1339748 297.92001
-3.508976 -6.6217117 -2.1488688 297.92001
-3.8548083 -7.2743244 -2.1551697 297.92001
-4.2983489 -8.1113195 -2.175096 297.92001
-4.841125 -9.135581 -2.1976266 297.92001
-5.571404 -10.513675 -2.2418215 297.92001
-6.6497693 -12.459144 -2.3202689 298.09
-8.1187897 -15.211532 -2.4232821 298.09
-10.4777 -19.631235 -2.6022403 298.09
-10.635696 -19.927259 -2.1073465 298.09
-17.98805 -33.702778 -2.6713939 298.09
-2.2385011 -4.1941018 -2.1166575 298.09
-21.643476 -40.551662 -2.1435831 298.09
-2.3905058 -4.4789009 -2.1205971 298.09
-2.5596962 -4.7958994 -2.1227808 298.09
-11.190409 -20.966581 0 298.09
-2.7521119 -5.1564131 -2.1273654 298.09
-2.9717879 -5.5680027 -2.1326194 298.09
-3.2200983 -6.0332422 -2.1339748 298.09
-3.5267971 -6.6078792 -2.1477664 298.09
-3.8745525 -7.2594414 -2.1541569 298.09
-4.3269782 -8.1071148 -2.1774015 298.09
-4.8700519 -9.124629 -2.1984582 298.09
-5.6081266 -10.507502 -2.2440434 298.09
-6.6991596 -12.457312 -2.3238354 298.26999
-8.1740427 -15.199905 -2.4255087 298.26999
-10.543085 -19.605219 -2.6031694 298.26999
-10.645431 -19.795532 -2.0969424 298.26999
-18.135418 -33.723415 -2.6775324 298.26999
-2.2525315 -4.1886578 -2.117471 298.26999
-21.755627 -40.455315 -2.1420922 298.26999
-2.3993206 -4.4616165 -2.115972 298.26999
-2.5756328 -4.789475 -2.1235085 298.26999
-2.7682977 -5.1477418 -2.1273654 298.26999
-2.9910605 -5.5619769 -2.1338999 298.26999
-3.240845 -6.0264592 -2.1351662 298.26999
-3.5448072 -6.5916872 -2.1461124 298.26999
-3.9046705 -7.2608652 -2.1582088 298.26999
-4.3515043 -8.0917673 -2.1769404 298.26999
-4.8996201 -9.1110067 -2.198874 298.26999
-5.6448326 -10.496755 -2.2455246 298.26999
-6.7379713 -12.44085 -2.3244839 298.44
-8.2294807 -15.194742 -2.4285705 298.44
-10.61729 -19.603544 -2.6071186 298.44
-10.64532 -19.655296 -2.0854239 298.44
-18.268654 -33.730862 -2.6824155 298.44
-2.26756 -4.1867757 -2.1199114 298.44
-21.869856 -40.380047 -2.1415334 298.44
-2.4151845 -4.4593463 -2.1182845 298.44
-2.5889449 -4.7801738 -2.1227808 298.44
-2.7826641 -5.1378527 -2.1266813 298.44
-3.00755 -5.5530777 -2.1338999 298.44
-3.2559838 -6.0117807 -2.133379 298.44
-3.5670962 -6.5862122 -2.1477664 298.44
-3.9206681 -7.2390404 -2.1551697 298.44
-4.3773475 -8.082243 -2.1778629 298.44
-4.9331532 -9.1084709 -2.2017848 298.44
-5.6834402 -10.493786 -2.248487 298.44
-6.7833595 -12.436397 -2.3274021 298.60999
-8.2868567 -15.192862 -2.4321892 298.60999
-10.48707 -19.226662 -2.5611229 298.60999
-10.646379 -19.518732 -2.0742769 298.60999
-11.282769 -20.685472 -1.6476479 298.60999
-2.2782228 -4.1768212 -2.1182845 298.60999
-11.296129 -20.709965 -1.1001142 298.60999
-2.4319398 -4.4586415 -2.1213679 298.60999
-11.306316 -20.728642 -0.54819256 298.60999
-2.6075768 -4.7806487 -2.1264184 298.60999
-2.799696 -5.1328735 -2.1280494 298.60999
-3.0231056 -5.5424662 -2.1332595 298.60999
-3.2765493 -6.007122 -2.1351662 298.60999
-3.586622 -6.5755992 -2.1477664 298.60999
-3.9449091 -7.232471 -2.1566894 298.60999
-4.4003768 -8.0675116 -2.1774015 298.60999
-4.9610934 -9.0955114 -2.2022007 298.60999
-5.721139 -10.488955 -2.2510791 298.60999
-6.8299999 -12.428862 -2.3299961 298.79001
-8.3383608 -15.173696 -2.4333024 298.79001
-10.496716 -19.101353 -2.548811 298.79001
-10.662571 -19.403166 -2.0655451 298.79001
-18.5397 -33.737534 -2.6919024 298.79001
-2.2930932 -4.1728458 -2.1199114 298.79001
-22.145941 -40.299976 -2.1444216 298.79001
-2.4441574 -4.4477444 -2.1198263 298.79001
-11.348271 -20.650965 -0.54707843 298.79001
-2.618994 -4.7659025 -2.1235085 298.79001
-11.307022 -20.575903 0 298.79001
-2.813092 -5.1191115 -2.1259973 298.79001
-3.0395904 -5.531281 -2.1326194 298.79001
-3.2935662 -5.9934521 -2.1339748 298.79001
-3.6072621 -6.5642991 -2.1477664 298.79001
-3.9666791 -7.2183466 -2.1561828 298.79001
-4.4256997 -8.053647 -2.1774015 298.79001
-4.9905853 -9.0815954 -2.2026165 298.79001
-5.7559557 -10.474375 -2.2518198 298.79001
-6.8735361 -12.42063 -2.3322656 298.95999
-8.3967714 -15.173148 -2.4371994 298.95999
-10.560078 -19.082291 -2.550437 298.95999
-10.655492 -19.254705 -2.0530975 298.95999
-18.686089 -33.766171 -2.6985989 298.95999
-2.3028102 -4.1612282 -2.117471 298.95999
-2.4555562 -4.4372435 -2.1182845 298.95999
-2.6358294 -4.763001 -2.1256907 298.95999
-11.31476 -20.446018 0 298.95999
-2.8282685 -5.1107426 -2.1259973 298.95999
-3.0596583 -5.5288692 -2.1351802 298.95999
-3.312259 -5.9853244 -2.1345704 298.95999
-3.6267231 -6.5535674 -2.1477664 298.95999
-3.9890158 -7.2082381 -2.1566894 298.95999
-4.4571147 -8.0541029 -2.1810906 298.95999
-5.0231924 -9.0770178 -2.2051115 298.95999
-5.7946219 -10.471007 -2.2547822 298.95999
-6.9180441 -12.413972 -2.3348596 299.13
-8.451395 -15.165468 -2.4399829 299.13
-10.627286 -19.069962 -2.5529923 299.13
-10.663136 -19.134293 -2.0436225 299.13
-18.826984 -33.783775 -2.7044585 299.13
-2.316036 -4.155973 -2.1182845 299.13
-22.451797 -40.288265 -2.1508501 299.13
-2.4741011 -4.4396105 -2.1229095 299.13
-38.322659 -68.767471 -1.8277572 299.13
-2.6490428 -4.7535319 -2.1249633 299.13
-2.8470793 -5.1088953 -2.1287334 299.13
-3.0732822 -5.5148015 -2.1332595 299.13
-3.3309326 -5.977138 -2.1351662 299.13
-3.645216 -6.5410986 -2.1472149 299.13
-4.014153 -7.2031312 -2.1587152 299.13
-4.4800444 -8.0391426 -2.1806295 299.13
-5.0520072 -9.0654917 -2.2059431 299.13
-5.8275776 -10.457202 -2.2555227 299.13
-6.9587102 -12.400275 -2.3361566 299.29999
-8.5079851 -15.161052 -2.4433229 299.29999
-10.681877 -19.034882 -2.5525277 299.29999
-10.698422 -19.064363 -2.0395353 299.29999
-18.94569 -33.760822 -2.7071092 299.29999
-2.3292511 -4.1506763 -2.1190979 299.29999
-22.616211 -40.301613 -2.1551356 299.29999
-2.4818439 -4.4225941 -2.1182845 299.29999
-38.484451 -68.578491 -1.8257611 299.29999
-2.6622236 -4.7440267 -2.1242359 299.29999
-2.8640647 -5.103703 -2.1301014 299.29999
-3.0924132 -5.5106158 -2.1351802 299.29999
-3.3486524 -5.9672284 -2.1351662 299.29999
-3.6664894 -6.533607 -2.1483176 299.29999
-4.0364542 -7.1928768 -2.1592219 299.29999
-4.5086393 -8.0343008 -2.182935 299.29999
-5.0827122 -9.0572863 -2.2076063 299.29999
-5.8633885 -10.448436 -2.2573743 299.29999
-7.0051808 -12.396756 -2.3393991 299.47
-8.5617008 -15.15126 -2.445828 299.47
-10.732444 -18.992727 -2.5511339 299.47
-10.772574 -19.063744 -2.0428793 299.47
-19.081114 -33.766994 -2.7121317 299.47
-2.3415561 -4.1437469 -2.1190979 299.47
-2.5013106 -4.4264574 -2.1236804 299.47
-38.718254 -68.517967 -1.8272002 299.47
-2.6762877 -4.7361069 -2.1242359 299.47
-2.8754966 -5.0886378 -2.1273654 299.47
-3.1106143 -5.5047154 -2.1364608 299.47
-3.3672822 -5.9589286 -2.135762 299.47
-3.6868045 -6.5243735 -2.1488688 299.47
-4.0539708 -7.1741309 -2.1571958 299.47
-4.5305429 -8.017499 -2.1820128 299.47
-5.1114879 -9.0455723 -2.2084379 299.47
-5.9011321 -10.44297 -2.2599664 299.47
-7.0499496 -12.384978 -2.3413446 299.64999
-8.6210146 -15.144942 -2.4491682 299.64999
-10.863795 -19.08494 -2.5680919 299.64999
-13.003623 -22.844076 -2.452347 299.64999
-19.222633 -33.769302 -2.7171543 299.64999
-2.3554661 -4.137958 -2.1199114 299.64999
-22.985518 -40.379738 -2.1667814 299.64999
-2.5152042 -4.4185777 -2.1236804 299.64999
-2.692075 -4.7292948 -2.1249633 299.64999
-2.8914688 -5.0795794 -2.1273654 299.64999
-3.1241431 -5.4883289 -2.1338999 299.64999
-3.3869305 -5.9499798 -2.1363578 299.64999
-3.7082343 -6.5144296 -2.14942 299.64999
-4.0812745 -7.1697669 -2.1597283 299.64999
-4.5576339 -8.006609 -2.182935 299.64999
-5.1456871 -9.03967 -2.210933 299.64999
-5.9387722 -10.43292 -2.2618179 299.64999
-7.0954981 -12.379416 -2.3442626 299.82001
-8.6787167 -15.141635 -2.4527867 299.82001
-10.94902 -19.102602 -2.5748286 299.82001
-13.043618 -22.757017 -2.4471452 299.82001
-19.340601 -33.743275 -2.7196653 299.82001
-2.3659163 -4.1277809 -2.1182845 299.82001
-2.5273857 -4.4094944 -2.1229095 299.82001
-2.7051687 -4.7196698 -2.1242359 299.82001
-2.9074621 -5.0726085 -2.1280494 299.82001
-3.142298 -5.4823232 -2.1351802 299.82001
-3.4026706 -5.9365916 -2.1351662 299.82001
-3.7246788 -6.4983945 -2.1477664 299.82001
-4.104454 -7.1609831 -2.1607413 299.82001
-4.5794339 -7.9896746 -2.1820128 299.82001
-5.1754041 -9.0294542 -2.2121804 299.82001
-5.9716558 -10.418664 -2.2625587 299.82001
-7.1371298 -12.366856 -2.3458838 299.98999
-8.7186546 -15.107241 -2.451395 299.98999
-10.99175 -19.045946 -2.5715764 299.98999
-13.104115 -22.706142 -2.4458447 299.98999
-19.476536 -33.747952 -2.7246878 299.98999
-2.3818064 -4.1270728 -2.1215384 299.98999
-2.5321555 -4.3875904 -2.115972 299.98999
-2.7191603 -4.7116227 -2.1242359 299.98999
-2.9224999 -5.0639591 -2.1280494 299.98999
-3.1585505 -5.4729757 -2.1351802 299.98999
-3.4212241 -5.9281235 -2.135762 299.98999
-3.7468262 -6.49231 -2.14942 299.98999
-4.1256828 -7.1487737 -2.1607413 299.98999
-4.6040926 -7.9777374 -2.1824739 299.98999
-5.2060833 -9.0208368 -2.2138436 299.98999
-6.0054893 -10.406007 -2.2636695 299.98999
-7.1856899 -12.366101 -2.3497748 300.16
-8.7833414 -15.115554 -2.4569619 300.16
-10.992322 -18.917065 -2.5585675 300.16
-13.170426 -22.665442 -2.4456589 300.16
-19.614674 -33.755566 -2.7299893 300.16
-2.3912871 -4.1152482 -2.1190979 300.16
-2.5525804 -4.3928232 -2.1221387 300.16
-2.7350001 -4.7067556 -2.1256907 300.16
-2.9394007 -5.0585155 -2.1294174 300.16
-3.1747754 -5.4635801 -2.1351802 300.16
-3.4387982 -5.9179463 -2.135762 300.16
-3.7670388 -6.4828267 -2.1499715 300.16
-4.1478477 -7.1381736 -2.161248 300.16
-4.6257873 -7.9606762 -2.1815517 300.16
-5.2328258 -9.0053501 -2.2138436 300.16
-6.0442376 -10.401737 -2.2666318 300.16
-7.2283287 -12.354947 -2.3517201 300.32999
-8.8301516 -15.092846 -2.4575186 300.32999
-10.983198 -18.772921 -2.543468 300.32999
-13.240635 -22.63142 -2.4462161 300.32999
-19.751011 -33.759212 -2.7350118 300.32999
-2.4044094 -4.1097121 -2.1199114 300.32999
-2.5646708 -4.3836374 -2.1213679 300.32999
-2.7461309 -4.6937962 -2.1235085 300.32999
-2.9515495 -5.0449057 -2.1273654 300.32999
-3.1928856 -5.457407 -2.1364608 300.32999
-3.4553778 -5.9060693 -2.1351662 300.32999
-3.7872279 -6.4732804 -2.1505227 300.32999
-4.1651006 -7.1191554 -2.1592219 300.32999
-4.6621623 -7.9687533 -2.1875463 300.32999
-5.2674255 -9.003293 -2.2171702 300.32999
-6.0780511 -10.388847 -2.2677429 300.32999
-7.2709646 -12.343648 -2.3536656 300.5
-8.8889666 -15.09047 -2.4614155 300.5
-11.006588 -18.685478 -2.5360343 300.5
-13.293575 -22.568014 -2.4436152 300.5
-19.87438 -33.740002 -2.7382207 300.5
-2.4156654 -4.100986 -2.1190979 300.5
-30.416201 -51.636463 -2.7947261 300.5
-2.5757928 -4.3728285 -2.1198263 300.5
-2.7628822 -4.690443 -2.1256907 300.5
-2.9722281 -5.0458422 -2.1314695 300.5
-3.2081025 -5.4462771 -2.1358206 300.5
-3.4748242 -5.8990808 -2.1363578 300.5
-3.8034906 -6.4570456 -2.1488688 300.5
-4.1852231 -7.1050992 -2.1587152 300.5
-4.6828222 -7.9498549 -2.1861629 300.5
-5.2990799 -8.9960527 -2.2192495 300.5
-6.1138363 -10.379234 -2.2695944 300.5
-7.319777 -12.337718 -2.3569081 300.67999
-8.9423943 -15.072691 -2.4630857 300.67999
-11.012529 -18.56197 -2.5239546 300.67999
-13.365426 -22.527851 -2.4438009 300.67999
-20.02507 -33.752895 -2.7443593 300.67999
-2.4285369 -4.0933766 -2.1190979 300.67999
-2.5914011 -4.3678889 -2.1213679 300.67999
-2.7785544 -4.6833425 -2.1264184 300.67999
-2.9823117 -5.0267816 -2.1273654 300.67999
-3.2271302 -5.4394307 -2.1371009 300.67999
-3.4913912 -5.8848515 -2.1351662 300.67999
-3.8237572 -6.4450645 -2.1488688 300.67999
-4.2085109 -7.0935798 -2.1592219 300.67999
-4.7137322 -7.9451466 -2.1889296 300.67999
-5.3293118 -8.9827251 -2.2200811 300.67999
-6.1494222 -10.365047 -2.2707052 300.67999
-7.3655872 -12.326521 -2.3591778 300.85999
-9.004941 -15.070025 -2.4672608 300.85999
-11.020862 -18.443726 -2.5125718 300.85999
-13.430004 -22.475494 -2.4426863 300.85999
-20.177061 -33.766888 -2.7506373 300.85999
-2.4413848 -4.0857267 -2.1190979 300.85999
-2.6041636 -4.3581424 -2.1205971 300.85999
-2.7913427 -4.6713915 -2.1249633 300.85999
-3.0000172 -5.0206141 -2.1287334 300.85999
-3.2422588 -5.4260125 -2.1358206 300.85999
-3.5118203 -5.8771319 -2.1363578 300.85999
-3.8459582 -6.4363208 -2.1499715 300.85999
-4.2357373 -7.0886278 -2.1617544 300.85999
-4.7406659 -7.9336395 -2.1898518 300.85999
-5.3625231 -8.9743357 -2.2221601 300.85999
-6.1880031 -10.3558 -2.272927 300.85999
-7.4111681 -12.324509 -2.3627443 301.01999
-9.0622988 -15.070279 -2.471436 301.01999
-11.01602 -18.319248 -2.4997954 301.01999
-13.484506 -22.424252 -2.4412 301.01999
-16.675789 -27.731243 -2.2627604 301.01999
-2.4556093 -4.083591 -2.1215384 301.01999
-16.673653 -27.72769 -1.5088372 301.01999
-2.6182258 -4.3540163 -2.1221387 301.01999
-16.689337 -27.753773 -0.75189048 301.01999
-2.808217 -4.6699648 -2.1278732 301.01999
-3.0140257 -5.012217 -2.1287334 301.01999
-3.2593513 -5.4201851 -2.1371009 301.01999
-3.5301867 -5.8705745 -2.1375492 301.01999
-3.8649077 -6.4272037 -2.1505227 301.01999
-4.2515278 -7.0701394 -2.1597283 301.01999
-4.7648082 -7.9237061 -2.1907742 301.01999
-5.3855467 -8.9559727 -2.2213285 301.01999
-6.221962 -10.346901 -2.2747786 301.01999
-7.4570065 -12.312982 -2.3650141 301.20001
-9.1167803 -15.053594 -2.4733844 301.20001
-11.024122 -18.20299 -2.4886448 301.20001
-13.548697 -22.371557 -2.4400854 301.20001
-20.451496 -33.769436 -2.7606821 301.20001
-2.4655867 -4.0711675 -2.1190979 301.20001
-2.6328475 -4.3473477 -2.1229095 301.20001
-2.8209443 -4.6579323 -2.1264184 301.20001
-16.69083 -27.559837 0 301.20001
-3.0307307 -5.0043311 -2.1294174 301.20001
-3.2763631 -5.4099188 -2.1371009 301.20001
-3.546634 -5.8561888 -2.1363578 301.20001
-3.8850801 -6.41503 -2.1505227 301.20001
-4.2797322 -7.0666776 -2.1627674 301.20001
-4.7927022 -7.9136915 -2.1921575 301.20001
-5.4187231 -8.9473753 -2.2234075 301.20001
-6.2595277 -10.335709 -2.2766302 301.20001
-7.5017257 -12.304282 -2.3676081 301.37
-9.168622 -15.038314 -2.4753327 301.37
-11.040856 -18.109142 -2.4802821 301.37
-13.604649 -22.314257 -2.4382274 301.37
-20.584837 -33.763115 -2.7651467 301.37
-2.4767041 -4.062274 -2.1182845 301.37
-30.452095 -49.94733 -2.7280185 301.37
-2.644774 -4.3379412 -2.1221387 301.37
-2.8347521 -4.6495423 -2.1264184 301.37
-16.729843 -27.44018 0 301.37
-3.0455654 -4.9953165 -2.1294174 301.37
-3.291414 -5.3985558 -2.1364608 301.37
-3.5639939 -5.8456402 -2.1363578 301.37
-3.9040968 -6.4034743 -2.1505227 301.37
-4.3026948 -7.0572519 -2.1637805 301.37
-4.8181877 -7.90276 -2.1930797 301.37
-5.4483018 -8.9362698 -2.2246552 301.37
-6.2952824 -10.325481 -2.2784817 301.37
-7.5423298 -12.288698 -2.3689051 301.54001
-9.2266693 -15.032988 -2.4789512 301.54001
-11.066483 -18.030592 -2.47401 301.54001
-13.652047 -22.243244 -2.4348834 301.54001
-2.489702 -4.0564651 -2.1190979 301.54001
-30.600157 -49.856754 -2.7280185 301.54001
-2.6576333 -4.3300748 -2.1221387 301.54001
-2.8475606 -4.639523 -2.1256907 301.54001
-3.0613565 -4.9878602 -2.1301014 301.54001
-3.3084085 -5.3903813 -2.1371009 301.54001
-3.5813227 -5.8350396 -2.1363578 301.54001
-3.9240847 -6.3935013 -2.1510739 301.54001
-4.3266516 -7.0494018 -2.1652999 301.54001
-4.8436503 -7.8917465 -2.1940019 301.54001
-5.4768391 -8.9233999 -2.2254868 301.54001
-6.3310318 -10.315133 -2.2803333 301.54001
-7.5881619 -12.276693 -2.3711746 301.72
-9.2821817 -15.017405 -2.481178 301.72
-10.323048 -16.701395 -2.296067 301.72
-13.716623 -22.191776 -2.4339545 301.72
-20.854687 -33.740265 -2.7736568 301.72
-2.5033941 -4.0501776 -2.1199114 301.72
-30.835415 -49.887833 -2.7350061 301.72
-2.6731641 -4.3248439 -2.1236804 301.72
-2.8631015 -4.6321387 -2.1264184 301.72
-3.0779994 -4.9798164 -2.1307855 301.72
-3.3273189 -5.3831844 -2.1383815 301.72
-3.5996363 -5.82376 -2.1363578 301.72
-3.9441512 -6.3811417 -2.1510739 301.72
-4.3487763 -7.0357742 -2.1652999 301.72
-4.8735352 -7.884768 -2.1963074 301.72
-5.5069027 -8.9094772 -2.2263184 301.72
-6.3675399 -10.30188 -2.2818143 301.72
-7.6349802 -12.270882 -2.3744171 301.89001
-9.3340225 -15.001569 -2.4831264 301.89001
-10.363111 -16.655512 -2.2939763 301.89001
-13.777147 -22.142527 -2.4330256 301.89001
-15.332633 -24.64249 -2.0294948 301.89001
-2.5154002 -4.0427318 -2.1199114 301.89001
-31.042404 -49.891113 -2.7402234 301.89001
-2.6859844 -4.3168936 -2.1236804 301.89001
-2.8778169 -4.6252055 -2.1271458 301.89001
-3.0907755 -4.9674706 -2.1294174 301.89001
-3.3402734 -5.3684621 -2.1364608 301.89001
-3.618917 -5.8162961 -2.1375492 301.89001
-3.9650984 -6.3726759 -2.1521764 301.89001
-4.3686104 -7.0211978 -2.1647935 301.89001
-4.8958797 -7.8686209 -2.1958463 301.89001
-5.5374475 -8.8997431 -2.2279816 301.89001
-6.4032693 -10.291286 -2.2836659 301.89001
-7.67345 -12.251519 -2.3750656 302.06
-9.3942604 -14.998986 -2.4873016 302.06
-10.370306 -16.55735 -2.2846842 302.06
-10.487791 -16.744928 -1.8433475 302.06
-21.142437 -33.75626 -2.7852366 302.06
-2.5293238 -4.0383477 -2.1215384 302.06
-31.40345 -50.139114 -2.75895 302.06
-2.6978014 -4.3073411 -2.1229095 302.06
-31.423801 -50.171608 -1.3744504 302.06
-2.8915274 -4.6166463 -2.1271458 302.06
-3.1074958 -4.9614639 -2.1307855 302.06
-3.3592045 -5.3633451 -2.1383815 302.06
-3.6381853 -5.8087687 -2.1387408 302.06
-3.9819479 -6.3576245 -2.1510739 302.06
-4.3904505 -7.0098443 -2.1652999 302.06
-4.9243703 -7.8623066 -2.1981521 302.06
-5.5710979 -8.8948793 -2.2308924 302.06
-6.4369059 -10.277239 -2.2847769 302.06
-7.7255878 -12.249053 -2.3792806 302.23999
-9.4529572 -14.987826 -2.4903634 302.23999
-10.403196 -16.494446 -2.2805028 302.23999
-10.505288 -16.656315 -1.8372167 302.23999
-21.300533 -33.772362 -2.7920725 302.23999
-2.5410235 -4.0288363 -2.1207249 302.23999
-31.458496 -49.877987 -2.750006 302.23999
-2.7093508 -4.2957225 -2.1213679 302.23999
-2.9070106 -4.6091156 -2.1278732 302.23999
-3.1240699 -4.9532666 -2.1314695 302.23999
-3.3740158 -5.3495603 -2.1371009 302.23999
-3.6533606 -5.7924662 -2.1369534 302.23999
-4.0029268 -6.3467093 -2.1516252 302.23999
-4.4124508 -6.996017 -2.1652999 302.23999
-4.9480076 -7.8451514 -2.197691 302.23999
-5.603189 -8.8839521 -2.2325556 302.23999
-6.4765005 -10.268602 -2.287369 302.23999
-7.7703595 -12.239406 -2.3818746 302.41
-9.5048161 -14.971416 -2.492312 302.41
-10.431861 -16.431643 -2.2760892 302.41
-10.52371 -16.576319 -1.831829 302.41
-15.615529 -24.596647 -2.0373075 302.41
-2.5529661 -4.0212793 -2.1207249 302.41
-2.7250521 -4.2923388 -2.1236804 302.41
-2.9196749 -4.598897 -2.1271458 302.41
-3.1367381 -4.9408021 -2.1301014 302.41
-3.3919044 -5.3427248 -2.1383815 302.41
-3.6725776 -5.7848244 -2.138145 302.41
-4.0227709 -6.3364277 -2.1521764 302.41
-4.434226 -6.9845276 -2.1658063 302.41
-4.9754353 -7.8370075 -2.1995354 302.41
-5.6316204 -8.8705912 -2.2333875 302.41
-6.5069394 -10.249341 -2.287369 302.41
-7.8140793 -12.227938 -2.3841443 302.57999
-9.5598593 -14.959839 -2.4950953 302.57999
-10.437782 -16.333664 -2.2667971 302.57999
-10.540678 -16.49468 -1.8262554 302.57999
-2.5629184 -4.0106077 -2.1190979 302.57999
-2.7357881 -4.2811246 -2.1221387 302.57999
-2.9333072 -4.5902138 -2.1271458 302.57999
-3.152396 -4.9330573 -2.1307855 302.57999
-3.4067214 -5.3310409 -2.1377413 302.57999
-3.6907535 -5.7755108 -2.1387408 302.57999
-4.0477648 -6.3341842 -2.1554842 302.57999
-4.4601393 -6.9794917 -2.168339 302.57999
-5.0018101 -7.8271303 -2.2009187 302.57999
-5.6631823 -8.8620853 -2.2354665 302.57999
-6.5479045 -10.246552 -2.2910721 302.57999
-7.8428593 -12.197769 -2.3825231 302.73999
-9.6155224 -14.954741 -2.498714 302.73999
-10.445752 -16.245972 -2.2586665 302.73999
-10.558697 -16.421631 -1.8214251 302.73999
-2.5750964 -4.004972 -2.1199114 302.73999
-2.7537212 -4.2827816 -2.1267638 302.73999
-2.9471216 -4.5835719 -2.1278732 302.73999
-3.1661594 -4.9242349 -2.1307855 302.73999
-3.4236445 -5.3246942 -2.1390216 302.73999
-3.7048023 -5.76197 -2.1375492 302.73999
-4.0675173 -6.3260899 -2.1565866 302.73999
-4.4775195 -6.9637547 -2.167326 302.73999
-5.0289106 -7.8213167 -2.2032242 302.73999
-5.6921401 -8.8528185 -2.2371297 302.73999
-6.5818076 -10.236492 -2.2929235 302.73999
-7.8961725 -12.200954 -2.387711 302.91
-9.6727648 -14.946097 -2.502054 302.91
-10.478799 -16.191559 -2.2554142 302.91
-10.571671 -16.335062 -1.8152941 302.91
-2.5869679 -3.9973137 -2.1199114 302.91
-2.7624056 -4.2683949 -2.1236804 302.91
-2.958684 -4.5716791 -2.1264184 302.91
-3.1827981 -4.9179745 -2.1321535 302.91
-3.4353104 -5.3081498 -2.1364608 302.91
-3.7239566 -5.754158 -2.1387408 302.91
-4.0800018 -6.3043094 -2.1532791 302.91
-4.5013151 -6.9553123 -2.1688454 302.91
-5.0510373 -7.8047276 -2.2027631 302.91
-5.7215705 -8.8408175 -2.2383773 302.91
-6.6132183 -10.218569 -2.293294 302.91
-7.9559884 -12.204461 -2.3935473 303.10001
-9.7320089 -14.928871 -2.504559 303.10001
-10.515078 -16.130096 -2.2516975 303.10001
-10.596419 -16.254875 -1.8102781 303.10001
-2.6022048 -3.9917741 -2.1215384 303.10001
-2.7745292 -4.2561193 -2.1221387 303.10001
-2.9738278 -4.5618429 -2.1264184 303.10001
-3.1970365 -4.9042439 -2.1307855 303.10001
-3.4570329 -5.3030777 -2.1390216 303.10001
-3.7419751 -5.7401781 -2.138145 303.10001
-4.0998354 -6.2891345 -2.1527278 303.10001
-4.5222421 -6.9371052 -2.1678324 303.10001
-5.0832677 -7.7977166 -2.2055299 303.10001
-5.757266 -8.8316288 -2.2408721 303.10001
-6.6492147 -10.199875 -2.2940345 303.10001
-7.9964952 -12.187402 -2.3948443 303.26999
-9.7903852 -14.921457 -2.5081775 303.26999
-10.51821 -16.030731 -2.2421732 303.26999
-10.612922 -16.175079 -1.8048903 303.26999
-2.613035 -3.9825082 -2.1207249 303.26999
-2.7901824 -4.2524972 -2.1244514 303.26999
-2.990416 -4.557672 -2.1286006 303.26999
-3.2126045 -4.8963079 -2.1314695 303.26999
-3.4696338 -5.2880445 -2.1371009 303.26999
-3.7568953 -5.7258577 -2.1369534 303.26999
-4.1205869 -6.2801571 -2.1538303 303.26999
-4.5491734 -6.933363 -2.1708715 303.26999
-5.1085167 -7.7858543 -2.2064521 303.26999
-5.7855911 -8.8177786 -2.2417037 303.26999
-6.6826839 -10.185031 -2.2951453 303.26999
-8.0434465 -12.175393 -2.3974383 303.45001
-9.8535891 -14.915414 -2.5123527 303.45001
-10.546621 -15.964458 -2.2375271 303.45001
-10.672465 -16.154949 -1.8063766 303.45001
-2.6275475 -3.9773283 -2.1223519 303.45001
-2.8055627 -4.2467904 -2.125993 303.45001
-3.0026658 -4.545146 -2.1271458 303.45001
-3.225899 -4.8830552 -2.1301014 303.45001
-3.4872739 -5.2786994 -2.1377413 303.45001
-3.7790744 -5.7203984 -2.1393363 303.45001
-4.140296 -6.2671809 -2.1538303 303.45001
-4.5719991 -6.9206514 -2.1713779 303.45001
-5.1340241 -7.7713909 -2.2069132 303.45001
-5.8164992 -8.8044558 -2.2429514 303.45001
-6.7265649 -10.182026 -2.2992187 303.45001
-8.0871849 -12.162978 -2.3997078 303.62
-9.8999939 -14.88941 -2.5129094 303.62
-10.552147 -15.870237 -2.2286997 303.62
-14.226544 -21.396463 -2.3971694 303.62
-2.6403487 -3.9710362 -2.1231654 303.62
-2.8140635 -4.2323003 -2.1229095 303.62
-3.0192327 -4.5408711 -2.1293283 303.62
-3.243495 -4.8781571 -2.1321535 303.62
-3.5071173 -5.2746406 -2.1403022 303.62
-3.7949734 -5.707571 -2.1387408 303.62
-4.1652598 -6.2644749 -2.1571379 303.62
-4.5914416 -6.9054446 -2.1708715 303.62
-5.1602921 -7.7609854 -2.2082965 303.62
-5.8458467 -8.7920465 -2.2441988 303.62
-6.757834 -10.163659 -2.2995889 303.62
-8.1244106 -12.145268 -2.4006805 303.78
-9.9536476 -14.879814 -2.5159714 303.78
-10.578753 -15.81429 -2.2249827 303.78
-10.666793 -15.945903 -1.7898418 303.78
-2.6493957 -3.9606102 -2.1215384 303.78
-2.8310018 -4.2320952 -2.1267638 303.78
-3.0329373 -4.5339708 -2.1300557 303.78
-3.2550147 -4.8659563 -2.1307855 303.78
-3.5207796 -5.2632513 -2.139662 303.78
-23.246902 -34.752045 1.949796 303.78
-3.8108971 -5.6969509 -2.1387408 303.78
-4.1784616 -6.2464271 -2.1549327 303.78
-4.6085558 -6.8893795 -2.1698585 303.78
-5.1808629 -7.7449274 -2.2078354 303.78
-5.8736391 -8.7805662 -2.2454462 303.78
-6.7927465 -10.15455 -2.3018107 303.78
-8.1670237 -12.130932 -2.402626 303.95001
-10.00992 -14.868288 -2.5190332 303.95001
-10.593456 -15.735046 -2.218246 303.95001
-10.681808 -15.86628 -1.7844541 303.95001
-2.6590948 -3.9497006 -2.1199114 303.95001
-2.8404543 -4.2190838 -2.1244514 303.95001
-3.0463767 -4.5249519 -2.1300557 303.95001
-3.269438 -4.856277 -2.1307855 303.95001
-3.5353224 -5.2512097 -2.1390216 303.95001
-23.171396 -34.417755 1.9348892 303.95001
-3.829916 -5.6887865 -2.1399322 303.95001
-4.2055659 -6.2467599 -2.159343 303.95001
-4.6300573 -6.8772802 -2.1703649 303.95001
-5.2070804 -7.7343645 -2.2092187 303.95001
-5.905128 -8.7712135 -2.2475255 303.95001
-6.8239436 -10.135981 -2.3021812 303.95001
-8.2117376 -12.115017 -2.4045715 304.13
-10.067693 -14.853162 -2.5218165 304.13
-10.611629 -15.655647 -2.2117417 304.13
-10.694729 -15.778247 -1.7783232 304.13
-2.6735401 -3.9443521 -2.1215384 304.13
-2.8547304 -4.2116671 -2.1252222 304.13
-3.0605772 -4.5153589 -2.1300557 304.13
-3.2857327 -4.8475375 -2.1314695 304.13
-3.552865 -5.2416458 -2.139662 304.13
-3.8466978 -5.6751456 -2.1393363 304.13
-4.2154617 -6.2191944 -2.1543815 304.13
-4.6581535 -6.8723102 -2.173404 304.13
-5.2357202 -7.7244115 -2.2110634 304.13
-5.9381428 -8.7607155 -2.2496045 304.13
-6.8645749 -10.127508 -2.3051436 304.13
-8.2564316 -12.09894 -2.406517 304.31
-10.118771 -14.828004 -2.5229299 304.31
-10.639486 -15.591057 -2.2073278 304.31
-10.712816 -15.698515 -1.7731212 304.31
-2.6848886 -3.9344244 -2.1207249 304.31
-2.8689878 -4.2042027 -2.125993 304.31
-3.0715971 -4.5011053 -2.1278732 304.31
-3.3041236 -4.8418484 -2.1335216 304.31
-24.141127 -35.376305 0.99435043 304.31
-3.5682466 -5.2288933 -2.1390216 304.31
-23.399576 -34.289639 1.935914 304.31
-3.8655839 -5.6646099 -2.1399322 304.31
-23.976351 -35.134842 2.974416 304.31
-4.236063 -6.2075086 -2.1549327 304.31
-4.6786299 -6.8560438 -2.1728973 304.31
-5.2599611 -7.7079248 -2.2110634 304.31
-5.9656358 -8.7420177 -2.2496045 304.31
-6.8996811 -10.110763 -2.3062544 304.31
-8.2958956 -12.088674 -2.4087865 304.45999
-10.172124 -14.822691 -2.5265484 304.45999
-10.651043 -15.520565 -2.201288 304.45999
-10.733596 -15.640861 -1.7697772 304.45999
-2.6972475 -3.9303949 -2.1223519 304.45999
-2.8799846 -4.1966772 -2.125993 304.45999
-3.0844245 -4.4945846 -2.1286006 304.45999
-3.3135979 -4.8285332 -2.1314695 304.45999
-3.5829957 -5.221096 -2.139662 304.45999
-3.8793201 -5.6528964 -2.1393363 304.45999
-23.436064 -34.150738 2.8962889 304.45999
-4.2533875 -6.1979823 -2.1554842 304.45999
-4.700942 -6.850153 -2.1749234 304.45999
-5.2911344 -7.7101741 -2.2156744 304.45999
-5.9918227 -8.7312088 -2.2508519 304.45999
-6.9305758 -10.099147 -2.3077357 304.45999
-8.3494024 -12.080579 -2.4126775 304.64999
-10.189692 -14.743258 -2.5187547 304.64999
-10.446073 -15.114208 -2.1485555 304.64999
-14.142398 -20.462345 -2.3206263 304.64999
-2.7081885 -3.9184227 -2.1207249 304.64999
-2.8938854 -4.1871037 -2.125993 304.64999
-3.1003714 -4.4858637 -2.1293283 304.64999
-3.3327973 -4.8221564 -2.1335216 304.64999
-23.902721 -34.584358 0.97606033 304.64999
-3.6024444 -5.2123032 -2.1409423 304.64999
-23.454977 -33.936527 1.9238024 304.64999
-3.9013011 -5.6447129 -2.1411238 304.64999
-23.53557 -34.053135 2.8946147 304.64999
-4.2761035 -6.1870065 -2.1565866 304.64999
-4.726932 -6.8393016 -2.1764429 304.64999
-5.3144603 -7.6893835 -2.2147522 304.64999
-6.0218558 -8.7129002 -2.2512677 304.64999
-6.9684973 -10.082577 -2.309217 304.64999
-8.3840818 -12.054132 -2.4123533 304.82001
-10.213036 -14.683693 -2.5137446 304.82001
-10.400129 -14.952684 -2.1299715 304.82001
-14.146195 -20.338554 -2.3113372 304.82001
-2.7239759 -3.9163699 -2.1239789 304.82001
-2.910511 -4.1845589 -2.1290765 304.82001
-3.1157951 -4.4797039 -2.1307831 304.82001
-3.3460171 -4.8107038 -2.1328375 304.82001
-24.045189 -34.570736 0.97768509 304.82001
-3.6178937 -5.2015915 -2.1409423 304.82001
-3.9169419 -5.6315451 -2.140528 304.82001
-4.2955394 -6.1758699 -2.1571379 304.82001
-4.7472038 -6.8252463 -2.1764429 304.82001
-5.3405852 -7.6783748 -2.2161355 304.82001
-6.0543833 -8.7046309 -2.2537627 304.82001
-7.0039935 -10.069923 -2.3110685 304.82001
-8.4332294 -12.0439 -2.4155958 305
-10.115981 -14.447118 -2.478673 305
-14.249997 -20.351105 -2.3178396 305
-2.7320743 -3.9018064 -2.1207249 305
-2.9194088 -4.1693478 -2.125993 305
-41.727913 -59.593636 -1.6890495 305
-3.1277158 -4.4668412 -2.1293283 305
-24.452711 -34.922089 0 305
-3.3621919 -4.8017077 -2.1335216 305
-24.208727 -34.573643 0.97991329 305
-3.6331303 -5.1886477 -2.1403022 305
-3.9357097 -5.6207762 -2.1411238 305
-4.3149204 -6.1623449 -2.1571379 305
-4.7730618 -6.8166385 -2.1784689 305
-5.3657975 -7.6631527 -2.2165968 305
-6.0861883 -8.6919775 -2.2554259 305
-7.0423584 -10.05753 -2.3132904 305
-8.4712009 -12.022052 -2.4162443 305.17001
-10.081227 -14.306949 -2.4597454 305.17001
-10.323076 -14.650172 -2.0958233 305.17001
-14.304583 -20.300596 -2.3169107 305.17001
-17.258724 -24.493017 -2.0952055 305.17001
-2.7467964 -3.8981636 -2.1231654 305.17001
-2.9328296 -4.1621761 -2.1267638 305.17001
-3.1420286 -4.4590645 -2.1300557 305.17001
-3.3775065 -4.7932467 -2.1342056 305.17001
-24.320415 -34.51474 0.98028469 305.17001
-3.6496007 -5.1793942 -2.1409423 305.17001
-23.786171 -33.756557 1.9257588 305.17001
-3.95017 -5.6059523 -2.1399322 305.17001
-4.3387222 -6.157373 -2.1598942 305.17001
-4.7921515 -6.8008647 -2.1779625 305.17001
-5.3907528 -7.6503801 -2.217519 305.17001
-6.1175852 -8.6818771 -2.2575052 305.17001
-7.0812254 -10.049444 -2.3162527 305.17001
-8.5138702 -12.01123 -2.418838 305.32999
-10.124577 -14.283588 -2.4605803 305.32999
-10.259412 -14.473811 -2.0746837 305.32999
-14.346246 -20.23945 -2.3144956 305.32999
-17.237061 -24.317766 -2.0843234 305.32999
-2.7555583 -3.8874967 -2.1215384 305.32999
-2.9476428 -4.1584868 -2.1290765 305.32999
-3.1523137 -4.4472332 -2.1286006 305.32999
-24.727461 -34.885101 0 305.32999
-3.3897917 -4.7822633 -2.1335216 305.32999
-24.442141 -34.482574 0.98130596 305.32999
-3.6640501 -5.1691823 -2.1409423 305.32999
-23.936954 -33.769867 1.9303241 305.32999
-3.9680176 -5.5980148 -2.1411238 305.32999
-4.3625708 -6.1546435 -2.163202 305.32999
-4.8144808 -6.7921915 -2.179482 305.32999
-5.4199734 -7.6464105 -2.2207468 305.32999
-6.1429367 -8.6663561 -2.257921 305.32999
-7.109261 -10.02963 -2.3162527 305.32999
-8.5586386 -11.998769 -2.421432 305.5
-10.192214 -14.288958 -2.4667041 305.5
-10.215795 -14.322017 -2.0572612 305.5
-14.396983 -20.183826 -2.3130093 305.5
-17.219927 -24.141447 -2.073581 305.5
-2.7692025 -3.8822787 -2.1231654 305.5
-2.9556816 -4.143713 -2.125993 305.5
-3.1676588 -4.4408937 -2.1300557 305.5
-24.847118 -34.834373 0 305.5
-3.4061489 -4.7752447 -2.1348898 305.5
-24.562923 -34.435947 0.98204869 305.5
-3.6782708 -5.1567454 -2.1403022 305.5
-3.9823923 -5.5831084 -2.1399322 305.5
-4.3763471 -6.1354122 -2.1609969 305.5
-25.236929 -35.380871 4.0545473 305.5
-4.8379831 -6.7826023 -2.1810014 305.5
-5.4460273 -7.6350489 -2.2221301 305.5
-6.1743035 -8.6560545 -2.26 305.5
-7.1446948 -10.016493 -2.3181043 305.5
-8.6055002 -11.984647 -2.424026 305.67999
-10.56281 -14.710539 -2.5451977 305.67999
-10.23409 -14.25274 -2.0519183 305.67999
-14.462645 -20.141733 -2.3133807 305.67999
-2.7803197 -3.8720756 -2.1223519 305.67999
-24.827961 -34.577229 -1.9851061 305.67999
-2.9686849 -4.134407 -2.125993 305.67999
-3.1826811 -4.4324336 -2.1307831 305.67999
-3.4211338 -4.7645202 -2.1348898 305.67999
-24.721132 -34.428448 0.98404485 305.67999
-3.6944532 -5.1451645 -2.1403022 305.67999
-4.0032535 -5.575222 -2.1417193 305.67999
-24.558172 -34.2015 2.9442813 305.67999
-4.3956003 -6.1216331 -2.1609969 305.67999
-25.095917 -34.950401 4.0142322 305.67999
-4.8570104 -6.7642269 -2.1799884 305.67999
-5.4654465 -7.6115785 -2.2202857 305.67999
-6.2048898 -8.6413813 -2.2612476 305.67999
-7.1864443 -10.008366 -2.3214369 305.67999
-8.6525803 -11.975058 -2.4272683 305.85001
-10.543775 -14.592446 -2.5301669 305.85001
-10.286804 -14.236803 -2.054009 305.85001
-14.527008 -20.105188 -2.3141239 305.85001
-17.181288 -23.778679 -2.0513983 305.85001
-2.7950063 -3.868252 -2.1247923 305.85001
-24.955015 -34.537415 -1.9870627 305.85001
-2.9831004 -4.128572 -2.1275346 305.85001
-24.995314 -34.593185 -0.99086881 305.85001
-3.1969094 -4.4244809 -2.1315107 305.85001
-25.296053 -35.009407 0 305.85001
-3.4352553 -4.7543488 -2.1348898 305.85001
-25.067917 -34.693668 0.99374694 305.85001
-3.7108126 -5.135716 -2.1409423 305.85001
-4.0197778 -5.5633197 -2.1417193 305.85001
-25.249622 -34.945148 3.0147352 305.85001
-4.413744 -6.1085639 -2.1609969 305.85001
-25.228662 -34.916142 4.0188766 305.85001
-4.8849912 -6.7607636 -2.1835339 305.85001
-5.4937048 -7.6032162 -2.2225912 305.85001
-6.2362309 -8.6308622 -2.2633266 305.85001
-7.2184105 -9.9901857 -2.3221776 305.85001
-8.6901579 -11.947816 -2.4272683 306.03
-10.562772 -14.522411 -2.5237651 306.03
-10.340828 -14.217268 -2.0558674 306.03
-14.595955 -20.067505 -2.3150527 306.03
-2.8049955 -3.856497 -2.1231654 306.03
-2.9982271 -4.1221652 -2.1290765 306.03
-25.13327 -34.554916 -0.99202937 306.03
-3.2096977 -4.412909 -2.1307831 306.03
-25.105927 -34.517323 0 306.03
-3.4490693 -4.742013 -2.1342056 306.03
-25.123861 -34.541981 0.99165797 306.03
-3.7269285 -5.124033 -2.1409423 306.03
-4.0372353 -5.5506639 -2.1417193 306.03
-25.243101 -34.705917 3.0009234 306.03
-4.4317822 -6.0931129 -2.1604457 306.03
-25.266779 -34.738476 4.007544 306.03
-4.9039302 -6.7422543 -2.1825211 306.03
-5.5198536 -7.589067 -2.2235136 306.03
-6.2633147 -8.611228 -2.2633266 306.03
-7.2566962 -9.9769955 -2.3243995 306.03
-8.7337284 -11.933127 -2.429538 306.20001
-10.403453 -14.214516 -2.4756112 306.20001
-10.395871 -14.204156 -2.0584226 306.20001
-14.644847 -20.009645 -2.3133807 306.20001
-2.8175046 -3.849632 -2.1239789 306.20001
-17.245842 -23.563456 -1.3617268 306.20001
-3.0060847 -4.1072941 -2.125993 306.20001
-3.2216768 -4.4018631 -2.1300557 306.20001
-3.4620137 -4.7302423 -2.1335216 306.20001
-25.232143 -34.475353 0.99189007 306.20001
-3.7409964 -5.1114235 -2.1403022 306.20001
-25.08765 -34.277927 1.9809136 306.20001
-4.0570698 -5.5432825 -2.1435068 306.20001
-4.4555182 -6.0876937 -2.163202 306.20001
-4.928484 -6.7339196 -2.1845469 306.20001
-5.5480933 -7.5805082 -2.2258191 306.20001
-6.2934585 -8.5989208 -2.2649899 306.20001
-7.2920704 -9.9633512 -2.326251 306.20001
-8.7752085 -11.919817 -2.4318078 306.35999
-10.44663 -14.190193 -2.4764462 306.35999
-12.432855 -16.888186 -2.4524059 306.35999
-14.744349 -20.028008 -2.3202548 306.35999
-2.8249943 -3.8373349 -2.1215384 306.35999
-3.0208251 -4.1033421 -2.1283054 306.35999
-3.232852 -4.3913488 -2.1293283 306.35999
-25.885315 -35.161354 0 306.35999
-3.4752097 -4.7205558 -2.1335216 306.35999
-25.161177 -34.177719 0.98534465 306.35999
-3.7552555 -5.1009564 -2.1403022 306.35999
-25.373968 -34.466763 1.9959135 306.35999
-4.0702696 -5.5288563 -2.1423151 306.35999
-24.857073 -33.764641 2.9318645 306.35999
-4.4759202 -6.0798726 -2.1648557 306.35999
-25.185459 -34.210705 3.9633274 306.35999
-4.9507108 -6.7248049 -2.1860666 306.35999
-5.5680866 -7.5634184 -2.225358 306.35999
-6.3209262 -8.5860386 -2.2662375 306.35999
-7.3233604 -9.9476967 -2.3273618 306.35999
-8.8229151 -11.90175 -2.4340775 306.54999
-10.506602 -14.172975 -2.4795079 306.54999
-12.482875 -16.838884 -2.4512444 306.54999
-14.899626 -20.098982 -2.3341885 306.54999
-2.8377037 -3.8279457 -2.1215384 306.54999
-3.0322175 -4.0903368 -2.1267638 306.54999
-41.181301 -55.551884 -1.6054907 306.54999
-3.2440681 -4.3761144 -2.1271458 306.54999
-3.4942021 -4.7135348 -2.1355739 306.54999
-3.7744071 -5.0915198 -2.1415827 306.54999
-25.406031 -34.27169 1.989485 306.54999
-4.0919924 -5.5199299 -2.1441023 306.54999
-4.4937677 -6.0619078 -2.1637533 306.54999
-4.9718318 -6.7067966 -2.18556 306.54999
-5.6035681 -7.5589828 -2.2295082 306.54999
-6.359849 -8.579175 -2.26998 306.54999
-7.3656716 -9.9359884 -2.3303242 306.54999
-8.8587608 -11.884939 -2.4353745 306.70001
-10.872717 -14.586868 -2.5568881 306.70001
-12.523355 -16.801369 -2.4505475 306.70001
-14.45593 -19.394117 -2.2567167 306.70001
-2.8509912 -3.8248982 -2.1239789 306.70001
-3.0451214 -4.0853438 -2.1283054 306.70001
-3.2621939 -4.3765688 -2.1315107 306.70001
-25.452854 -34.147625 0 306.70001
-3.5031607 -4.6998506 -2.1335216 306.70001
-24.750549 -33.20541 0.96153039 306.70001
-3.7877235 -5.0816212 -2.1415827 306.70001
-4.1030068 -5.5046058 -2.1423151 306.70001
-25.779556 -34.585926 3.0164094 306.70001
-4.5084734 -6.0485806 -2.163202 306.70001
-25.132156 -33.717377 3.9233837 306.70001
-4.9928417 -6.698411 -2.1870794 306.70001
-5.6186857 -7.5380454 -2.2276635 306.70001
-6.3834562 -8.564064 -2.2703958 306.70001
-7.3975315 -9.9245501 -2.3321757 306.70001
-8.9087858 -11.869703 -2.4382925 306.89001
-10.917462 -14.545981 -2.5560532 306.89001
-12.571847 -16.750216 -2.4491537 306.89001
-14.00974 -18.666006 -2.177387 306.89001
-17.08429 -22.762409 -1.9901522 306.89001
-2.8636594 -3.815423 -2.1239789 306.89001
-3.0597601 -4.0766993 -2.1290765 306.89001
-3.2778075 -4.3672171 -2.1322381 306.89001
-3.5221112 -4.6927171 -2.1355739 306.89001
-3.804554 -5.0690327 -2.1415827 306.89001
-24.699917 -32.909161 1.9188645 306.89001
-4.1212382 -5.4909697 -2.1423151 306.89001
-25.961172 -34.589607 3.0242221 306.89001
-4.5273523 -6.0320592 -2.1626506 306.89001
-5.0161886 -6.6833649 -2.1875861 306.89001
-5.6506615 -7.5287104 -2.2304304 306.89001
-6.4141693 -8.5459776 -2.2712274 306.89001
-7.4386606 -9.9109678 -2.3347678 306.89001
-8.9475336 -11.847943 -2.4392653 307.06
-10.972508 -14.529329 -2.5588367 307.06
-12.614307 -16.703329 -2.4477599 307.06
-14.5679 -19.290194 -2.2552304 307.06
-17.043537 -22.568329 -1.977596 307.06
-2.871664 -3.8025355 -2.1215384 307.06
-3.0718424 -4.0676031 -2.1290765 307.06
-3.289628 -4.3559856 -2.1315107 307.06
-3.5348866 -4.6807466 -2.1348898 307.06
-3.8207192 -5.0592341 -2.1422229 307.06
-4.1409636 -5.4832883 -2.1441023 307.06
-4.5521812 -6.0278049 -2.1659584 307.06
-26.190777 -34.680714 4.0545473 307.06
-5.0383282 -6.6715403 -2.1885991 307.06
-5.6753201 -7.5150175 -2.2313526 307.06
-6.4430346 -8.5315924 -2.2724748 307.06
-7.4763255 -9.8998327 -2.3373601 307.06
-8.9921999 -11.833914 -2.4418592 307.23001
-11.022759 -14.506171 -2.5605068 307.23001
-12.661407 -16.662664 -2.4472952 307.23001
-14.041946 -18.479483 -2.1653111 307.23001
-17.024721 -22.404873 -1.9676906 307.23001
-2.8851447 -3.7969079 -2.1231654 307.23001
-3.0850141 -4.0599403 -2.1298473 307.23001
-3.3025379 -4.3462057 -2.1315107 307.23001
-3.547622 -4.6687412 -2.1342056 307.23001
-26.01836 -34.240681 0.99843556 307.23001
-3.8345671 -5.0463667 -2.1415827 307.23001
-24.824663 -32.66975 1.9134609 307.23001
-4.1595249 -5.4740176 -2.145294 307.23001
-4.5665569 -6.0096798 -2.1643045 307.23001
-26.289946 -34.598095 4.0539899 307.23001
-5.0592713 -6.658102 -2.1891055 307.23001
-5.7011251 -7.5027943 -2.2327359 307.23001
-6.4742379 -8.5202255 -2.274554 307.23001
-7.5116115 -9.8854303 -2.3392115 307.23001
-9.035327 -11.813443 -2.4434805 307.41
-11.04301 -14.438434 -2.5546615 307.41
-12.718519 -16.629118 -2.4482243 307.41
-14.183407 -18.544418 -2.1781301 307.41
-17.052601 -22.295811 -1.9628077 307.41
-2.8948388 -3.7849226 -2.1215384 307.41
-3.0955112 -4.0472965 -2.1283054 307.41
-3.3173075 -4.3372889 -2.1322381 307.41
-3.565697 -4.6620517 -2.1362579 307.41
-3.8504019 -5.0342951 -2.1415827 307.41
-24.756041 -32.367847 1.9003243 307.41
-4.1767015 -5.4609232 -2.145294 307.41
-4.5935898 -6.0059934 -2.1681635 307.41
-5.0825143 -6.6452489 -2.1901186 307.41
-5.7270322 -7.4879384 -2.2336581 307.41
-6.5021615 -8.5013981 -2.2749698 307.41
-7.5486007 -9.8695889 -2.341063 307.41
-9.076705 -11.799116 -2.44575 307.57001
-11.045851 -14.358876 -2.5460327 307.57001
-12.755218 -16.58094 -2.4463661 307.57001
-14.133145 -18.372154 -2.1625242 307.57001
-17.000446 -22.099457 -1.9496934 307.57001
-2.907625 -3.7797203 -2.1231654 307.57001
-3.1090519 -4.0415621 -2.1298473 307.57001
-3.3282707 -4.3265319 -2.1315107 307.57001
-3.578702 -4.6520758 -2.1362579 307.57001
-3.8656006 -5.0250254 -2.1422229 307.57001
-26.89402 -34.960449 2.0569377 307.57001
-4.193099 -5.4507518 -2.1458898 307.57001
-26.72385 -34.739239 3.0648205 307.57001
-4.6126881 -5.9961896 -2.169266 307.57001
-5.10813 -6.6402311 -2.1931574 307.57001
-5.7526665 -7.478086 -2.2355025 307.57001
-6.5318403 -8.4909611 -2.2770488 307.57001
-7.5797272 -9.8531446 -2.3421741 307.57001
-9.1185608 -11.776784 -2.447047 307.75
-11.053318 -14.275558 -2.5374041 307.75
-12.821839 -16.559635 -2.4491537 307.75
-14.190794 -18.327663 -2.1625242 307.75
-17.031925 -21.997036 -1.9453685 307.75
-2.9206035 -3.7720118 -2.1239789 307.75
-3.125123 -4.0361524 -2.1321597 307.75
-3.345268 -4.3204737 -2.133693 307.75
-3.5898473 -4.6363521 -2.1342056 307.75
-3.8813679 -5.012856 -2.1422229 307.75
-4.206696 -5.433023 -2.1441023 307.75
-4.6303258 -5.9801488 -2.1687148 307.75
-5.1289654 -6.6241508 -2.1931574 307.75
-5.7773228 -7.4615154 -2.2359638 307.75
-6.5632739 -8.4765854 -2.278712 307.75
-7.614254 -9.8339453 -2.3432848 307.75
-9.1655912 -11.765245 -2.4502895 307.92001
-11.053025 -14.188016 -2.5276618 307.92001
-12.857487 -16.50428 -2.4465983 307.92001
-14.043182 -18.026278 -2.1318698 307.92001
-16.992895 -21.812624 -1.9335099 307.92001
-2.9295368 -3.760447 -2.1223519 307.92001
-3.1302798 -4.018127 -2.1275346 307.92001
-54.682388 -70.192055 -2.0658071 307.92001
-3.3546376 -4.3061199 -2.1315107 307.92001
-3.6082079 -4.6316109 -2.1369419 307.92001
-3.8962243 -5.001318 -2.1422229 307.92001
-4.2227974 -5.4205174 -2.1441023 307.92001
-26.492929 -34.007168 3.0144563 307.92001
-4.6362338 -5.9512181 -2.163202 307.92001
-5.149786 -6.6104298 -2.1936641 307.92001
-5.8030238 -7.448947 -2.2373471 307.92001
-6.5883956 -8.4570751 -2.278712 307.92001
-7.6482301 -9.8175125 -2.3447661 307.92001
-9.2008448 -11.742712 -2.450938 308.07999
-11.04985 -14.10253 -2.5179198 308.07999
-12.901075 -16.465185 -2.4461336 308.07999
-14.232251 -18.164118 -2.1528635 308.07999
-16.944225 -21.625315 -1.9210933 308.07999
-2.9388995 -3.7508132 -2.1215384 308.07999
-3.1426265 -4.0108228 -2.1283054 308.07999
-54.770901 -69.902153 -2.0617685 308.07999
-3.3666494 -4.2967353 -2.1315107 308.07999
-3.6188095 -4.6185579 -2.1355739 308.07999
-3.9113441 -4.9919095 -2.142863 308.07999
-4.2414503 -5.4132128 -2.1458898 308.07999
-26.520113 -33.84668 3.006783 308.07999
-4.6635065 -5.9518676 -2.1681635 308.07999
-5.1682258 -6.5960231 -2.1936641 308.07999
-5.8298039 -7.440372 -2.2396526 308.07999
-6.6156063 -8.4432631 -2.2799597 308.07999
-7.6865253 -9.8100395 -2.3480988 308.07999
-11.056074 -14.014498 -2.5087342 308.26999
-12.955605 -16.422312 -2.4461336 308.26999
-14.345443 -18.184048 -2.1608522 308.26999
-16.999781 -21.548643 -1.9192796 308.26999
-2.9524531 -3.7424815 -2.1223519 308.26999
-3.1559095 -4.0003791 -2.1283054 308.26999
-3.3831873 -4.2884727 -2.1329656 308.26999
-3.6329412 -4.6050568 -2.1348898 308.26999
-26.51791 -33.613667 0.99402547 308.26999
-3.9278762 -4.9789119 -2.142863 308.26999
-23.069923 -29.243057 1.7370028 308.26999
-4.259378 -5.3991179 -2.1458898 308.26999
-4.683218 -5.9363704 -2.1681635 308.26999
-5.1936655 -6.5834055 -2.1951835 308.26999
-5.85324 -7.4194708 -2.2391915 308.26999
-6.6459918 -8.4243507 -2.2807913 308.26999
-7.7263184 -9.7937546 -2.3503206 308.26999
-9.2903948 -11.704765 -2.455153 308.44
-11.055743 -13.928889 -2.4992704 308.44
-12.999333 -16.377577 -2.4452045 308.44
-14.290388 -18.004147 -2.1445031 308.44
-16.975576 -21.387157 -1.9093742 308.44
-2.9658163 -3.736567 -2.1239789 308.44
-3.1700597 -3.9938889 -2.1298473 308.44
-3.3970547 -4.2798748 -2.133693 308.44
-3.6500938 -4.5986733 -2.1369419 308.44
-3.9426317 -4.9672356 -2.142863 308.44
-23.067162 -29.061811 1.7302948 308.44
-4.2753787 -5.386456 -2.1458898 308.44
-4.7020059 -5.9239545 -2.1687148 308.44
-5.2155819 -6.5709977 -2.1961966 308.44
-5.8776479 -7.4051199 -2.2401137 308.44
-6.679472 -8.4153204 -2.2837019 308.44
-7.7590089 -9.7754059 -2.3514316 308.44
-9.3332796 -11.68323 -2.4567742 308.62
-11.056182 -13.839929 -2.4895284 308.62
-13.045762 -16.330448 -2.4442754 308.62
-14.391623 -18.015175 -2.1511915 308.62
-16.958004 -21.227722 -1.8998873 308.62
-2.9775403 -3.7272313 -2.1239789 308.62
-3.1791356 -3.9795845 -2.1275346 308.62
-3.4058323 -4.2633595 -2.1307831 308.62
-3.6656961 -4.5886521 -2.1376259 308.62
-22.849054 -28.602034 0.84993285 308.62
-3.9582174 -4.9548249 -2.142863 308.62
-23.174557 -29.009493 1.731506 308.62
-4.294663 -5.3759813 -2.1470811 308.62
-4.7217937 -5.910656 -2.169266 308.62
-5.2410302 -6.5606265 -2.1982226 308.62
-5.9069562 -7.3942208 -2.2424195 308.62
-6.7070975 -8.3958235 -2.2841179 308.62
-7.7933607 -9.7555885 -2.3525426 308.62
-9.3765574 -11.666255 -2.459044 308.79001
-11.058734 -13.759209 -2.4808998 308.79001
-13.086691 -16.282379 -2.4428816 308.79001
-14.348953 -17.852879 -2.1368861 308.79001
-16.985916 -21.133772 -1.895981 308.79001
-2.9874415 -3.7169561 -2.1231654 308.79001
-3.1943977 -3.9744496 -2.1298473 308.79001
-3.4219682 -4.2575917 -2.1329656 308.79001
-3.6792946 -4.5777555 -2.1376259 308.79001
-3.975275 -4.9460125 -2.1441436 308.79001
-24.443268 -30.412161 1.8195486 308.79001
-4.3093987 -5.3617272 -2.1464853 308.79001
-4.7417188 -5.8996167 -2.1703684 308.79001
-5.262897 -6.5480633 -2.1992357 308.79001
-5.930088 -7.3781791 -2.2428806 308.79001
-6.7344298 -8.3789358 -2.2849495 308.79001
-7.8284283 -9.7400818 -2.354394 308.79001
-9.4111309 -11.638383 -2.459044 308.95999
-11.058414 -13.675514 -2.4717143 308.95999
-13.146185 -16.257381 -2.4449723 308.95999
-14.363045 -17.762224 -2.1311269 308.95999
-17.01342 -21.039843 -1.8920746 308.95999
-3.0007544 -3.7109172 -2.1247923 308.95999
-3.2073364 -3.9663892 -2.1306181 308.95999
-3.4357572 -4.2488685 -2.133693 308.95999
-3.6869524 -4.5595117 -2.1342056 308.95999
-22.988205 -28.428627 0.84881878 308.95999
-3.98755 -4.9312491 -2.142863 308.95999
-4.3240881 -5.3474326 -2.1458898 308.95999
-24.476395 -30.269012 2.7220371 308.95999
