# .PCD v0.7 - Point Cloud Data file format
VERSION 0.7
FIELDS x y z intensity
SIZE 4 4 4 4
TYPE F F F F
COUNT 1 1 1 1
WIDTH 1169
HEIGHT 1
VIEWPOINT 0 0 0 1 0 0 0
POINTS 1169
DATA ascii
-18.47768 -14.734705 -2.2048829 321.42999
-18.052549 -14.395691 -1.6145834 321.42999
-3.7683978 -3.0050433 -2.1459424 321.42999
-4.0328584 -3.2159326 -2.1545143 321.42999
-4.3304195 -3.4532177 -2.1627922 321.42999
-4.677074 -3.7296512 -2.1773002 321.42999
-27.174372 -21.669729 0.80694646 321.42999
-5.0960484 -4.063755 -2.202405 321.42999
-25.797934 -20.572113 1.5387437 321.42999
-5.585721 -4.454236 -2.2292945 321.42999
-6.203373 -4.9467716 -2.2751107 321.42999
-6.9191737 -5.5175748 -2.3167443 321.42999
-7.8847523 -6.2875586 -2.3895161 321.42999
-9.0119534 -7.1864252 -2.4500313 321.42999
-10.042057 -8.007864 -2.4199378 321.42999
-10.218461 -8.0932465 -2.1416121 321.62
-10.363355 -8.2080059 -1.8579609 321.62
-14.369923 -11.381296 -2.1436772 321.62
-21.996635 -17.42182 -2.6178806 321.62
-3.7797744 -2.9936647 -2.1467559 321.62
-22.090101 -17.495846 -1.3141185 321.62
-4.0435004 -3.2025416 -2.1545143 321.62
-4.3374658 -3.4353685 -2.1606097 321.62
-25.822002 -20.451595 0 321.62
-4.6864696 -3.7117872 -2.1759322 321.62
-5.1139522 -4.0503626 -2.2043257 321.62
-26.389095 -20.900745 1.5698615 321.62
-5.6019578 -4.4368744 -2.2298903 321.62
-25.526066 -20.217207 2.2769909 321.62
-6.2197428 -4.9261737 -2.2751107 321.62
-6.9434996 -5.4994049 -2.3187702 321.62
-7.9116616 -6.2662101 -2.3913608 321.62
-9.0388012 -7.1589303 -2.4508631 321.62
-10.03004 -7.9440122 -2.4106803 321.62
-10.205213 -8.0335951 -2.1338303 321.79001
-10.348758 -8.146594 -1.8510022 321.79001
-14.353682 -11.299291 -2.1362436 321.79001
-22.021631 -17.335539 -2.6147223 321.79001
-18.352711 -14.447347 -1.6332781 321.79001
-3.7886403 -2.9824367 -2.1467559 321.79001
-22.127787 -17.419106 -1.31328 321.79001
-4.0486345 -3.1871057 -2.1522017 321.79001
-4.3491035 -3.4236362 -2.1613371 321.79001
-38.463982 -30.279041 0 321.79001
-4.6959853 -3.6967034 -2.1752481 321.79001
-5.1244583 -4.0339994 -2.2036853 321.79001
-25.896856 -20.386137 1.5369736 321.79001
-5.6150975 -4.4202332 -2.2298903 321.79001
-25.882229 -20.37462 2.3033588 321.79001
-6.2373528 -4.9100757 -2.2762132 321.79001
-6.9628267 -5.4811726 -2.3197832 321.79001
-7.9317479 -6.2439122 -2.3918219 321.79001
-9.0676889 -7.1381302 -2.4529421 321.79001
-10.002603 -7.8740993 -2.3984601 321.79001
-10.193091 -7.9723144 -2.1260483 321.97
-10.321259 -8.0725574 -1.8415384 321.97
-14.337473 -11.213756 -2.1285777 321.97
-22.030495 -17.230692 -2.6093345 321.97
-3.7994301 -2.9716451 -2.1475694 321.97
-4.0615344 -3.1766446 -2.1537435 321.97
-4.3613052 -3.411104 -2.1620648 321.97
-4.7090564 -3.6830902 -2.1759322 321.97
-26.859234 -21.007391 0.79167378 321.97
-5.1400914 -4.0202155 -2.2049658 321.97
-25.946611 -20.293602 1.5361351 321.97
-5.6319642 -4.4049234 -2.2310817 321.97
-25.705664 -20.10515 2.2820132 321.97
-6.254262 -4.8916407 -2.2767646 321.97
-6.978488 -5.4580789 -2.3192768 321.97
-7.9513245 -6.2189631 -2.3918219 321.97
-9.0900688 -7.1096082 -2.4529421 321.97
-10.030387 -7.8450584 -2.3992009 321.97
-10.173251 -7.9111085 -2.1172938 322.13
-10.309365 -8.0169563 -1.8354149 322.13
-14.241714 -11.0749 -2.1097612 322.13
-22.032938 -17.133654 -2.6039467 322.13
-21.99439 -17.103678 -1.9482983 322.13
-3.8048291 -2.9587805 -2.1459424 322.13
-4.0703893 -3.1652904 -2.1537435 322.13
-4.3766961 -3.4034863 -2.1649747 322.13
-38.666664 -30.068676 0 322.13
-4.7237735 -3.6733868 -2.1779842 322.13
-26.859392 -20.886889 0.78995615 322.13
-5.1527934 -4.007009 -2.205606 322.13
-25.933788 -20.167103 1.5320357 322.13
-5.642736 -4.3880072 -2.2304862 322.13
-26.136549 -20.32478 2.3152173 322.13
-6.2709332 -4.8765168 -2.2778671 322.13
-6.996757 -5.4409456 -2.3202899 322.13
-7.9748054 -6.2015133 -2.3936663 322.13
-9.1160641 -7.0889997 -2.4546053 322.13
-10.072425 -7.8327022 -2.4040148 322.13
-10.154325 -7.845324 -2.1082151 322.31
-10.28905 -7.9494133 -1.8273429 322.31
-14.296871 -11.045893 -2.1127813 322.31
-22.050413 -17.036348 -2.5996737 322.31
-22.032227 -17.022299 -1.9469032 322.31
-3.8126597 -2.9456956 -2.145129 322.31
-4.0803132 -3.1524873 -2.1537435 322.31
-4.3888412 -3.3908587 -2.1657021 322.31
-4.7367778 -3.6596775 -2.1786683 322.31
-26.83469 -20.732725 0.78731012 322.31
-5.168355 -3.993118 -2.2068865 322.31
-5.6640477 -4.3760943 -2.233465 322.31
-26.250795 -20.281603 2.3196819 322.31
-6.286222 -4.856792 -2.2778671 322.31
-7.0184093 -5.4224863 -2.3218093 322.31
-7.9957886 -6.177619 -2.3941274 322.31
-9.141386 -7.0627179 -2.4554372 322.31
-10.115646 -7.8154397 -2.4084585 322.31
-10.154284 -7.800106 -2.1036758 322.47
-10.326915 -7.9327149 -1.8301263 322.47
-22.077372 -16.958937 -2.5972586 322.47
-22.065435 -16.949768 -1.9456476 322.47
-3.8208709 -2.9350371 -2.145129 322.47
-4.0905643 -3.1422048 -2.1545143 322.47
-4.3968158 -3.3774545 -2.1649747 322.47
-4.7484694 -3.6475806 -2.1793523 322.47
-26.806858 -20.591934 0.78480339 322.47
-5.1794858 -3.9786699 -2.2068865 322.47
-5.6777601 -4.3614235 -2.2340605 322.47
-26.329479 -20.225233 2.321635 322.47
-6.296711 -4.8368764 -2.2767646 322.47
-7.0350585 -5.4040451 -2.3223157 322.47
-8.0176382 -6.158823 -2.3955107 322.47
-9.1595221 -7.0359712 -2.4550211 322.47
-10.168604 -7.8111072 -2.4158645 322.47
-10.197564 -7.7825351 -2.1075666 322.64999
-10.362806 -7.9086437 -1.8320746 322.64999
-14.112664 -10.770445 -2.0760775 322.64999
-22.084633 -16.85446 -2.5918708 322.64999
-22.105888 -16.87068 -1.9445314 322.64999
-3.8286202 -2.9219105 -2.1443155 322.64999
-4.1018829 -3.1304581 -2.1552851 322.64999
-4.4014807 -3.3591039 -2.1620648 322.64999
-4.7569175 -3.6303644 -2.1779842 322.64999
-5.1874409 -3.9589298 -2.2049658 322.64999
-5.6868806 -4.3400898 -2.2322733 322.64999
-6.3195167 -4.8229027 -2.279521 322.64999
-7.052001 -5.381917 -2.3223157 322.64999
-8.0354004 -6.1324239 -2.3950496 322.64999
-9.1909122 -7.0142822 -2.4575162 322.64999
-10.230591 -7.8077402 -2.4247518 322.64999
-10.239479 -7.7665558 -2.1114576 322.82001
-13.736265 -10.418838 -2.4230037 322.82001
-14.231607 -10.79455 -2.0888541 322.82001
-22.101225 -16.763586 -2.5879693 322.82001
-22.135183 -16.789343 -1.9427178 322.82001
-3.8387287 -2.9116421 -2.145129 322.82001
-4.1126232 -3.1193891 -2.1560559 322.82001
-4.4188495 -3.3516591 -2.1657021 322.82001
-4.7736573 -3.6207776 -2.1807203 322.82001
-39.936234 -30.291285 1.1637428 322.82001
-5.2052031 -3.948101 -2.2075267 322.82001
-5.7042961 -4.3266587 -2.2340605 322.82001
-6.3368626 -4.8064547 -2.2806234 322.82001
-7.0725632 -5.3644772 -2.3238354 322.82001
-8.0613127 -6.1144357 -2.3973551 322.82001
-9.2163591 -6.9905281 -2.4587636 322.82001
-10.297558 -7.8106079 -2.4351203 322.82001
-10.295351 -7.7581034 -2.1179423 323
-13.727804 -10.344643 -2.4157667 323
-14.159156 -10.669689 -2.0732899 323
-22.112431 -16.662912 -2.5831389 323
-22.175072 -16.710115 -1.9416016 323
-3.8507752 -2.9017673 -2.1467559 323
-4.1224031 -3.1064534 -2.1560559 323
-4.4338212 -3.3411238 -2.1678846 323
-4.7820067 -3.6035006 -2.1793523 323
-5.2160673 -3.9305887 -2.2068865 323
-5.7209101 -4.3110151 -2.2352521 323
-6.3503957 -4.7853665 -2.2800722 323
-7.0940166 -5.3457251 -2.3253548 323
-8.0804825 -6.0890803 -2.3973551 323
-9.2429619 -6.9650717 -2.4600112 323
-10.311057 -7.7699389 -2.4325283 323
-10.332998 -7.744143 -2.1215091 323.14999
-13.765933 -10.316982 -2.4177151 323.14999
-14.231549 -10.665941 -2.0797944 323.14999
-22.133671 -16.588245 -2.580538 323.14999
-22.202778 -16.640038 -1.9402065 323.14999
-3.8568966 -2.8905802 -2.1459424 323.14999
-4.126091 -3.09233 -2.1537435 323.14999
-4.4380803 -3.3261528 -2.1657021 323.14999
-39.194202 -29.37439 0 323.14999
-4.7929282 -3.5920961 -2.1800363 323.14999
-40.113235 -30.063166 1.1638356 323.14999
-5.229372 -3.9191923 -2.2081671 323.14999
-5.7337046 -4.2971678 -2.2358479 323.14999
-6.3659787 -4.7710304 -2.2811747 323.14999
-7.1141806 -5.3317761 -2.3273809 323.14999
-8.1026249 -6.0725732 -2.3991997 323.14999
-9.2674265 -6.9455428 -2.4616745 323.14999
-10.339227 -7.7488117 -2.4343798 323.14999
-10.37287 -7.7204399 -2.1244273 323.34
-13.796892 -10.268911 -2.4171584 323.34
-14.117049 -10.5072 -2.0579581 323.34
-22.169388 -16.500488 -2.5783086 323.34
-22.232227 -16.54726 -1.9379743 323.34
-3.8693924 -2.8799562 -2.1475694 323.34
-4.1452055 -3.0852416 -2.1583686 323.34
-4.4490862 -3.3114173 -2.1657021 323.34
-4.8048139 -3.5761826 -2.1800363 323.34
-38.958416 -28.996422 1.127534 323.34
-5.2438598 -3.9029608 -2.2088072 323.34
-38.846478 -28.913107 2.2582715 323.34
-5.7494545 -4.2792706 -2.2364435 323.34
-6.3833075 -4.7510419 -2.2817261 323.34
-7.1349263 -5.3104658 -2.3283939 323.34
-8.124279 -6.0468326 -2.3996608 323.34
-9.2919769 -6.9159408 -2.4620903 323.34
-10.396399 -7.7379527 -2.4417858 323.34
-11.839582 -8.7576332 -2.4194865 323.51001
-13.814562 -10.218507 -2.4149315 323.51001
-14.376538 -10.634196 -2.0911772 323.51001
-22.192633 -16.415691 -2.575336 323.51001
-22.263582 -16.468172 -1.9364398 323.51001
-3.8735137 -2.8652031 -2.145129 323.51001
-4.1469231 -3.0674417 -2.1545143 323.51001
-4.4603891 -3.29931 -2.1664295 323.51001
-39.056408 -28.889675 0 323.51001
-4.8154035 -3.5619106 -2.1800363 323.51001
-31.648226 -23.409908 0.91394824 323.51001
-5.2569404 -3.8885117 -2.2094474 323.51001
-5.7636609 -4.2633281 -2.2370393 323.51001
-6.4051037 -4.7377977 -2.2844825 323.51001
-7.1537623 -5.2915735 -2.3294067 323.51001
-8.1437492 -6.0238581 -2.4001219 323.51001
-9.3140287 -6.8895035 -2.4625061 323.51001
-10.443014 -7.7246037 -2.4473405 323.51001
-11.857565 -8.7166214 -2.4178653 323.67999
-13.840033 -10.173955 -2.4140966 323.67999
-14.159945 -10.409125 -2.0551705 323.67999
-22.19792 -16.317926 -2.5703199 323.67999
-22.30431 -16.396133 -1.9357421 323.67999
-3.8819978 -2.8536978 -2.145129 323.67999
-4.1574931 -3.056217 -2.1552851 323.67999
-39.490665 -29.030005 -1.1379324 323.67999
-4.4701591 -3.286061 -2.1664295 323.67999
-39.473911 -29.017691 0 323.67999
-4.8259506 -3.5476074 -2.1800363 323.67999
-5.2684546 -3.8728969 -2.2094474 323.67999
-40.387218 -29.689072 2.3375564 323.67999
-5.7747469 -4.2450776 -2.2364435 323.67999
-6.4191332 -4.7187724 -2.2844825 323.67999
-7.174108 -5.2737627 -2.3309264 323.67999
-8.1678581 -6.0042791 -2.4019663 323.67999
-9.3344297 -6.8618379 -2.4625061 323.67999
-10.907706 -8.0183706 -2.5506554 323.67999
-11.888078 -8.6816549 -2.4185138 323.85999
-13.867128 -10.126921 -2.4132617 323.85999
-14.6193 -10.676218 -2.1169627 323.85999
-22.282846 -16.272772 -2.5742214 323.85999
-22.352486 -16.323629 -1.9354631 323.85999
-3.8894682 -2.8404105 -2.1443155 323.85999
-39.575169 -28.901052 -2.2852898 323.85999
-4.1655836 -3.0420525 -2.1545143 323.85999
-39.576824 -28.902262 -1.1377932 323.85999
-4.4774513 -3.269804 -2.1649747 323.85999
-32.047939 -23.404047 0 323.85999
-4.8416252 -3.535754 -2.1820886 323.85999
-32.200779 -23.515663 0.92573935 323.85999
-5.2836561 -3.8585613 -2.2107279 323.85999
-5.7926803 -4.2302928 -2.2382309 323.85999
-6.4370308 -4.700851 -2.2855849 323.85999
-7.192203 -5.2523398 -2.3314328 323.85999
-8.1835375 -5.976294 -2.4010441 323.85999
-9.3638401 -6.8382483 -2.4645851 323.85999
-10.939192 -7.9886999 -2.5521364 323.85999
-11.921857 -8.6553793 -2.4204593 324.01999
-13.916189 -10.103283 -2.4168801 324.01999
-14.599224 -10.599173 -2.1097612 324.01999
-22.33787 -16.217503 -2.575336 324.01999
-22.394754 -16.258801 -1.9351841 324.01999
-3.894428 -2.8273911 -2.1426888 324.01999
-4.1740623 -3.0304081 -2.1545143 324.01999
-39.377464 -28.588408 -1.1297622 324.01999
-4.4835496 -3.2550988 -2.1635196 324.01999
-31.647058 -22.976061 0 324.01999
-4.8530006 -3.523324 -2.1827726 324.01999
-5.2944107 -3.8437915 -2.2107279 324.01999
-5.8013806 -4.2118568 -2.2370393 324.01999
-6.4501333 -4.682857 -2.2855849 324.01999
-7.2099738 -5.234508 -2.3324459 324.01999
-8.2080688 -5.9591346 -2.4033496 324.01999
-9.3828993 -6.8120728 -2.4645851 324.01999
-10.958278 -7.9558115 -2.5513959 324.01999
-11.945691 -8.6123352 -2.4194865 324.20999
-13.928731 -10.042023 -2.4132617 324.20999
-14.637514 -10.553025 -2.1102259 324.20999
-22.370527 -16.128199 -2.5729208 324.20999
-22.442074 -16.179781 -1.934626 324.20999
-3.9097109 -2.8187351 -2.1459424 324.20999
-44.504108 -32.085571 -2.5585482 324.20999
-4.1885796 -3.0197875 -2.1568267 324.20999
-39.144428 -28.221468 -1.1203851 324.20999
-4.4988527 -3.2434816 -2.1657021 324.20999
-31.742544 -22.885023 0 324.20999
-4.8661823 -3.5083106 -2.1834567 324.20999
-5.3086648 -3.8273215 -2.2113681 324.20999
-5.8168645 -4.1937118 -2.2376351 324.20999
-6.457829 -4.6558199 -2.2828286 324.20999
-7.2320008 -5.2139649 -2.3339653 324.20999
-8.2277851 -5.9318833 -2.4033496 324.20999
-9.4101982 -6.7843528 -2.4658327 324.20999
-10.971846 -7.9102335 -2.5484335 324.20999
-11.976111 -8.5835419 -2.4207835 324.37
-13.94867 -9.9973183 -2.4118698 324.37
-22.391199 -16.048265 -2.5701342 324.37
-22.487169 -16.117048 -1.934626 324.37
-3.917567 -2.8078063 -2.1459424 324.37
-4.1969957 -3.0080791 -2.1568267 324.37
-4.5048642 -3.2287352 -2.164247 324.37
-32.446812 -23.255341 0 324.37
-4.874433 -3.493613 -2.1827726 324.37
-31.859514 -22.834414 0.91004884 324.37
-5.3208723 -3.813586 -2.2120085 324.37
-5.8347602 -4.1819005 -2.2400181 324.37
-6.4754934 -4.6411281 -2.2844825 324.37
-7.2449598 -5.1926217 -2.3334589 324.37
-8.2459002 -5.9100175 -2.4038107 324.37
-9.4354668 -6.7626066 -2.4674959 324.37
-10.971527 -7.8635345 -2.5432491 324.37
-11.995096 -8.5433903 -2.4194865 324.54001
-13.963753 -9.9455471 -2.4093647 324.54001
-15.924508 -11.342075 -2.2863104 324.54001
-22.403034 -15.956343 -2.5660467 324.54001
-22.538139 -16.05257 -1.9349051 324.54001
-3.9229043 -2.7940502 -2.1443155 324.54001
-4.1998897 -2.9913306 -2.1537435 324.54001
-4.5174594 -3.2175164 -2.1657021 324.54001
-4.8832464 -3.4780447 -2.1820886 324.54001
-33.019917 -23.518114 0.94119769 324.54001
-5.3352504 -3.7999802 -2.2132888 324.54001
-5.8471422 -4.1645703 -2.2400181 324.54001
-32.262577 -22.978706 2.7697506 324.54001
-6.498631 -4.6285868 -2.2877901 324.54001
-7.2634869 -5.1733475 -2.3344719 324.54001
-8.2681541 -5.8889122 -2.4051943 324.54001
-9.4586773 -6.7368512 -2.4683275 324.54001
-10.977201 -7.8184042 -2.5391757 324.54001
-12.021877 -8.5056648 -2.4194865 324.72
-13.97391 -9.8867588 -2.4057462 324.72
-15.024383 -10.629984 -2.1522725 324.72
-22.446548 -15.881282 -2.5653036 324.72
-22.598232 -15.9886 -1.9357421 324.72
-3.9316626 -2.7817123 -2.1443155 324.72
-4.2137861 -2.9813192 -2.1560559 324.72
-4.5321078 -3.2065365 -2.1678846 324.72
-32.40377 -22.92617 0 324.72
-4.8972173 -3.4648573 -2.1834567 324.72
-32.976116 -23.331116 0.93785536 324.72
-5.3487091 -3.7842946 -2.2139292 324.72
-32.826878 -23.225525 1.8752624 324.72
-5.8617554 -4.1472831 -2.2406139 324.72
-32.350895 -22.888762 2.7711456 324.72
-6.5162787 -4.6103683 -2.2888925 324.72
-7.2939186 -5.1605606 -2.3390305 324.72
-8.2913799 -5.8662801 -2.4065776 324.72
-9.4829893 -6.7093625 -2.4691591 324.72
-10.977642 -7.7668524 -2.5336213 324.72
-12.043968 -8.4709253 -2.4191623 324.88
-13.975546 -9.8294678 -2.4012928 324.88
-15.03776 -10.576559 -2.1499493 324.88
-22.507099 -15.829993 -2.5671616 324.88
-22.670534 -15.944943 -1.9381138 324.88
-3.9468877 -2.7759778 -2.1483829 324.88
-44.513481 -31.307819 -2.5378652 324.88
-4.2160573 -2.9652936 -2.1529727 324.88
-4.5440922 -3.1960115 -2.1693394 324.88
-4.9068737 -3.4511683 -2.1834567 324.88
-31.832539 -22.388887 0.90354979 324.88
-5.3592558 -3.7693436 -2.2139292 324.88
-32.275543 -22.700466 1.8401386 324.88
-5.8764372 -4.1330943 -2.2418053 324.88
-32.541977 -22.887857 2.7820277 324.88
-6.5244102 -4.5888357 -2.2872388 324.88
-7.308301 -5.140172 -2.3390305 324.88
-8.306138 -5.8419838 -2.4061165 324.88
-9.501688 -6.6828547 -2.4691591 324.88
-10.975174 -7.7192063 -2.5280666 324.88
-12.070521 -8.4330463 -2.4191623 325.06
-13.98525 -9.7707682 -2.3976741 325.06
-15.132792 -10.572496 -2.1587768 325.06
-22.555086 -15.758067 -2.5669758 325.06
-22.789207 -15.921635 -1.9439734 325.06
-3.9540913 -2.7625182 -2.1475694 325.06
-4.2314034 -2.9562619 -2.1560559 325.06
-4.5434198 -3.1742513 -2.164247 325.06
-31.575216 -22.059963 0 325.06
-4.9223137 -3.4389648 -2.1855087 325.06
-32.105961 -22.430767 0.90930611 325.06
-5.3710713 -3.7524884 -2.2139292 325.06
-32.515385 -22.71681 1.8497347 325.06
-5.8846974 -4.1113324 -2.2400181 325.06
-32.430542 -22.657536 2.7664022 325.06
-6.5419464 -4.570518 -2.2883413 325.06
-7.3228273 -5.1160789 -2.3385239 325.06
-8.326045 -5.8169751 -2.4065776 325.06
-9.5274477 -6.6563325 -2.4704068 325.06
-10.983259 -7.6734324 -2.5243638 325.06
-12.09549 -8.3971949 -2.4191623 325.23001
-13.988149 -9.7111588 -2.3932207 325.23001
-15.061294 -10.456181 -2.1441419 325.23001
-22.631186 -15.711517 -2.5703199 325.23001
-22.960903 -15.94042 -1.9545764 325.23001
-3.9607697 -2.749732 -2.1467559 325.23001
-4.241672 -2.9447465 -2.1568267 325.23001
-4.5574088 -3.163944 -2.1664295 325.23001
-31.829464 -22.097347 0 325.23001
-4.9309516 -3.4232731 -2.1848247 325.23001
-32.747234 -22.734499 0.92555362 325.23001
-5.3821812 -3.7365355 -2.2139292 325.23001
-32.618748 -22.6453 1.8517843 325.23001
-5.9015751 -4.0971203 -2.2418053 325.23001
-32.433708 -22.516838 2.7609613 325.23001
-6.5617957 -4.5554733 -2.2905464 325.23001
-7.3395638 -5.0954328 -2.3390305 325.23001
-8.3528595 -5.7989049 -2.4093442 325.23001
-9.5535831 -6.6324973 -2.47207 325.23001
-10.98499 -7.6262398 -2.5195496 325.23001
-12.115311 -8.3546724 -2.4178653 325.41
-13.994132 -9.6503 -2.3890455 325.41
-14.122684 -9.7389498 -2.0061548 325.41
-22.729614 -15.674256 -2.5758934 325.41
-23.122555 -15.945227 -1.9640633 325.41
-3.9663804 -2.7352009 -2.145129 325.41
-4.2478638 -2.9293108 -2.1552851 325.41
-4.5657926 -3.1485534 -2.1657021 325.41
-32.374557 -22.325373 0 325.41
-4.9385877 -3.4056313 -2.1834567 325.41
-5.3985729 -3.7228355 -2.2158499 325.41
-33.117348 -22.837599 1.8760078 325.41
-5.9144173 -4.0785599 -2.2418053 325.41
-6.5776572 -4.5359278 -2.2910976 325.41
-7.3587213 -5.0745463 -2.3400433 325.41
-8.3710365 -5.772635 -2.4093442 325.41
-9.5743723 -6.6024513 -2.47207 325.41
-10.984624 -7.5749555 -2.5139952 325.41
-12.135162 -8.3153429 -2.4168925 325.57999
-14.004731 -9.5964222 -2.3859837 325.57999
-22.789162 -15.615752 -2.5773797 325.57999
-23.24547 -15.928428 -1.9704809 325.57999
-3.9759855 -2.7244532 -2.1459424 325.57999
-32.448288 -22.234447 -1.8343621 325.57999
-4.258059 -2.9177375 -2.1560559 325.57999
-4.5766511 -3.1360457 -2.1664295 325.57999
-4.9533215 -3.3941503 -2.1855087 325.57999
-31.734224 -21.745152 0.89315134 325.57999
-5.409595 -3.7068012 -2.2158499 325.57999
-32.763065 -22.45014 1.852157 325.57999
-5.9249177 -4.0599146 -2.2412095 325.57999
-6.5910869 -4.5163913 -2.2910976 325.57999
-7.373745 -5.05269 -2.3400433 325.57999
-8.3913374 -5.7499723 -2.4102664 325.57999
-9.605217 -6.5817552 -2.4749808 325.57999
-10.990838 -7.5312204 -2.5102921 325.57999
-12.161412 -8.2804108 -2.4172168 325.75
-13.998764 -9.5314188 -2.3801384 325.75
-16.13748 -10.987618 -2.2830582 325.75
-23.008228 -15.665745 -2.5968869 325.75
-32.630131 -22.217064 -2.7604032 325.75
-3.9810312 -2.7105877 -2.1443155 325.75
-32.512463 -22.13695 -1.834269 325.75
-4.2697482 -2.9071681 -2.1575978 325.75
-32.522503 -22.143784 -0.91348404 325.75
-4.5843959 -3.1214042 -2.1657021 325.75
-32.536224 -22.153128 0 325.75
-4.9680309 -3.3826118 -2.1875608 325.75
-31.796951 -21.649775 0.89310497 325.75
-5.4221358 -3.6918008 -2.21649 325.75
-32.725494 -22.281996 1.8462875 325.75
-5.9369378 -4.0423169 -2.2412095 325.75
-6.6060472 -4.4978976 -2.2916489 325.75
-7.3903036 -5.0318785 -2.3405499 325.75
-8.4164047 -5.730526 -2.4125721 325.75
-9.6311712 -6.557631 -2.476644 325.75
-10.979018 -7.4753475 -2.5025158 325.75
-12.176316 -8.2408867 -2.4155958 325.91
-14.010565 -9.4822998 -2.3776333 325.91
-16.151648 -10.931377 -2.280735 325.91
-23.091465 -15.628221 -2.6013458 325.91
-32.541687 -22.024096 -2.7477076 325.91
-3.999177 -2.7066286 -2.1500099 325.91
-4.2747931 -2.8931646 -2.1560559 325.91
-4.5961804 -3.1106784 -2.1671569 325.91
-32.579742 -22.049852 0 325.91
-4.9712319 -3.3645117 -2.1848247 325.91
-31.888746 -21.58219 0.89398694 325.91
-5.4324241 -3.676645 -2.21649 325.91
-33.321999 -22.552208 1.8763804 325.91
-5.951365 -4.0278625 -2.2424011 325.91
-6.6201739 -4.4805098 -2.2922003 325.91
-7.4123383 -5.0166435 -2.3430824 325.91
-8.4307623 -5.7059097 -2.412111 325.91
-9.6478252 -6.5296135 -2.4762282 325.91
-10.98683 -7.4358463 -2.4995532 325.91
-12.203577 -8.2004633 -2.4155958 326.10001
-14.023849 -9.4236355 -2.3745716 326.10001
-14.214209 -9.5515518 -2.0026703 326.10001
-23.186136 -15.580438 -2.6061761 326.10001
-4.0005479 -2.6882565 -2.1459424 326.10001
-4.2858953 -2.8800023 -2.1568267 326.10001
-4.6111093 -3.098537 -2.1693394 326.10001
-32.083294 -21.55908 0 326.10001
-4.9870415 -3.3511527 -2.1868768 326.10001
-32.494526 -21.835415 0.90893471 326.10001
-5.4461589 -3.659667 -2.2171302 326.10001
-33.096462 -22.239899 1.8595172 326.10001
-5.9662738 -4.0091696 -2.2429969 326.10001
-6.6397829 -4.4617486 -2.293854 326.10001
-7.4305391 -4.9931149 -2.3435888 326.10001
-8.4512529 -5.6790066 -2.4125721 326.10001
-9.6710491 -6.4986753 -2.476644 326.10001
-10.991851 -7.3862176 -2.4951096 326.10001
-12.232779 -8.1675062 -2.4165685 326.26999
-14.012217 -9.3555908 -2.3678911 326.26999
-14.201184 -9.4817591 -1.9968628 326.26999
-23.255449 -15.527055 -2.608777 326.26999
-4.0115457 -2.6784041 -2.1475694 326.26999
-4.2928872 -2.8662484 -2.1560559 326.26999
-33.224319 -22.18301 -0.92750335 326.26999
-4.6140852 -3.080704 -2.1664295 326.26999
-32.875656 -21.950216 0 326.26999
-5.0016513 -3.3394718 -2.1889288 326.26999
-32.595753 -21.76333 0.90995598 326.26999
-5.4569936 -3.6434917 -2.2171302 326.26999
-33.095844 -22.097229 1.8557905 326.26999
-5.9781432 -3.9914498 -2.2429969 326.26999
-6.6529918 -4.4420285 -2.293854 326.26999
-7.4501486 -4.9742694 -2.3451085 326.26999
-8.4745398 -5.6582284 -2.4144166 326.26999
-9.6967964 -6.4742975 -2.4783072 326.26999
-10.98593 -7.3350186 -2.4888144 326.26999
-13.997004 -9.2855082 -2.3606541 326.44
-16.218967 -10.759542 -2.2760892 326.44
-23.311373 -15.464591 -2.6098919 326.44
-4.0164299 -2.6644697 -2.1459424 326.44
-4.2998347 -2.8524783 -2.1552851 326.44
-4.6263103 -3.0690598 -2.1678846 326.44
-33.163967 -22.000729 0 326.44
-5.0099716 -3.3235781 -2.1882448 326.44
-32.748489 -21.725103 0.91241634 326.44
-5.4740953 -3.6314743 -2.2196913 326.44
-32.718422 -21.705158 1.8310082 326.44
-5.9915504 -3.97475 -2.2435925 326.44
-6.6677442 -4.4233322 -2.2944055 326.44
-7.4632621 -4.9510727 -2.3446019 326.44
-8.4945345 -5.635211 -2.4153388 326.44
-9.7143335 -6.4444165 -2.4778914 326.44
-10.991267 -7.2915254 -2.4851115 326.44
-12.272554 -8.0861139 -2.414623 326.62
-14.036028 -9.2480278 -2.3623242 326.62
-14.323532 -9.4374571 -2.0059226 326.62
-23.343212 -15.380324 -2.6080339 326.62
-4.0247808 -2.6518385 -2.1459424 326.62
-4.3164797 -2.8440328 -2.1591394 326.62
-4.6390405 -3.0565608 -2.1693394 326.62
-33.451702 -22.040583 0 326.62
-5.0219579 -3.3088565 -2.1889288 326.62
-32.591179 -21.473602 0.90614939 326.62
-5.4807305 -3.6111317 -2.2177706 326.62
-6.0056024 -3.9569581 -2.2441883 326.62
-6.6783967 -4.4002476 -2.2933028 326.62
-7.4771643 -4.9265375 -2.3440955 326.62
-8.5105705 -5.6074262 -2.4148777 326.62
-9.741065 -6.4181719 -2.4795549 326.62
-10.992785 -7.2429018 -2.4802976 326.62
-12.30004 -8.0550547 -2.4155958 326.78
-14.055171 -9.2044554 -2.3612108 326.78
-16.280867 -10.66202 -2.2758567 326.78
-23.417723 -15.335806 -2.6115639 326.78
-4.0352273 -2.642591 -2.1475694 326.78
-4.3197737 -2.8289347 -2.1568267 326.78
-4.6475582 -3.0435944 -2.1693394 326.78
-5.0327506 -3.2958493 -2.1896129 326.78
-33.522491 -21.953218 0.93033504 326.78
-5.4955487 -3.5989265 -2.2196913 326.78
-6.0214205 -3.9433095 -2.2459755 326.78
-6.7019172 -4.3889537 -2.2971618 326.78
-7.5022225 -4.9130578 -2.347641 326.78
-8.534337 -5.5889692 -2.4171834 326.78
-9.7622232 -6.3930879 -2.4803865 326.78
-10.996526 -7.2014084 -2.4765944 326.78
-12.322487 -8.0206747 -2.4155958 326.94
-14.110699 -9.184617 -2.366221 326.94
-14.234505 -9.2652025 -1.986177 326.94
-23.492168 -15.290992 -2.6150937 326.94
-4.0425911 -2.6313121 -2.1475694 326.94
-4.3292031 -2.8178673 -2.1575978 326.94
-4.6576004 -3.0316203 -2.1700668 326.94
-32.632252 -21.24025 0 326.94
-5.037209 -3.2787066 -2.1875608 326.94
-33.638966 -21.895515 0.931867 326.94
-5.5071654 -3.5845997 -2.2203314 326.94
-6.0308084 -3.9254379 -2.2453799 326.94
-6.7157583 -4.3712697 -2.297713 326.94
-7.515913 -4.8920884 -2.347641 326.94
-8.546649 -5.5629916 -2.416261 326.94
-9.7849569 -6.3690033 -2.4816339 326.94
-10.990237 -7.1535172 -2.4706695 326.94
-12.352331 -7.9819102 -2.4162443 327.13
-14.141078 -9.1377745 -2.366221 327.13
-16.322336 -10.547274 -2.2726045 327.13
-23.61801 -15.26164 -2.6234541 327.13
-4.0466909 -2.614917 -2.145129 327.13
-4.3338737 -2.8004909 -2.1552851 327.13
-4.6691928 -3.0171697 -2.1707945 327.13
-5.0512109 -3.2640245 -2.1889288 327.13
-33.708027 -21.781673 0.93177414 327.13
-5.5222049 -3.5683744 -2.221612 327.13
-6.0437927 -3.9054174 -2.2453799 327.13
-6.7253728 -4.3458452 -2.2960591 327.13
-7.5255942 -4.8629379 -2.3456149 327.13
-8.5764914 -5.5420132 -2.4194889 327.13
-9.80931 -6.338644 -2.4824655 327.13
-10.990788 -7.1020994 -2.4654853 327.13
-12.371252 -7.9452519 -2.4155958 327.29001
-14.153209 -9.0896873 -2.3639944 327.29001
-16.366768 -10.511313 -2.2746952 327.29001
-23.74264 -15.248356 -2.6325574 327.29001
-4.0555143 -2.6045938 -2.1459424 327.29001
-4.3401246 -2.7873802 -2.1545143 327.29001
-4.6760325 -3.0031123 -2.1700668 327.29001
-5.0587249 -3.2488906 -2.1882448 327.29001
-33.753582 -21.677734 0.93135631 327.29001
-5.5305538 -3.5519156 -2.2209716 327.29001
-6.061101 -3.8926516 -2.2477629 327.29001
-6.7439532 -4.3312035 -2.2982643 327.29001
-7.5424008 -4.8439946 -2.346628 327.29001
-8.5919342 -5.5180416 -2.4194889 327.29001
-9.8302641 -6.3133407 -2.4832973 327.29001
-10.999002 -7.0639448 -2.4628932 327.29001
-12.386453 -7.903203 -2.4139745 327.45999
-14.173437 -9.0433922 -2.3628809 327.45999
-16.414631 -10.473391 -2.2770183 327.45999
-23.846533 -15.215332 -2.6390598 327.45999
-4.064765 -2.5935321 -2.1467559 327.45999
-4.3545985 -2.7784612 -2.1575978 327.45999
-4.6864929 -2.990227 -2.1707945 327.45999
-5.0715108 -3.2358887 -2.1896129 327.45999
-32.454121 -20.707422 0.89380127 327.45999
-5.5426655 -3.5365098 -2.221612 327.45999
-6.066186 -3.870543 -2.2453799 327.45999
-6.7551537 -4.3101406 -2.297713 327.45999
-7.5665264 -4.8278389 -2.3496668 327.45999
-8.6099091 -5.4935713 -2.41995 327.45999
-9.8473043 -6.2830939 -2.4828813 327.45999
-10.998373 -7.0175357 -2.4580791 327.45999
-12.419262 -7.8663087 -2.4152715 327.64999
-14.213387 -9.0027008 -2.3645511 327.64999
-16.447594 -10.417837 -2.2767861 327.64999
-24.023029 -15.216087 -2.6529937 327.64999
-4.0810604 -2.5849268 -2.1508234 327.64999
-4.3622293 -2.7630181 -2.1568267 327.64999
-4.697957 -2.9756665 -2.1715219 327.64999
-33.156521 -21.001204 0 327.64999
-5.0901523 -3.2240813 -2.1930332 327.64999
-33.313126 -21.100395 0.91552657 327.64999
-5.555963 -3.519124 -2.2222521 327.64999
-6.0854392 -3.8544919 -2.2477629 327.64999
-6.7677851 -4.2866869 -2.2971618 327.64999
-7.5792255 -4.8006501 -2.348654 327.64999
-8.6297235 -5.4660306 -2.4204111 327.64999
-9.8730431 -6.2535448 -2.484129 327.64999
-11.00664 -6.9715605 -2.4547465 327.64999
-12.442547 -7.8294253 -2.4152715 327.82001
-14.241713 -8.961544 -2.3648293 327.82001
-16.483475 -10.372165 -2.277483 327.82001
-24.143915 -15.192468 -2.6613538 327.82001
-4.0840731 -2.5698876 -2.1483829 327.82001
-4.3766561 -2.7539945 -2.1599102 327.82001
-4.709919 -2.9636989 -2.172977 327.82001
-5.0996957 -3.2089643 -2.1930332 327.82001
-5.5679836 -3.5036328 -2.2228923 327.82001
-6.1000805 -3.8384528 -2.2489543 327.82001
-6.785356 -4.2696595 -2.2988155 327.82001
-7.601624 -4.7832932 -2.3511865 327.82001
-8.6508446 -5.4435115 -2.4217944 327.82001
-9.8965216 -6.2273488 -2.4853764 327.82001
-11.002324 -6.923171 -2.4491918 327.82001
-12.465722 -7.7924733 -2.4152715 327.98999
-14.26656 -8.9181986 -2.3645511 327.98999
-16.542812 -10.341111 -2.2814319 327.98999
-24.183821 -15.117598 -2.6607966 327.98999
-4.09168 -2.5577586 -2.1483829 327.98999
-47.000282 -29.380442 -2.5848212 327.98999
-4.3816786 -2.7390399 -2.1583686 327.98999
-46.975952 -29.365234 -1.2862029 327.98999
-4.7218513 -2.9516861 -2.1744318 327.98999
-5.1044135 -3.1908305 -2.1909811 327.98999
-5.5799613 -3.4881012 -2.2235327 327.98999
-46.517471 -29.078632 2.5582685 327.98999
-6.1146808 -3.8223605 -2.2501459 327.98999
-6.8012547 -4.2515464 -2.2999182 327.98999
-7.6141419 -4.7596922 -2.3506799 327.98999
-8.6669579 -5.41782 -2.4217944 327.98999
-9.9199314 -6.2010689 -2.4866238 327.98999
-11.001152 -6.8769526 -2.4443779 327.98999
-12.488788 -7.7554526 -2.4152715 328.16
-14.289593 -8.8737402 -2.3639944 328.16
-16.580172 -10.296174 -2.2823613 328.16
-24.206575 -15.032119 -2.6583815 328.16
-4.1008034 -2.546571 -2.1491964 328.16
-4.3850827 -2.7231066 -2.1560559 328.16
-46.989834 -29.180368 -1.2842069 328.16
-4.7305884 -2.9376631 -2.1744318 328.16
-46.939632 -29.149193 0 328.16
-5.1122618 -3.17468 -2.1902969 328.16
-47.018711 -29.198299 1.284996 328.16
-5.5918961 -3.4725294 -2.2241728 328.16
-6.124373 -3.803194 -2.2495501 328.16
-6.8171058 -4.2333765 -2.3010206 328.16
-7.6315184 -4.739121 -2.3516929 328.16
-8.6846476 -5.3931074 -2.4222555 328.16
-9.9366255 -6.1705766 -2.486208 328.16
-11.004811 -6.8339128 -2.440675 328.16
-12.505025 -7.7142186 -2.4139745 328.32999
-14.315859 -8.8313026 -2.3639944 328.32999
-16.617411 -10.251106 -2.2832904 328.32999
-24.305305 -14.993688 -2.6643264 328.32999
-4.1067858 -2.5334332 -2.1483829 328.32999
-4.4025669 -2.7158973 -2.160681 328.32999
-47.273605 -29.162592 -1.2895918 328.32999
-4.7376981 -2.9226363 -2.1737044 328.32999
-47.23698 -29.139997 0 328.32999
-5.1248579 -3.1614711 -2.1916652 328.32999
-47.13747 -29.078609 1.2858781 328.32999
-5.6053996 -3.4579122 -2.2254534 328.32999
-45.959766 -28.352098 2.5183001 328.32999
-6.1323805 -3.7830012 -2.2483585 328.32999
-6.8296366 -4.213131 -2.3010206 328.32999
-7.655426 -4.7225518 -2.354732 328.32999
-8.7072363 -5.3714027 -2.4241002 328.32999
-9.9632149 -6.1462026 -2.4882872 328.32999
-11.001621 -6.7867842 -2.4354906 328.32999
-12.531224 -7.6791439 -2.414623 328.5
-14.348754 -8.7929277 -2.3651078 328.5
-16.657917 -10.207984 -2.2846842 328.5
-24.375153 -14.937113 -2.6671133 328.5
-4.1189585 -2.5241008 -2.1508234 328.5
-4.4106059 -2.7028227 -2.160681 328.5
-47.317303 -28.996082 -1.2884312 328.5
-4.7447605 -2.907593 -2.172977 328.5
-5.1342158 -3.1462514 -2.1916652 328.5
-5.6140194 -3.4402754 -2.224813 328.5
-6.1517172 -3.7697771 -2.2513373 328.5
-6.8453856 -4.1948576 -2.3021233 328.5
-7.6644554 -4.696784 -2.3532124 328.5
-8.723135 -5.3455443 -2.4241002 328.5
-9.991415 -6.1227469 -2.490782 328.5
-11.001599 -6.7417889 -2.431047 328.5
-12.551915 -7.6376863 -2.4139745 328.67999
-14.377998 -8.7488356 -2.365386 328.67999
-16.683115 -10.151471 -2.2837551 328.67999
-24.472994 -14.891517 -2.6726868 328.67999
-20.328295 -12.369517 -1.6639709 328.67999
-4.1221852 -2.5082991 -2.1483829 328.67999
-4.4111924 -2.6841564 -2.1568267 328.67999
-4.7538714 -2.8926725 -2.172977 328.67999
-47.658428 -28.999571 0 328.67999
-5.1424689 -3.1291294 -2.1909811 328.67999
-5.6264181 -3.4236064 -2.2254534 328.67999
-6.1635299 -3.7504325 -2.2513373 328.67999
-6.8568878 -4.1723323 -2.3015718 328.67999
-7.6874371 -4.677711 -2.3557451 328.67999
-8.7415485 -5.3191252 -2.4245613 328.67999
-10.017285 -6.0953956 -2.4924452 328.67999
-11.004256 -6.6959548 -2.4269736 328.67999
-12.565713 -7.5920925 -2.412029 328.85999
-14.412193 -8.7077198 -2.3664994 328.85999
-16.737028 -10.112364 -2.2867749 328.85999
-20.352371 -12.296722 -2.2184453 328.85999
-4.1300449 -2.4953365 -2.1483829 328.85999
-4.4227624 -2.6721938 -2.1583686 328.85999
-4.7677193 -2.8806138 -2.1751592 328.85999
-39.955418 -24.140709 0 328.85999
-5.1570997 -3.1158741 -2.1930332 328.85999
-5.6355243 -3.4049337 -2.224813 328.85999
-6.1769161 -3.732038 -2.2519331 328.85999
-6.8716073 -4.1517644 -2.3021233 328.85999
-7.6987824 -4.6515365 -2.354732 328.85999
-8.759881 -5.2926426 -2.4250224 328.85999
-10.033036 -6.061872 -2.4916136 328.85999
-11.013462 -6.6542363 -2.4243815 328.85999
-12.593633 -7.5610361 -2.413326 329.01999
-14.446642 -8.6735563 -2.3681695 329.01999
-16.792452 -10.081946 -2.2904918 329.01999
-24.591661 -14.764481 -2.6760309 329.01999
-4.1354303 -2.4828532 -2.1475694 329.01999
-4.4302073 -2.6598327 -2.1583686 329.01999
-4.7725501 -2.8653705 -2.1737044 329.01999
-39.935226 -23.976536 0 329.01999
-5.1690035 -3.1033955 -2.1944013 329.01999
-5.6515083 -3.3930845 -2.2273741 329.01999
-6.1873136 -3.7147741 -2.2519331 329.01999
-6.8831744 -4.1325588 -2.3021233 329.01999
-7.7167182 -4.633007 -2.3562515 329.01999
-8.7796326 -5.2711654 -2.4264057 329.01999
-10.049926 -6.0338306 -2.4916136 329.01999
-11.006725 -6.6082797 -2.4188271 329.01999
-12.605458 -7.5143609 -2.4110563 329.20001
-14.478923 -8.6311703 -2.3690045 329.20001
-16.841105 -10.039313 -2.2928147 329.20001
-20.544718 -12.247109 -2.2314501 329.20001
-20.549397 -12.249899 -1.6728997 329.20001
-4.1479182 -2.4726558 -2.1500099 329.20001
-20.59609 -12.277734 -1.1181886 329.20001
-4.4401264 -2.6468468 -2.1591394 329.20001
-39.348656 -23.456507 -1.063565 329.20001
-4.7799282 -2.8494091 -2.172977 329.20001
-39.307724 -23.432106 0 329.20001
-5.1803417 -3.0881035 -2.1950853 329.20001
-38.902119 -23.190317 1.0514954 329.20001
-5.6605124 -3.3743427 -2.2267337 329.20001
-39.608261 -23.611263 2.1503842 329.20001
-6.2022333 -3.697273 -2.2531245 329.20001
-6.8977747 -4.1118989 -2.3026745 329.20001
-7.7362208 -4.6117134 -2.3577709 329.20001
-8.7994928 -5.2455502 -2.4273279 329.20001
-10.073873 -6.0052333 -2.4928613 329.20001
-11.015615 -6.5666242 -2.4162347 329.20001
-12.625999 -7.4759212 -2.410732 329.37
-14.506172 -8.5891819 -2.369283 329.37
-16.870817 -9.9893007 -2.2928147 329.37
-24.854458 -14.716456 -2.6947951 329.37
-20.637156 -12.219369 -1.6770852 329.37
-4.1599531 -2.4631302 -2.1524503 329.37
-20.622114 -12.210463 -1.1176295 329.37
-4.4479604 -2.6336608 -2.1591394 329.37
-20.601112 -12.198028 -0.55585212 329.37
-4.7931709 -2.8380618 -2.1751592 329.37
-39.352982 -23.301109 0 329.37
-5.1894817 -3.0727196 -2.1950853 329.37
-39.480019 -23.376328 1.0652362 329.37
-5.6737604 -3.3594637 -2.2280142 329.37
-6.2164617 -3.6808 -2.2543161 329.37
-39.197033 -23.208771 3.1853597 329.37
-6.9099445 -4.0914149 -2.3026745 329.37
-7.7465405 -4.5867677 -2.3567579 329.37
-8.8150177 -5.2194185 -2.4273279 329.37
-10.096697 -5.9783072 -2.4941087 329.37
-11.004608 -6.5158868 -2.4095693 329.37
-12.646828 -7.4406338 -2.410732 329.53
-14.526688 -8.5466309 -2.3687263 329.53
-16.893511 -9.939127 -2.2921178 329.53
-24.864563 -14.628817 -2.6914508 329.53
-4.1573668 -2.445945 -2.1475694 329.53
-20.807659 -12.241978 -1.1258283 329.53
-4.448935 -2.6174862 -2.1560559 329.53
-39.519295 -23.25078 -1.0645399 329.53
-4.7962604 -2.8218317 -2.172977 329.53
-39.240345 -23.086664 0 329.53
-5.1996617 -3.0591688 -2.1957693 329.53
-39.655437 -23.330877 1.0682071 329.53
-5.6814866 -3.3426456 -2.2273741 329.53
-39.678162 -23.344248 2.1468439 329.53
-6.2300072 -3.6653621 -2.2555075 329.53
-6.9246569 -4.0740523 -2.303777 329.53
-7.7626543 -4.5670795 -2.3577709 329.53
-8.837945 -5.1997161 -2.4296334 329.53
-10.120096 -5.9540567 -2.4957719 329.53
-11.012597 -6.4791508 -2.4073474 329.53
-12.671432 -7.3986545 -2.410732 329.72
-14.56008 -8.5014076 -2.3695612 329.72
-16.905792 -9.8710327 -2.2893302 329.72
-24.931854 -14.557327 -2.6934946 329.72
-21.088736 -12.31339 -1.7076385 329.72
-4.1670327 -2.4330666 -2.1483829 329.72
-51.725266 -30.20159 -2.7932355 329.72
-4.4623718 -2.6055102 -2.1583686 329.72
-39.456318 -23.037937 -1.0607797 329.72
-4.8072004 -2.8068504 -2.1737044 329.72
-39.342594 -22.971539 0 329.72
-5.2097778 -3.0419092 -2.1957693 329.72
-39.597904 -23.120609 1.0645863 329.72
-5.6958122 -3.3256974 -2.2286544 329.72
-39.601807 -23.122887 2.138552 329.72
-6.2371817 -3.6417944 -2.2537203 329.72
-40.061707 -23.391417 3.2439551 329.72
-6.9397893 -4.0520363 -2.3043282 329.72
-7.7894526 -4.5481415 -2.3613164 329.72
-8.8551397 -5.1703801 -2.4296334 329.72
-10.139785 -5.9204645 -2.4957719 329.72
-11.018746 -6.4336767 -2.4040148 329.72
-12.686922 -7.3602695 -2.4097593 329.88
-14.571772 -8.4537573 -2.3676128 329.88
-16.960783 -9.8397331 -2.2930472 329.88
-25.034418 -14.523622 -2.7001827 329.88
-21.204149 -12.301506 -1.7141956 329.88
-4.1785522 -2.424171 -2.1508234 329.88
-20.60729 -11.95524 -1.1110147 329.88
-4.4712267 -2.5939651 -2.1591394 329.88
-39.672691 -23.015961 -1.0648649 329.88
-4.8198543 -2.7962201 -2.1758869 329.88
-39.404861 -22.860579 0 329.88
-5.2182522 -3.027349 -2.1957693 329.88
-39.731495 -23.050076 1.0664432 329.88
-5.7099943 -3.3126314 -2.2305751 329.88
-39.989372 -23.199682 2.1559741 329.88
-6.2489786 -3.6253209 -2.2543161 329.88
-21.459558 -12.449681 1.7348435 329.88
-6.9477515 -4.0307117 -2.3032258 329.88
-7.8004494 -4.5254006 -2.36081 329.88
-8.8745937 -5.1485615 -2.4310169 329.88
-10.159662 -5.8940892 -2.4966035 329.88
-11.026469 -6.3969641 -2.401793 329.88
-12.705284 -7.3206234 -2.4091108 330.04999
-14.581346 -8.4015865 -2.3651078 330.04999
-16.983019 -9.7853994 -2.2921178 330.04999
-25.161945 -14.497993 -2.7092862 330.04999
-4.1762276 -2.4062893 -2.1459424 330.04999
-4.4852996 -2.5843725 -2.1622229 330.04999
-40.231091 -23.180645 -1.0780021 330.04999
-4.8281293 -2.7819068 -2.1758869 330.04999
-39.311356 -22.650703 0 330.04999
-5.2288399 -3.0127912 -2.1964533 330.04999
-39.690567 -22.8692 1.0635186 330.04999
-5.7148724 -3.2928369 -2.2286544 330.04999
-21.520309 -12.399729 1.1582503 330.04999
-6.2613616 -3.607717 -2.2549119 330.04999
-6.9613461 -4.0110393 -2.303777 330.04999
-7.8138418 -4.5022364 -2.36081 330.04999
-8.8881445 -5.1212358 -2.4305558 330.04999
-10.175411 -5.8629427 -2.4961877 330.04999
-11.043698 -6.3632383 -2.4014227 330.04999
-12.726507 -7.2796926 -2.4087865 330.23001
-14.590477 -8.3459024 -2.3623242 330.23001
-17.011951 -9.7310114 -2.2918856 330.23001
-4.1901107 -2.3967862 -2.1491964 330.23001
-20.118065 -11.50774 -1.0808287 330.23001
-4.4917946 -2.5693526 -2.1614518 330.23001
-39.378651 -22.524994 -1.0532594 330.23001
-4.8384624 -2.7676501 -2.1766143 330.23001
-39.594116 -22.648241 0 330.23001
-5.2382789 -2.9963493 -2.1964533 330.23001
-39.526176 -22.609379 1.0572053 330.23001
-5.7284784 -3.2767484 -2.2299349 330.23001
-39.847675 -22.79328 2.1407881 330.23001
-6.280951 -3.5927684 -2.2578905 330.23001
-21.524818 -12.312417 1.7340064 330.23001
-6.9755816 -3.9901044 -2.3043282 330.23001
-7.8363447 -4.4824696 -2.3633425 330.23001
-8.9025002 -5.0923214 -2.4300947 330.23001
-10.197176 -5.8328896 -2.4970193 330.23001
-11.055104 -6.3236332 -2.3995712 330.23001
-12.746334 -7.2409258 -2.4084623 330.39999
-14.596232 -8.2918139 -2.3592625 330.39999
-17.052839 -9.6873617 -2.2935116 330.39999
-25.348732 -14.400084 -2.7198758 330.39999
-36.93811 -20.983768 -2.9706492 330.39999
-4.1972036 -2.3843434 -2.1491964 330.39999
-39.866489 -22.64732 -2.1381793 330.39999
-4.5010028 -2.5569253 -2.1622229 330.39999
-39.525284 -22.453485 -1.0553948 330.39999
-4.8482728 -2.7542024 -2.1773417 330.39999
-39.916775 -22.675882 0 330.39999
-5.2520485 -2.9835789 -2.1985054 330.39999
-39.932098 -22.684589 1.0662575 330.39999
-5.7381754 -3.2597375 -2.2299349 330.39999
-39.989826 -22.717382 2.1447942 330.39999
-6.2849431 -3.5703447 -2.2555075 330.39999
-21.609827 -12.276091 1.7379128 330.39999
-6.9890614 -3.9703395 -2.3048797 330.39999
-7.8512926 -4.460155 -2.3638489 330.39999
-8.9243383 -5.0697298 -2.4319391 330.39999
-10.216139 -5.8035746 -2.4974353 330.39999
-11.080653 -6.2946873 -2.4010525 330.39999
-12.769019 -7.2008462 -2.4084623 330.57999
-14.61531 -8.2420263 -2.3581491 330.57999
-17.071077 -9.6269102 -2.2918856 330.57999
-20.372318 -11.488582 -2.1820316 330.57999
-20.574301 -11.602487 -1.6516938 330.57999
-4.2014904 -2.3693509 -2.1475694 330.57999
-4.5074058 -2.5418661 -2.1614518 330.57999
-39.459782 -22.252596 -1.0517739 330.57999
-4.8569016 -2.7389574 -2.1773417 330.57999
-5.256485 -2.9642949 -2.1964533 330.57999
-39.888218 -22.494204 1.0631937 330.57999
-5.7500381 -3.242625 -2.2305751 330.57999
-40.031414 -22.574957 2.1432104 330.57999
-6.3011174 -3.5533957 -2.2572949 330.57999
-21.688257 -12.230681 1.7411215 330.57999
-7.0048494 -3.9502518 -2.3059821 330.57999
-7.8703213 -4.4383183 -2.3653686 330.57999
-8.9436121 -5.0435801 -2.4328613 330.57999
-10.247952 -5.7791386 -2.5007617 330.57999
-11.098662 -6.2588801 -2.400682 330.57999
-12.790329 -7.1629281 -2.4084623 330.75
-14.608596 -8.1812067 -2.3531387 330.75
-17.106499 -9.5800991 -2.2928147 330.75
-20.366354 -11.405706 -2.1777585 330.75
-4.2085018 -2.3568742 -2.1475694 330.75
-4.5165381 -2.5293827 -2.1622229 330.75
-54.20055 -30.353767 -1.4422723 330.75
-4.8585048 -2.7208934 -2.1744318 330.75
-39.387959 -22.058317 0 330.75
-5.2718158 -2.9523587 -2.1991894 330.75
-39.752422 -22.262424 1.0578088 330.75
-5.7629404 -3.2274017 -2.2318556 330.75
-39.972717 -22.385796 2.1365023 330.75
-6.3083014 -3.5328186 -2.2561033 330.75
-7.0198936 -3.9313295 -2.3070846 330.75
-7.8834558 -4.414947 -2.3653686 330.75
-8.9585371 -5.0170217 -2.4328613 330.75
-10.263348 -5.7477508 -2.5003459 330.75
-11.10861 -6.2211204 -2.3988307 330.75
-12.806351 -7.1220694 -2.4074895 330.92001
-14.60338 -8.1214619 -2.3484068 330.92001
-17.115751 -9.5186815 -2.2902594 330.92001
-20.424471 -11.358778 -2.1803596 330.92001
-20.250473 -11.262012 -1.6203034 330.92001
-4.217073 -2.3452652 -2.1483829 330.92001
-4.5159588 -2.5114861 -2.1583686 330.92001
-40.256901 -22.388302 -1.0694605 330.92001
-4.8730693 -2.710088 -2.1773417 330.92001
-39.808056 -22.138681 0 330.92001
-5.2821951 -2.9376175 -2.1998734 330.92001
-39.55444 -21.997639 1.0507991 330.92001
-5.7691793 -3.2084467 -2.2305751 330.92001
-40.103561 -22.303024 2.1399496 330.92001
-6.3287668 -3.5196536 -2.2596779 330.92001
-7.0332074 -3.9114182 -2.307636 330.92001
-7.898211 -4.3924775 -2.365875 330.92001
-8.9716825 -4.9894733 -2.4324002 330.92001
-10.276937 -5.7153721 -2.4995143 330.92001
-11.127019 -6.1881332 -2.3988307 330.92001
-12.832609 -7.0869031 -2.4084623 331.09
-14.63088 -8.0800123 -2.3489635 331.09
-17.117834 -9.4534512 -2.2867749 331.09
-20.285507 -11.202821 -2.1619668 331.09
-20.339687 -11.232743 -1.6247678 331.09
-4.2240133 -2.3327425 -2.1483829 331.09
-4.5185442 -2.4953995 -2.1560559 331.09
-40.043102 -22.114101 -1.0620331 331.09
-4.8876119 -2.6992199 -2.1802516 331.09
-39.90683 -22.038843 0 331.09
-5.2908878 -2.921932 -2.1998734 331.09
-40.779976 -22.521044 1.0815766 331.09
-5.7819905 -3.1931472 -2.2318556 331.09
-21.698103 -11.982938 1.1559211 331.09
-6.3324971 -3.4971683 -2.2572949 331.09
-7.0481477 -3.8923919 -2.3087385 331.09
-7.9145966 -4.3708944 -2.366888 331.09
-8.9949646 -4.967536 -2.4347057 331.09
-10.304125 -5.6905289 -2.5020094 331.09
-11.136728 -6.1503406 -2.3969791 331.09
-12.85481 -7.0465536 -2.4084623 331.26999
-14.637089 -8.0235357 -2.3459017 331.26999
-17.119579 -9.3843498 -2.2830582 331.26999
-20.381718 -11.17254 -2.1684694 331.26999
-4.2361274 -2.3220956 -2.1508234 331.26999
-4.5295978 -2.4829659 -2.1575978 331.26999
-39.826588 -21.831532 -1.0544664 331.26999
-4.8960676 -2.6838517 -2.1802516 331.26999
-39.753139 -21.791269 0 331.26999
-5.2967453 -2.9034889 -2.1985054 331.26999
-5.7936554 -3.1758776 -2.2324958 331.26999
-21.565708 -11.821561 1.146884 331.26999
-6.3468008 -3.4790924 -2.2584863 331.26999
-7.0586557 -3.8693061 -2.3081872 331.26999
-22.393349 -12.275244 2.3824923 331.26999
-7.9282889 -4.3460083 -2.366888 331.26999
-9.0122328 -4.9401884 -2.4351668 331.26999
-10.320235 -5.6571894 -2.5015934 331.26999
-11.145655 -6.1096549 -2.3947573 331.26999
-12.870971 -7.0087409 -2.4078138 331.42999
-14.655958 -7.9807358 -2.345345 331.42999
-17.15793 -9.3431559 -2.2846842 331.42999
-26.066942 -14.194458 -2.7691085 331.42999
-37.002712 -20.149408 -2.9462345 331.42999
-4.236177 -2.306762 -2.1475694 331.42999
-4.5381346 -2.4711897 -2.1583686 331.42999
-40.115677 -21.844538 -1.0605012 331.42999
-4.8986349 -2.667496 -2.1780691 331.42999
-39.741821 -21.640959 0 331.42999
-5.3048325 -2.8886864 -2.1985054 331.42999
-54.569263 -29.715073 1.4425973 331.42999
-5.800837 -3.1587801 -2.2318556 331.42999
-40.504021 -22.056005 2.1507568 331.42999
-6.3581681 -3.4622684 -2.2590821 331.42999
-7.0711217 -3.8504989 -2.3087385 331.42999
-22.466015 -12.233613 2.3865795 331.42999
-7.9437928 -4.3257022 -2.3679011 331.42999
-9.0259933 -4.9150023 -2.4351668 331.42999
-10.337711 -5.6292834 -2.5020094 331.42999
-11.155767 -6.0747466 -2.393276 331.42999
-12.895878 -6.966959 -2.408138 331.62
-14.671887 -7.9264426 -2.3436751 331.62
-17.197557 -9.2909279 -2.2858458 331.62
-26.229504 -14.170409 -2.7813704 331.62
-4.2486258 -2.2953069 -2.1500099 331.62
-4.5446811 -2.45525 -2.1575978 331.62
-55.927055 -30.214422 -1.4758352 331.62
-4.9090929 -2.6521225 -2.1787968 331.62
-39.790493 -21.496693 0 331.62
-5.3160362 -2.8719723 -2.1991894 331.62
-5.8162813 -3.1422284 -2.2337763 331.62
-40.383591 -21.817112 2.1405084 331.62
-6.3696146 -3.4411647 -2.2590821 331.62
-7.0889258 -3.8297706 -2.3103924 331.62
-22.499451 -12.15526 2.3858364 331.62
-7.959796 -4.3002553 -2.3684075 331.62
-9.0508041 -4.8896689 -2.4374726 331.62
-10.359764 -5.5968308 -2.502841 331.62
-11.174122 -6.0367851 -2.3929057 331.62
-12.913014 -6.9267998 -2.4074895 331.79001
-14.677889 -7.8735132 -2.3408916 331.79001
-17.235552 -9.2454948 -2.2872396 331.79001
-26.271433 -14.092523 -2.7813704 331.79001
-37.009029 -19.852385 -2.9367476 331.79001
-4.2570271 -2.2835546 -2.1508234 331.79001
-4.5535722 -2.4426272 -2.1583686 331.79001
-4.9169402 -2.6375451 -2.1787968 331.79001
-39.861149 -21.382318 0 331.79001
-5.3295026 -2.8588519 -2.2012417 331.79001
-21.644005 -11.610277 0.57024282 331.79001
-5.8222394 -3.1231658 -2.2324958 331.79001
-21.091133 -11.313706 1.1161389 331.79001
-6.3814793 -3.4231532 -2.2596779 331.79001
-7.1036463 -3.8105381 -2.3114948 331.79001
-22.544191 -12.093156 2.3867655 331.79001
-7.9725199 -4.2766194 -2.3684075 331.79001
-9.0584116 -4.8591137 -2.4356279 331.79001
-10.378049 -5.5669932 -2.5032568 331.79001
-11.183325 -5.9989591 -2.3910542 331.79001
-12.93351 -6.8884554 -2.4074895 331.95999
-14.695941 -7.8271356 -2.3400564 331.95999
-17.261154 -9.1933813 -2.2870073 331.95999
-20.678244 -11.013341 -2.1857471 331.95999
-32.894344 -17.519701 -2.6061018 331.95999
-4.2573333 -2.2674782 -2.1475694 331.95999
-4.5591702 -2.4282382 -2.1575978 331.95999
-4.929677 -2.625572 -2.180979 331.95999
-40.2351 -21.429426 0 331.95999
-5.3363028 -2.8421428 -2.2005577 331.95999
-5.834825 -3.1076586 -2.2337763 331.95999
-21.122845 -11.250138 1.1160457 331.95999
-6.394978 -3.4059989 -2.2608693 331.95999
-21.869104 -11.6476 1.7326113 331.95999
-7.1166177 -3.7903481 -2.3120461 331.95999
-22.66258 -12.07021 2.3954973 331.95999
-7.9902968 -4.2556744 -2.3699272 331.95999
-9.081378 -4.8367896 -2.4379337 331.95999
-10.401427 -5.539855 -2.50492 331.95999
-11.192401 -5.9611316 -2.3892026 331.95999
-12.958477 -6.8582649 -2.4087865 332.10999
-14.721633 -7.7914143 -2.3408916 332.10999
-17.288675 -9.1500187 -2.2874718 332.10999
-20.659483 -10.934017 -2.1807311 332.10999
-23.456594 -12.414387 -1.8558012 332.10999
-4.2664847 -2.2580342 -2.1491964 332.10999
-23.483049 -12.428388 -1.239026 332.10999
-4.5704055 -2.4188838 -2.1599102 332.10999
-55.458847 -29.351555 -1.4568022 332.10999
-4.9332409 -2.6109142 -2.1795242 332.10999
-40.287525 -21.322145 0 332.10999
-5.3404031 -2.8264046 -2.1991894 332.10999
-22.321735 -11.813763 0.5863511 332.10999
-5.8446155 -3.0932589 -2.2344165 332.10999
-21.182243 -11.210688 1.1176295 332.10999
-6.4072475 -3.3910313 -2.2620609 332.10999
-22.202826 -11.75083 1.7566075 332.10999
-7.1231179 -3.7699053 -2.3109436 332.10999
-22.720503 -12.024811 2.398284 332.10999
-8.0031214 -4.2356462 -2.3704336 332.10999
-9.092289 -4.8120875 -2.4374726 332.10999
-10.415895 -5.5126052 -2.50492 332.10999
-11.202757 -5.9290514 -2.3880918 332.10999
