# .PCD v0.7 - Point Cloud Data file format
VERSION 0.7
FIELDS x y z intensity
SIZE 4 4 4 4
TYPE F F F F
COUNT 1 1 1 1
WIDTH 1223
HEIGHT 1
VIEWPOINT 0 0 0 1 0 0 0
POINTS 1223
DATA ascii
7.5069547 -6.3483615 -1.3817105 220.22
7.6280127 -6.450736 -1.1682438 220.22
13.306231 -11.252601 -1.6257946 220.22
14.295786 -12.089432 -1.3091896 220.22
3.4236073 -2.8952217 -1.9962634 220.22
14.278525 -12.074836 -0.87204176 220.22
3.6285727 -3.0685534 -1.9849281 220.22
14.404696 -12.181534 -0.43798769 220.22
3.8436856 -3.2504668 -1.9656457 220.22
14.323059 -12.112495 0 220.22
4.0798287 -3.4501643 -1.9447266 220.22
14.361948 -12.145384 0.43668789 220.22
4.3475742 -3.6765873 -1.9239031 220.22
14.240388 -12.042584 0.86971259 220.22
4.6343994 -3.9191449 -1.8938876 220.22
14.224185 -12.028882 1.3026323 220.22
4.9852686 -4.2158623 -1.872129 220.22
5.3746257 -4.5451279 -1.8426576 220.22
5.7968764 -4.9022098 -1.7988234 220.22
30.988115 -26.205536 5.7035918 220.22
5.9959912 -5.0705943 -1.6691151 220.22
30.917862 -26.146124 6.6524534 220.22
6.4981909 -5.4952865 -1.6034172 220.22
7.3454862 -6.2470789 -1.5842416 220.38
7.4182882 -6.3089943 -1.3686283 220.38
13.29751 -11.309067 -1.6285814 220.38
14.292366 -12.155157 -1.3119798 220.38
3.4196844 -2.9083219 -1.9987038 220.38
14.270622 -12.136664 -0.87362558 220.38
3.6228011 -3.0810657 -1.9864699 220.38
14.425456 -12.268345 -0.43965888 220.38
3.8345935 -3.2611876 -1.9656457 220.38
14.310508 -12.170586 0 220.38
4.0687466 -3.4603262 -1.9440424 220.38
14.404132 -12.25021 0.43900898 220.38
4.3416204 -3.6923962 -1.9258238 220.38
14.232575 -12.104307 0.87129641 220.38
4.6234369 -3.9320712 -1.8938876 220.38
14.217896 -12.091822 1.3051436 220.38
4.9793344 -4.2347493 -1.874334 220.38
31.086683 -26.438135 3.8072689 220.38
5.3619123 -4.5601187 -1.8426576 220.38
31.076941 -26.42985 4.7707739 220.38
5.787612 -4.9221611 -1.8002067 220.38
30.961584 -26.331743 5.7122207 220.38
5.9877691 -5.0923882 -1.6707784 220.38
30.898849 -26.278389 6.6641259 220.38
6.4843168 -5.5146847 -1.6037874 220.38
7.3370113 -6.2752633 -1.5861871 220.53999
7.3329115 -6.2717566 -1.3561027 220.53999
7.4771352 -6.3951101 -1.1505889 220.53999
13.291604 -11.368159 -1.6317397 220.53999
14.282626 -12.21577 -1.314212 220.53999
3.4129381 -2.9190478 -1.9995173 220.53999
14.265522 -12.20114 -0.87539577 220.53999
3.6071708 -3.0851727 -1.9826157 220.53999
14.334919 -12.260495 -0.43794128 220.53999
3.8240559 -3.2706723 -1.9649181 220.53999
14.299264 -12.23 0 220.53999
4.0633521 -3.4753397 -1.9460946 220.53999
14.371387 -12.291686 0.43905538 220.53999
4.3312926 -3.7045059 -1.9258238 220.53999
14.216937 -12.159587 0.87241441 220.53999
4.6138892 -3.946208 -1.8944833 220.53999
14.209848 -12.153524 1.3075154 220.53999
4.9704113 -4.2511368 -1.8754365 220.53999
5.352098 -4.5775895 -1.8436706 220.53999
5.7812386 -4.9446287 -1.8025123 220.53999
30.969208 -26.487617 5.7272515 220.53999
5.983932 -5.11799 -1.6736891 220.53999
6.4763598 -5.5391579 -1.605639 220.53999
7.3041973 -6.2892575 -1.5835932 220.73
7.3285823 -6.3102546 -1.3591645 220.73
7.4935203 -6.4522738 -1.1563964 220.73
13.274959 -11.430365 -1.6343408 220.73
14.267741 -12.285196 -1.3165836 220.73
3.4060085 -2.9327338 -2.0011442 220.73
14.249206 -12.269238 -0.87688643 220.73
3.6067095 -3.1055467 -1.9880116 220.73
14.339638 -12.347103 -0.43933392 220.73
3.818836 -3.2881978 -1.967828 220.73
14.296519 -12.309976 0 220.73
4.0546536 -3.4912477 -1.9474627 220.73
14.348729 -12.354931 0.43961245 220.73
4.3204198 -3.7200849 -1.9264641 220.73
14.218927 -12.243166 0.87502307 220.73
4.6022248 -3.9627321 -1.8950791 220.73
14.21936 -12.243539 1.3121192 220.73
4.9577436 -4.2688503 -1.8759879 220.73
30.971382 -26.667818 3.8130281 220.73
5.345686 -4.6028872 -1.8467096 220.73
5.7692342 -4.9675822 -1.8038957 220.73
30.920223 -26.623768 5.7344885 220.73
5.975822 -5.1454639 -1.6761841 220.73
6.4624238 -5.5644512 -1.6067499 220.73
30.81678 -26.534698 7.6619639 220.73
7.2974381 -6.321239 -1.5861871 220.89999
7.2783904 -6.3047395 -1.3533193 220.89999
7.4683371 -6.4692764 -1.1554672 220.89999
13.265069 -11.490562 -1.6373132 220.89999
14.25988 -12.352295 -1.3192345 220.89999
3.395911 -2.9416304 -2.0003309 220.89999
14.241431 -12.336314 -0.87865657 220.89999
3.5974793 -3.1162343 -1.9880116 220.89999
14.313519 -12.398759 -0.43965888 220.89999
3.8062468 -3.2970743 -1.9663731 220.89999
14.247838 -12.341865 0 220.89999
4.0400152 -3.4995711 -1.9454106 220.89999
14.370949 -12.448506 0.44142288 220.89999
4.3136597 -3.7366092 -1.9283848 220.89999
14.21576 -12.314077 0.87707275 220.89999
4.5832314 -3.9701197 -1.8921003 220.89999
14.213131 -12.3118 1.3149096 220.89999
4.9479623 -4.2860594 -1.8770903 220.89999
5.3261557 -4.6136608 -1.8446835 220.89999
5.7603536 -4.9897747 -1.8057401 220.89999
30.906961 -26.772449 5.7467356 220.89999
5.9620075 -5.164453 -1.6765999 220.89999
30.88135 -26.750265 6.7124376 220.89999
6.4488564 -5.586175 -1.6074905 220.89999
30.742373 -26.629877 7.663075 220.89999
7.2756748 -6.34027 -1.5855386 221.07001
7.2447205 -6.3132954 -1.3505358 221.07001
7.2828751 -6.3465447 -1.1296817 221.07001
13.256439 -11.552112 -1.6404716 221.07001
14.251745 -12.419456 -1.3218852 221.07001
3.3926778 -2.9564948 -2.0035846 221.07001
14.233383 -12.403454 -0.88042676 221.07001
3.5854349 -3.1244698 -1.9864699 221.07001
14.282698 -12.446428 -0.43984455 221.07001
3.8048744 -3.315697 -1.9707379 221.07001
14.265437 -12.431387 0 221.07001
4.0324478 -3.5140121 -1.9467787 221.07001
14.392739 -12.542321 0.44323334 221.07001
4.3025541 -3.7493916 -1.9283848 221.07001
14.224346 -12.395578 0.87986779 221.07001
4.5872645 -3.9974983 -1.8986536 221.07001
14.200604 -12.374889 1.3171418 221.07001
4.9366727 -4.3019843 -1.8776417 221.07001
5.3211951 -4.6370702 -1.8477225 221.07001
5.7528591 -5.013237 -1.8080457 221.07001
30.882635 -26.912178 5.7570343 221.07001
5.9510827 -5.1859756 -1.6778474 221.07001
6.4292903 -5.6027017 -1.6067499 221.07001
7.2631392 -6.3696022 -1.5871599 221.25
7.2308068 -6.3412476 -1.3516492 221.25
7.3629656 -6.4571476 -1.1452459 221.25
13.242539 -11.613396 -1.6432583 221.25
14.244159 -12.491792 -1.3248149 221.25
3.3765047 -2.9611151 -1.9995173 221.25
14.225889 -12.47577 -0.88238329 221.25
3.5756013 -3.1357181 -1.9864699 221.25
14.276598 -12.520241 -0.44086584 221.25
3.7874358 -3.321492 -1.9671006 221.25
14.296986 -12.53812 0 221.25
4.0228014 -3.5279021 -1.9474627 221.25
14.444964 -12.667894 0.44606504 221.25
4.2936029 -3.7653885 -1.9296652 221.25
14.203359 -12.456011 0.8809858 221.25
4.5746837 -4.0118899 -1.8986536 221.25
14.172158 -12.428649 1.3181183 221.25
4.9274697 -4.3212748 -1.8792955 221.25
30.987093 -27.174952 3.8451688 221.25
5.306601 -4.6537642 -1.8477225 221.25
5.7443972 -5.0377011 -1.8103514 221.25
30.869411 -27.071747 5.7703953 221.25
5.9377027 -5.2072258 -1.678679 221.25
6.4013133 -5.613801 -1.6041578 221.25
7.2471681 -6.3937354 -1.5878084 221.42
7.3203773 -6.4583235 -1.3719684 221.42
7.2469497 -6.3935428 -1.1301463 221.42
13.230423 -11.672397 -1.6460451 221.42
14.233962 -12.557759 -1.3273262 221.42
3.3745544 -2.977164 -2.0035846 221.42
14.21278 -12.539071 -0.88387394 221.42
3.5718174 -3.1511972 -1.9895532 221.42
14.218396 -12.544025 -0.44021592 221.42
3.7845492 -3.3388774 -1.9707379 221.42
14.220728 -12.546082 0 221.42
4.0137258 -3.5410659 -1.9481467 221.42
14.210899 -12.537412 0.43998381 221.42
4.2824116 -3.7781115 -1.9296652 221.42
14.200795 -12.528498 0.88312858 221.42
4.5656233 -4.0279717 -1.8998451 221.42
14.18459 -12.514201 1.3227222 221.42
4.9131846 -4.3346038 -1.8787442 221.42
5.298573 -4.6746087 -1.8497486 221.42
5.7410998 -5.0650229 -1.8140403 221.42
30.837961 -27.206457 5.7795806 221.42
5.9295616 -5.2312913 -1.6807581 221.42
6.4037886 -5.649673 -1.6089717 221.42
7.203433 -6.3955069 -1.5826205 221.60001
7.2822795 -6.4655099 -1.3686283 221.60001
7.2758489 -6.4598007 -1.1378123 221.60001
13.195177 -11.715226 -1.6462308 221.60001
14.222788 -12.627582 -1.3299769 221.60001
3.3610859 -2.9841118 -2.0011442 221.60001
14.198715 -12.60621 -0.88545775 221.60001
3.5605199 -3.1611774 -1.9887824 221.60001
14.186394 -12.595269 -0.44044805 221.60001
3.7726481 -3.3495135 -1.9700105 221.60001
14.187225 -12.596008 0 221.60001
4.0053921 -3.5561533 -1.9495149 221.60001
14.177423 -12.587305 0.44016951 221.60001
4.2719383 -3.7928042 -1.9303055 221.60001
14.153896 -12.566417 0.88266277 221.60001
4.5486636 -4.0384922 -1.8980578 221.60001
14.16311 -12.574597 1.3243964 221.60001
4.9009805 -4.351294 -1.8792955 221.60001
30.935177 -27.465534 3.8594742 221.60001
5.2853084 -4.6925163 -1.8502551 221.60001
5.7295251 -5.0869102 -1.8154236 221.60001
30.813061 -27.357115 5.7909927 221.60001
5.9204121 -5.2563877 -1.6828372 221.60001
6.3977656 -5.6802025 -1.6119342 221.60001
7.1800098 -6.4129081 -1.5816478 221.77
7.3265805 -6.5438194 -1.3805971 221.77
7.3114676 -6.5303211 -1.1464074 221.77
13.216797 -11.804733 -1.6532906 221.77
14.213531 -12.694978 -1.3326277 221.77
3.3522172 -2.9940712 -2.0011442 221.77
14.19403 -12.677561 -0.88750744 221.77
3.5566304 -3.1766453 -1.9918658 221.77
14.226505 -12.706566 -0.44286194 221.77
3.7613037 -3.3594515 -1.969283 221.77
14.231831 -12.711323 0 221.77
3.994823 -3.568022 -1.9495149 221.77
14.33984 -12.807793 0.44639 221.77
4.2663188 -3.8105114 -1.9328663 221.77
14.17317 -12.658929 0.88620311 221.77
4.5452046 -4.0596018 -1.9016324 221.77
14.171866 -12.657764 1.3287213 221.77
4.8952179 -4.37222 -1.8820518 221.77
5.2713618 -4.7081776 -1.8502551 221.77
5.7173095 -5.1064806 -1.8163458 221.77
30.784931 -27.495914 5.801013 221.77
5.9018722 -5.2713246 -1.6820055 221.77
6.3808842 -5.6991596 -1.6119342 221.77
7.1770988 -6.4486923 -1.5852144 221.94
7.2629361 -6.5258179 -1.3722467 221.94
7.329 -6.5851774 -1.1522149 221.94
13.199488 -11.859867 -1.6555201 221.94
14.206967 -12.765097 -1.3355575 221.94
3.3460369 -3.0064464 -2.0027711 221.94
14.184588 -12.744989 -0.88927764 221.94
3.5430713 -3.1834836 -1.9895532 221.94
14.245258 -12.799502 -0.44462597 221.94
3.754091 -3.3730869 -1.9707379 221.94
14.244635 -12.798942 0 221.94
3.9856169 -3.5811152 -1.9501989 221.94
14.371678 -12.913092 0.4485718 221.94
4.2549939 -3.823153 -1.9328663 221.94
14.165269 -12.727631 0.88806647 221.94
4.5374002 -4.0768976 -1.9034196 221.94
14.144636 -12.709092 1.3296978 221.94
4.8822236 -4.3867249 -1.8820518 221.94
30.930143 -27.791033 3.879353 221.94
5.2602477 -4.7263832 -1.8512681 221.94
5.7079234 -5.1286244 -1.8181903 221.94
30.765089 -27.642729 5.8127036 221.94
5.8862057 -5.2888126 -1.6820055 221.94
6.3610225 -5.7154398 -1.6111935 221.94
7.1494846 -6.4645901 -1.5835932 222.12
7.1718845 -6.4848437 -1.3588861 222.12
7.0975738 -6.4176517 -1.1189958 222.12
13.200568 -11.936001 -1.6603504 222.12
14.193432 -12.833752 -1.3380687 222.12
3.3352201 -3.015718 -2.0019577 222.12
14.172634 -12.814947 -0.89104778 222.12
3.5344214 -3.1958365 -1.9903241 222.12
3.7462394 -3.3873632 -1.9721929 222.12
3.978529 -3.5974002 -1.952251 222.12
14.382948 -13.005113 0.45019656 222.12
4.2415566 -3.8352308 -1.9322262 222.12
14.157815 -12.801548 0.8901161 222.12
4.5189052 -4.0860105 -1.9010366 222.12
14.132757 -12.77889 1.3323487 222.12
4.8684182 -4.4020414 -1.8820518 222.12
30.891426 -27.932138 3.8854837 222.12
5.2525492 -4.7493739 -1.8538007 222.12
5.6932268 -5.1478362 -1.8186514 222.12
30.755955 -27.809645 5.827456 222.12
5.8666592 -5.3046546 -1.6811739 222.12
6.3503246 -5.7419863 -1.6130451 222.12
30.575151 -27.646162 7.7663898 222.12
7.1185932 -6.4751506 -1.5809993 222.28999
7.0837522 -6.443459 -1.3458039 222.28999
7.0799704 -6.4400191 -1.1192281 222.28999
13.194557 -12.001914 -1.6640661 222.28999
14.186285 -12.904 -1.3409984 222.28999
3.3316641 -3.0305183 -2.0052116 222.28999
14.164107 -12.883827 -0.89291114 222.28999
3.5276539 -3.2087929 -1.9918658 222.28999
14.171243 -12.890318 -0.44476524 222.28999
3.7403069 -3.4022243 -1.9743754 222.28999
14.23868 -12.95166 0 222.28999
3.9678378 -3.6091888 -1.952251 222.28999
14.348735 -13.051766 0.45033583 222.28999
4.2329621 -3.8503487 -1.9335066 222.28999
14.133071 -12.855597 0.89095461 222.28999
4.5138235 -4.1058235 -1.9040154 222.28999
14.103635 -12.828821 1.3331857 222.28999
4.8610244 -4.4216413 -1.884257 222.28999
30.842295 -28.054491 3.8897569 222.28999
5.2398658 -4.7662392 -1.8543071 222.28999
5.6808071 -5.1673245 -1.8195736 222.28999
30.736307 -27.958082 5.8394251 222.28999
5.8523417 -5.3233542 -1.6815897 222.28999
6.3318062 -5.7594805 -1.6126747 222.28999
30.542421 -27.781723 7.7789803 222.28999
7.1165018 -6.5096564 -1.5845659 222.45
7.0744996 -6.4712362 -1.347474 222.45
7.2437115 -6.6260185 -1.1480335 222.45
13.172745 -12.049466 -1.6655524 222.45
14.176693 -12.967805 -1.3435097 222.45
3.3258846 -3.0422766 -2.0068386 222.45
14.153133 -12.946254 -0.89449495 222.45
3.5145946 -3.2148945 -1.9895532 222.45
14.1765 -12.967628 -0.44606504 222.45
3.7280421 -3.410141 -1.9729204 222.45
14.230495 -13.017019 0 222.45
3.9591303 -3.6215236 -1.952935 222.45
4.2249894 -3.864712 -1.934787 222.45
14.131021 -12.926027 0.89309746 222.45
4.5023403 -4.1184125 -1.9040154 222.45
14.103086 -12.900475 1.336534 222.45
4.8500767 -4.4364963 -1.8848082 222.45
30.83877 -28.209057 3.8992319 222.45
5.2265353 -4.7808533 -1.8543071 222.45
30.83341 -28.204153 4.886692 222.45
5.6720991 -5.1884227 -1.8214182 222.45
30.704876 -28.08658 5.8483319 222.45
5.8374529 -5.3396764 -1.6815897 222.45
6.3229489 -5.7837725 -1.6145263 222.45
30.551735 -27.946499 7.8011985 222.45
7.1192484 -6.5533671 -1.5897537 222.63
7.0279055 -6.469285 -1.3424637 222.63
7.2023978 -6.6299076 -1.1447812 222.63
13.162663 -12.116414 -1.6690823 222.63
14.163774 -13.037951 -1.3461604 222.63
3.3163106 -3.0527101 -2.0068386 222.63
14.14326 -13.019068 -0.89645147 222.63
3.5071929 -3.22842 -1.9910949 222.63
14.17394 -13.047309 -0.447272 222.63
3.724164 -3.4281449 -1.9765579 222.63
14.185117 -13.057598 0 222.63
3.9463506 -3.6326709 -1.952251 222.63
14.191593 -13.06356 0.44782907 222.63
4.2114329 -3.876683 -1.9341469 222.63
14.097693 -12.977123 0.89356327 222.63
4.4893799 -4.1325364 -1.9040154 222.63
14.093314 -12.973092 1.3394638 222.63
4.8361149 -4.4517112 -1.8848082 222.63
5.2157607 -4.8011804 -1.8558266 222.63
5.6572032 -5.2075343 -1.8218793 222.63
30.679148 -28.240582 5.860301 222.63
5.8220887 -5.3593135 -1.6820055 222.63
6.3148699 -5.8129258 -1.6171184 222.63
30.505722 -28.080944 7.8119373 222.63
7.0638776 -6.5435128 -1.581972 222.81
7.175705 -6.6471024 -1.1438521 222.81
13.155211 -12.186125 -1.6729838 222.81
14.156408 -13.113567 -1.3493693 222.81
3.3067038 -3.0631135 -2.0068386 222.81
14.134533 -13.093305 -0.89850116 222.81
3.5024486 -3.2444386 -1.9941783 222.81
14.159284 -13.116231 -0.4481076 222.81
3.7106423 -3.4372957 -1.9751028 222.81
14.14109 -13.099379 0 222.81
3.939055 -3.6488822 -1.9543031 222.81
14.179819 -13.135254 0.4487575 222.81
4.2020135 -3.8924696 -1.9354273 222.81
14.089099 -13.051217 0.89561296 222.81
4.4819775 -4.1518097 -1.9063984 222.81
14.081761 -13.04442 1.342254 222.81
4.8249264 -4.4694953 -1.8859107 222.81
5.2006516 -4.8175426 -1.8558266 222.81
5.6508093 -5.234539 -1.8251071 222.81
30.670187 -28.410849 5.8756099 222.81
5.815269 -5.3868837 -1.6849164 222.81
6.3023443 -5.838078 -1.6185997 222.81
30.489447 -28.243423 7.8304524 222.81
7.0614619 -6.5780106 -1.5855386 222.97
7.0038843 -6.524375 -1.3452471 222.97
7.0975204 -6.6116004 -1.1343278 222.97
13.141529 -12.241817 -1.6755847 222.97
14.14601 -13.177526 -1.3518804 222.97
3.3021479 -3.0760717 -2.009279 222.97
14.127151 -13.159959 -0.90036446 222.97
3.4893239 -3.250433 -1.9918658 222.97
14.154787 -13.185703 -0.44912887 222.97
3.7037556 -3.4501841 -1.9765579 222.97
14.139578 -13.171535 0 222.97
3.9288502 -3.6598678 -1.9543031 222.97
14.147472 -13.178889 0.44889677 222.97
4.1939001 -3.9067717 -1.9367077 222.97
14.077449 -13.11366 0.89719677 222.97
4.4689689 -4.1630082 -1.9058026 222.97
14.077397 -13.113611 1.3453233 222.97
4.8138332 -4.484262 -1.8864621 222.97
5.1914253 -4.8360028 -1.8573462 222.97
5.6432896 -5.2569308 -1.8274127 222.97
30.651594 -28.553083 5.8873005 222.97
5.8016348 -5.4044356 -1.6853322 222.97
6.2932072 -5.8623533 -1.6204511 222.97
30.460791 -28.375343 7.8434129 222.97
7.0548739 -6.6110787 -1.5884569 223.14
6.9787149 -6.53971 -1.3441339 223.14
7.130054 -6.681529 -1.1426905 223.14
13.105149 -12.280754 -1.6755847 223.14
14.131598 -13.242633 -1.3542522 223.14
3.2890069 -3.0821078 -2.0068386 223.14
14.117198 -13.229139 -0.90222782 223.14
3.4823575 -3.2632954 -1.9934075 223.14
14.11998 -13.231745 -0.44926813 223.14
3.6894243 -3.4573364 -1.9743754 223.14
14.126703 -13.238046 0 223.14
3.9193451 -3.6727939 -1.9549872 223.14
14.143323 -13.25362 0.4500109 223.14
4.1836724 -3.9204936 -1.937348 223.14
14.053056 -13.169031 0.89812845 223.14
4.4579906 -4.1775551 -1.9063984 223.14
14.060264 -13.175785 1.347416 223.14
4.8047156 -4.5024691 -1.8881159 223.14
5.1784654 -4.8527079 -1.8578526 223.14
5.630507 -5.2763133 -1.8283349 223.14
30.63611 -28.708908 5.900661 223.14
5.7912841 -5.4269762 -1.6869955 223.14
6.2858248 -5.8904071 -1.6230433 223.14
30.438133 -28.523386 7.8593359 223.14
7.0251751 -6.6225057 -1.5861871 223.31
6.9160461 -6.5196314 -1.3357835 223.31
7.150671 -6.740808 -1.149195 223.31
13.091838 -12.341439 -1.6785573 223.31
14.125635 -13.315981 -1.357461 223.31
3.2798476 -3.0918529 -2.0068386 223.31
14.105506 -13.297005 -0.90399796 223.31
3.4740026 -3.2748795 -1.9941783 223.31
14.108301 -13.299641 -0.45015016 223.31
3.6872835 -3.4759355 -1.9787402 223.31
14.126657 -13.316943 0 223.31
3.9084306 -3.6844068 -1.9549872 223.31
14.1374 -13.327071 0.45107859 223.31
4.1747794 -3.9354889 -1.9386284 223.31
14.077885 -13.270967 0.90222782 223.31
4.4469652 -4.1920733 -1.9069941 223.31
14.064661 -13.258501 1.3516015 223.31
4.7941332 -4.5193424 -1.8892184 223.31
30.721987 -28.961061 3.9389896 223.31
5.1696758 -4.8733602 -1.8598787 223.31
30.704376 -28.94446 4.9345465 223.31
5.6162434 -5.2943311 -1.828796 223.31
30.615644 -28.860815 5.9131866 223.31
5.7708859 -5.4401097 -1.685748 223.31
6.2640295 -5.9049869 -1.6219324 223.31
30.427736 -28.683678 7.878592 223.31
7.014358 -6.6540508 -1.5884569 223.49001
6.8624821 -6.5099764 -1.3293815 223.49001
7.1236939 -6.7577705 -1.1482658 223.49001
7.1123328 -6.7469931 -0.91461396 223.49001
14.114128 -13.389127 -1.3603908 223.49001
3.2740946 -3.1059141 -2.009279 223.49001
14.09555 -13.371502 -0.90604764 223.49001
3.4650359 -3.2870471 -1.9949492 223.49001
14.088209 -13.364538 -0.45084646 223.49001
3.6736422 -3.4849379 -1.9772853 223.49001
14.116672 -13.39154 0 223.49001
3.8981998 -3.6979606 -1.9556712 223.49001
14.134628 -13.408573 0.45233196 223.49001
4.1651444 -3.9511931 -1.939909 223.49001
14.049168 -13.327503 0.90306634 223.49001
4.4393139 -4.2112794 -1.9093771 223.49001
14.054783 -13.332829 1.3546708 223.49001
4.7813063 -4.5357046 -1.8897697 223.49001
30.626518 -29.053324 3.9384322 223.49001
5.1557441 -4.8909087 -1.8603852 223.49001
30.603205 -29.031208 4.93292 223.49001
5.5981712 -5.3106093 -1.8283349 223.49001
30.593796 -29.022282 5.9265475 223.49001
5.7509284 -5.4555197 -1.6849164 223.49001
6.2525768 -5.9314003 -1.6237838 223.49001
6.9977016 -6.6801424 -1.5894295 223.67
6.9795241 -6.6627898 -1.3561027 223.67
7.0507016 -6.7307372 -1.1399029 223.67
14.100859 -13.460955 -1.363181 223.67
3.2669642 -3.1187077 -2.010906 223.67
14.078038 -13.43917 -0.90763152 223.67
3.4573622 -3.3004653 -1.9964908 223.67
14.076525 -13.437725 -0.45182133 223.67
3.668066 -3.5016074 -1.9801952 223.67
14.090445 -13.451014 0 223.67
3.8865631 -3.7101889 -1.9556712 223.67
14.143053 -13.501234 0.45395672 223.67
4.1540813 -3.9655671 -1.9405491 223.67
14.057807 -13.419857 0.90632713 223.67
4.4274426 -4.2265234 -1.9099729 223.67
14.035917 -13.39896 1.356903 223.67
4.7642522 -4.548048 -1.8886671 223.67
30.611435 -29.222273 3.9482789 223.67
5.1431522 -4.9097538 -1.8613981 223.67
30.583693 -29.195789 4.9445353 223.67
5.5899057 -5.3362331 -1.8311017 223.67
30.558338 -29.171585 5.9374027 223.67
5.7365909 -5.4762616 -1.685748 223.67
6.2381768 -5.9550853 -1.6248947 223.67
7.052578 -6.7726369 -1.3741952 223.84
7.0450282 -6.7653866 -1.142226 223.84
7.5306067 -7.2316909 -0.97406483 223.84
14.092516 -13.533135 -1.3662503 223.84
3.2616501 -3.1321838 -2.0133464 223.84
14.075567 -13.51686 -0.91005385 223.84
3.4475543 -3.310709 -1.9964908 223.84
14.078415 -13.519594 -0.45316756 223.84
3.654973 -3.5098946 -1.9787402 223.84
14.087979 -13.528779 0 223.84
3.874182 -3.7204025 -1.9549872 223.84
14.14187 -13.580531 0.45521009 223.84
4.1368303 -3.9726253 -1.9379883 223.84
14.052511 -13.49472 0.90856314 223.84
4.4148831 -4.2396412 -1.9099729 223.84
14.02632 -13.469567 1.3598326 223.84
4.7562838 -4.5674906 -1.8908722 223.84
30.603594 -29.388832 3.9584968 223.84
5.1299577 -4.926332 -1.8619046 223.84
30.555677 -29.342817 4.9540596 223.84
5.5796633 -5.3581872 -1.8329462 223.84
30.523077 -29.311512 5.9474235 223.84
5.7203174 -5.4932585 -1.685748 223.84
6.2275686 -5.9803748 -1.6267463 223.84
7.0725679 -6.834672 -1.3822672 224.02
6.9637437 -6.7295084 -1.1324693 224.02
6.8505735 -6.6201448 -0.88879001 224.02
14.080059 -13.606457 -1.3691801 224.02
3.2517939 -3.1424153 -2.0133464 224.02
14.05602 -13.583225 -0.9115445 224.02
3.4411175 -3.3253708 -1.9988034 224.02
14.074694 -13.601272 -0.45442092 224.02
3.6479473 -3.5252435 -1.9809227 224.02
14.082801 -13.609106 0 224.02
3.8705838 -3.7403913 -1.9590914 224.02
14.120704 -13.645734 0.45590642 224.02
4.1352296 -3.9961355 -1.9431101 224.02
14.024414 -13.552683 0.90949482 224.02
4.4042878 -4.2561436 -1.9111644 224.02
14.019802 -13.548226 1.3633205 224.02
4.7432933 -4.583746 -1.8914236 224.02
30.565529 -29.537415 3.9655566 224.02
5.1144562 -4.9424238 -1.8619046 224.02
30.524767 -29.498024 4.9640484 224.02
5.5614028 -5.3743372 -1.832485 224.02
30.513445 -29.487082 5.9635673 224.02
5.7058454 -5.5139208 -1.6865796 224.02
6.2129898 -6.0040073 -1.6278572 224.02
6.7423978 -6.5521178 -1.3213094 224.17999
6.9662933 -6.7696948 -1.1359538 224.17999
6.8434849 -6.650352 -0.89027631 224.17999
14.070624 -13.673532 -1.3719703 224.17999
3.2403853 -3.148937 -2.0117195 224.17999
14.05242 -13.65584 -0.91378051 224.17999
3.431818 -3.3349671 -1.9988034 224.17999
14.072505 -13.675359 -0.45558149 224.17999
3.6367528 -3.5341184 -1.9801952 224.17999
14.103549 -13.705526 0 224.17999
3.8574278 -3.7485657 -1.9577233 224.17999
14.185784 -13.785441 0.45924878 224.17999
4.1240544 -4.0076675 -1.9431101 224.17999
14.022331 -13.626601 0.91182399 224.17999
4.3951235 -4.2710867 -1.9123559 224.17999
14.01053 -13.615133 1.3661108 224.17999
4.734611 -4.6009936 -1.8930774 224.17999
37.619171 -36.557507 4.8939185 224.17999
5.1020217 -4.9580355 -1.8624111 224.17999
37.603737 -36.542507 6.1318278 224.17999
5.5407906 -5.3844213 -1.8306406 224.17999
5.6904249 -5.5298333 -1.6865796 224.17999
6.1905613 -6.0158548 -1.626376 224.17999
6.903583 -6.7463403 -1.5858629 224.34
6.9181337 -6.7605596 -1.3594428 224.34
6.9757762 -6.8168893 -1.1405998 224.34
7.0855203 -6.9241333 -0.92427474 224.34
14.065205 -13.744843 -1.3751792 224.34
3.2341926 -3.1605275 -2.0133464 224.34
14.044236 -13.724351 -0.91573703 224.34
3.4238114 -3.3458273 -1.9995743 224.34
14.081452 -13.760719 -0.45711339 224.34
3.6295342 -3.5468645 -1.9816501 224.34
14.089538 -13.76862 0 224.34
3.8509774 -3.7632637 -1.9597754 224.34
14.180123 -13.857143 0.46031648 224.34
4.1169119 -4.0231414 -1.9450308 224.34
14.004229 -13.685254 0.91312832 224.34
4.3872757 -4.2873468 -1.9141431 224.34
13.989578 -13.670938 1.367785 224.34
4.7231193 -4.6155405 -1.8936286 224.34
37.384487 -36.532978 4.8766408 224.34
5.0950751 -4.9790249 -1.8649436 224.34
37.35379 -36.502983 6.1076684 224.34
5.5410433 -5.414835 -1.8357128 224.34
5.6833558 -5.553906 -1.6890746 224.34
6.1891999 -6.0482287 -1.6304493 224.34
36.630562 -35.79623 9.6497564 224.34
6.9036837 -6.7913404 -1.5910507 224.53
6.9521527 -6.8390203 -1.3705767 224.53
6.9871192 -6.8734179 -1.1461751 224.53
7.4983377 -7.3763175 -0.98131043 224.53
14.049417 -13.82079 -1.3781089 224.53
3.2262993 -3.1737976 -2.0149734 224.53
14.029981 -13.801671 -0.91778666 224.53
3.4140131 -3.3584571 -2.000345 224.53
14.069952 -13.840992 -0.45822752 224.53
3.6204088 -3.5614939 -1.9831051 224.53
14.100833 -13.87137 0 224.53
3.8411562 -3.7786493 -1.9611435 224.53
14.124116 -13.894275 0.45999151 224.53
4.103548 -4.0367713 -1.9450308 224.53
13.991527 -13.763843 0.91527116 224.53
4.3703122 -4.2991943 -1.9129516 224.53
13.966924 -13.73964 1.3700172 224.53
4.7091579 -4.6325259 -1.8941799 224.53
37.089939 -36.486378 4.8539753 224.53
5.078536 -4.9958935 -1.8649436 224.53
37.068268 -36.465057 6.0807214 224.53
5.5258312 -5.4359097 -1.8366351 224.53
5.6635122 -5.5713501 -1.6886587 224.53
6.1733127 -6.0728545 -1.6315602 224.53
36.573307 -35.978149 9.66605 224.53
6.8821001 -6.8104057 -1.5907265 224.7
6.9290147 -6.8568316 -1.37002 224.7
6.7421904 -6.6719532 -1.1092392 224.7
7.217391 -7.1422038 -0.94731194 224.7
14.039546 -13.89329 -1.3811781 224.7
3.2168682 -3.1833563 -2.0149734 224.7
14.018789 -13.872748 -0.91974318 224.7
3.4027216 -3.3672738 -1.9995743 224.7
14.11836 -13.971281 -0.46115208 224.7
3.6085014 -3.5709097 -1.9823776 224.7
14.086624 -13.939877 0 224.7
3.8312638 -3.7913516 -1.9618275 224.7
14.058668 -13.912211 0.45920235 224.7
4.0915527 -4.0489292 -1.9450308 224.7
13.984708 -13.839022 0.91750717 224.7
4.3656793 -4.3202 -1.9165261 224.7
13.970057 -13.824524 1.3743421 224.7
4.6981254 -4.6491823 -1.8952825 224.7
36.847054 -36.463196 4.8363256 224.7
5.0650659 -5.0123005 -1.8654501 224.7
36.825771 -36.442139 6.0586529 224.7
5.5013785 -5.444068 -1.8338684 224.7
5.6497378 -5.5908818 -1.6894904 224.7
6.1594582 -6.0952921 -1.6326711 224.7
36.553009 -36.172218 9.6890087 224.7
6.870255 -6.8391495 -1.592672 224.87
6.853898 -6.8228664 -1.3591645 224.87
6.9208679 -6.889533 -1.1419936 224.87
7.1284261 -7.0961514 -0.93839431 224.87
14.032198 -13.968666 -1.3845265 224.87
3.2074089 -3.1928871 -2.0149734 224.87
14.008716 -13.945291 -0.92179286 224.87
3.3966396 -3.3812609 -2.0018868 224.87
14.2313 -14.166867 -0.466212 224.87
3.6005311 -3.5842295 -1.9838326 224.87
14.26065 -14.196083 0 224.87
3.8186657 -3.8013766 -1.9611435 224.87
14.064091 -14.000414 0.46073428 224.87
4.0795217 -4.0610509 -1.9450308 224.87
13.976151 -13.912872 0.91965002 224.87
4.3514891 -4.3317871 -1.9159304 224.87
13.95443 -13.89125 1.3768532 224.87
4.6843104 -4.6631017 -1.8952825 224.87
36.580639 -36.415016 4.8155179 224.87
5.0570278 -5.034132 -1.8679827 224.87
36.59782 -36.432117 6.0389071 224.87
5.4934769 -5.4686046 -1.8366351 224.87
5.6414433 -5.615901 -1.6919854 224.87
6.153882 -6.12602 -1.636004 224.87
36.523529 -36.358166 9.7097464 224.87
6.8375812 -6.8495255 -1.590078 225.05
6.8618135 -6.8738003 -1.3650098 225.05
6.8332291 -6.8451657 -1.1310755 225.05
6.9696312 -6.9818063 -0.92037332 225.05
14.015026 -14.039508 -1.3871772 225.05
3.198653 -3.2042406 -2.0157869 225.05
13.995889 -14.020337 -0.92384249 225.05
3.3873041 -3.3932211 -2.0026577 225.05
14.113269 -14.137922 -0.46379811 225.05
3.5905693 -3.5968416 -1.98456 225.05
14.025229 -14.049728 0 225.05
3.8133435 -3.8200049 -1.9645637 225.05
14.024275 -14.048774 0.46087354 225.05
4.0640659 -4.0711651 -1.9437504 225.05
13.94931 -13.973678 0.92076802 225.05
4.3405561 -4.3481388 -1.9171219 225.05
13.937501 -13.961848 1.379504 225.05
4.6696377 -4.6777949 -1.8952825 225.05
36.330997 -36.394463 4.7976828 225.05
5.0439219 -5.0527329 -1.8689957 225.05
36.327404 -36.390862 6.0131216 225.05
5.4817696 -5.4913454 -1.8384795 225.05
5.6237726 -5.6335964 -1.6919854 225.05
6.1457148 -6.1564503 -1.6389663 225.05
36.536873 -36.600697 9.7438145 225.05
6.8353 -6.8879938 -1.5942931 225.22
6.8692894 -6.9222455 -1.3705767 225.22
6.8422728 -6.8950205 -1.1359538 225.22
6.825449 -6.878067 -0.9040243 225.22
14.00282 -14.110769 -1.390107 225.22
3.1891317 -3.2137172 -2.0157869 225.22
13.980966 -14.088746 -0.92561269 225.22
3.3746214 -3.4006367 -2.001116 225.22
14.055766 -14.164124 -0.46328744 225.22
3.5811937 -3.6088016 -1.9852875 225.22
14.006021 -14.113995 0 225.22
3.8046401 -3.8339705 -1.9659318 225.22
13.989572 -14.097419 0.46110564 225.22
4.0586419 -4.0899305 -1.9469515 225.22
13.937341 -14.044785 0.92272455 225.22
4.3330154 -4.3664188 -1.9195049 225.22
13.919905 -14.027215 1.3818758 225.22
4.6611547 -4.6970878 -1.8974875 225.22
36.082584 -36.360748 4.7791042 225.22
5.0329962 -5.0717959 -1.8705152 225.22
36.07515 -36.353256 5.9891944 225.22
5.4627104 -5.5048232 -1.8375573 225.22
5.6111665 -5.6544237 -1.6932328 225.22
6.1274214 -6.1746583 -1.6389663 225.22
36.491798 -36.773117 9.760848 225.22
6.7898855 -6.8829546 -1.5884569 225.39
6.8887472 -6.9831719 -1.1471043 225.39
6.8427706 -6.9365649 -0.90904045 225.39
13.993117 -14.184922 -1.3933158 225.39
3.1808655 -3.2244661 -2.0166004 225.39
13.97558 -14.167145 -0.92803502 225.39
3.3697009 -3.4158895 -2.0041993 225.39
14.06142 -14.254162 -0.4648658 225.39
3.5730872 -3.6220639 -1.9867425 225.39
14.007624 -14.199627 0 225.39
3.7932477 -3.8452423 -1.9659318 225.39
13.964533 -14.155946 0.46166271 225.39
4.0451584 -4.1006055 -1.9463112 225.39
13.922265 -14.113099 0.92449468 225.39
4.3200407 -4.3792562 -1.9195049 225.39
13.917456 -14.108224 1.3857821 225.39
4.651248 -4.715003 -1.8991414 225.39
35.826302 -36.317375 4.7594113 225.39
5.0138497 -5.0825748 -1.8689957 225.39
35.837391 -36.328617 5.9675908 225.39
5.4504533 -5.5251632 -1.8389406 225.39
5.5984864 -5.6752257 -1.6944803 225.39
6.111834 -6.1956096 -1.639707 225.39
36.429459 -36.928799 9.7734385 225.39
6.7457614 -6.8765297 -1.5826205 225.55
6.7460899 -6.8768649 -1.3538759 225.55
6.8678288 -7.0009637 -1.146872 225.55
6.7536473 -6.8845692 -0.89975131 225.55
13.98838 -14.259549 -1.3968036 225.55
3.1705694 -3.2320318 -2.0157869 225.55
13.968142 -14.238918 -0.93017787 225.55
3.3601487 -3.4252863 -2.0041993 225.55
13.971154 -14.241989 -0.46319461 225.55
3.5629585 -3.6320276 -1.9867425 225.55
13.988925 -14.260104 0 225.55
3.781179 -3.8544784 -1.9652478 225.55
13.964153 -14.234852 0.46296251 225.55
4.0429797 -4.1213541 -1.9507929 225.55
13.921973 -14.191854 0.92710334 225.55
4.3118057 -4.3953915 -1.9212921 225.55
13.894771 -14.164124 1.3874563 225.55
4.638063 -4.7279735 -1.8991414 225.55
35.593662 -36.283653 4.7419477 225.55
5.0050564 -5.1020808 -1.8710217 225.55
35.578606 -36.268311 5.9413404 225.55
5.4418173 -5.5473084 -1.8412462 225.55
5.5880966 -5.6964235 -1.6961436 225.55
6.1013908 -6.2196679 -1.6415585 225.55
36.423912 -37.130001 9.7997303 225.55
6.7587323 -6.9356103 -1.5910507 225.74001
6.7840672 -6.9616084 -1.3661232 225.74001
6.7974377 -6.9753289 -1.1389737 225.74001
6.9781637 -7.1607847 -0.9328208 225.74001
13.973042 -14.338722 -1.4000124 225.74001
3.1611092 -3.2438366 -2.0166004 225.74001
13.95431 -14.3195 -0.93241388 225.74001
3.3500595 -3.4377317 -2.0049701 225.74001
14.03409 -14.401366 -0.46686193 225.74001
3.5495946 -3.6424885 -1.986015 225.74001
13.956914 -14.32217 0 225.74001
3.7696879 -3.8683419 -1.9659318 225.74001
13.94199 -14.306856 0.46379811 225.74001
4.0240011 -4.1293106 -1.9482319 225.74001
13.895749 -14.259406 0.92850089 225.74001
4.2945414 -4.4069309 -1.9201006 225.74001
13.883927 -14.247274 1.3910836 225.74001
4.6237011 -4.7447047 -1.8996927 225.74001
35.324436 -36.248886 4.7220688 225.74001
4.98946 -5.1200361 -1.8715283 225.74001
35.333366 -36.258053 5.9204335 225.74001
5.4233918 -5.5653238 -1.8412462 225.74001
5.5719066 -5.7177248 -1.6969752 225.74001
6.0862188 -6.2454972 -1.6430397 225.74001
36.381516 -37.333633 9.821578 225.74001
6.7681799 -6.9842196 -1.5978597 225.89999
6.7852745 -7.0018601 -1.3702984 225.89999
6.81111 -7.0285206 -1.144549 225.89999
6.8057013 -7.0229387 -0.91238457 225.89999
13.962104 -14.407774 -1.4029422 225.89999
3.158396 -3.2592118 -2.0206676 225.89999
13.940685 -14.385671 -0.93418401 225.89999
3.3417308 -3.4483988 -2.0057411 225.89999
14.107918 -14.558242 -0.47066849 225.89999
3.5471878 -3.660414 -1.9903799 225.89999
13.965578 -14.411359 0 225.89999
3.7641025 -3.8842523 -1.968668 225.89999
13.928421 -14.373015 0.46468011 225.89999
4.0164099 -4.1446133 -1.9501526 225.89999
13.894804 -14.338326 0.93110955 225.89999
4.2875328 -4.4243908 -1.9224836 225.89999
13.887129 -14.330405 1.3954085 225.89999
4.6157846 -4.7631202 -1.9018978 225.89999
35.099735 -36.220116 4.705534 225.89999
4.9791822 -5.1381173 -1.8730477 225.89999
35.084061 -36.203941 5.895577 225.89999
5.4118924 -5.5846395 -1.8426297 225.89999
5.5559177 -5.7332625 -1.6969752 225.89999
6.0742254 -6.2681146 -1.6445209 225.89999
36.352345 -37.512711 9.8419447 225.89999
6.7585254 -7.0182419 -1.600778 226.08
6.8470464 -7.1101646 -1.3872775 226.08
6.8027749 -7.0641923 -1.146872 226.08
6.73664 -6.9955158 -0.90606791 226.08
13.947218 -14.483182 -1.4060115 226.08
3.146874 -3.267802 -2.0198541 226.08
13.928681 -14.463933 -0.93642002 226.08
3.3283207 -3.4562213 -2.0041993 226.08
14.18971 -14.734992 -0.47493929 226.08
3.5317941 -3.6675138 -1.9881974 226.08
14.088099 -14.629477 0 226.08
3.7531848 -3.8974121 -1.969352 226.08
13.923419 -14.458468 0.46602634 226.08
4.0007405 -4.1544814 -1.9488722 226.08
13.876021 -14.409249 0.93287969 226.08
4.2762609 -4.440589 -1.9236751 226.08
13.864182 -14.396955 1.3976407 226.08
4.6007981 -4.7775979 -1.9018978 226.08
34.872505 -36.212585 4.6902995 226.08
4.967042 -5.1579156 -1.8745673 226.08
34.84338 -36.182343 5.8742056 226.08
5.392971 -5.6002121 -1.8421685 226.08
5.5419497 -5.7549157 -1.6982226 226.08
6.0681367 -6.3013234 -1.648224 226.08
36.306572 -37.701763 9.8615713 226.08
6.758275 -7.0622535 -1.6059659 226.25999
6.8191981 -7.1259165 -1.3861641 226.25999
6.7118778 -7.0137696 -1.1352569 226.25999
6.7366586 -7.0396643 -0.90904045 226.25999
13.940272 -14.567287 -1.4099178 226.25999
3.1403821 -3.2816322 -2.0222945 226.25999
13.917705 -14.543705 -0.93874919 226.25999
3.321274 -3.4706607 -2.0065119 226.25999
14.128142 -14.763608 -0.47442862 226.25999
3.5241189 -3.6826291 -1.9903799 226.25999
14.055897 -14.688113 0 226.25999
3.7422216 -3.9105418 -1.970036 226.25999
13.912488 -14.538253 0.46718687 226.25999
3.9902894 -4.1697674 -1.9501526 226.25999
13.865216 -14.488855 0.93520886 226.25999
4.2609692 -4.4526219 -1.9230794 226.25999
13.865785 -14.48945 1.4023842 226.25999
4.5884247 -4.794806 -1.9030004 226.25999
34.622265 -36.179531 4.6719069 226.25999
4.9494758 -5.1720967 -1.8740608 226.25999
34.585331 -36.140934 5.8498139 226.25999
5.3766966 -5.6185331 -1.8426297 226.25999
5.5251956 -5.7737112 -1.6986386 226.25999
38.287342 -40.009457 9.0982037 226.25999
6.0551052 -6.327456 -1.6500754 226.25999
36.291225 -37.923553 9.8897142 226.25999
6.750772 -7.0939655 -1.608884 226.42
6.7733312 -7.117672 -1.3808755 226.42
6.8059258 -7.1519237 -1.1545379 226.42
7.462389 -7.8417597 -1.0099211 226.42
13.925671 -14.63362 -1.4125686 226.42
3.1299462 -3.2890654 -2.021481 226.42
13.904582 -14.611459 -0.94061255 226.42
3.310297 -3.4785848 -2.0057411 226.42
13.971077 -14.681334 -0.47052923 226.42
3.5138214 -3.692456 -1.9903799 226.42
13.958298 -14.667905 0 226.42
3.7338779 -3.9236996 -1.9714041 226.42
13.898024 -14.604568 0.46806887 226.42
3.9825482 -4.1850119 -1.9520735 226.42
13.871528 -14.576725 0.93837655 226.42
4.2458863 -4.4617376 -1.9218879 226.42
13.855527 -14.55991 1.4054534 226.42
4.5776677 -4.8103862 -1.9041028 226.42
34.38245 -36.130375 4.6531429 226.42
4.9443498 -5.1957092 -1.8776063 226.42
34.377457 -36.12513 5.8316941 226.42
5.3663521 -5.6391649 -1.8444741 226.42
5.5144448 -5.7947869 -1.7003018 226.42
38.296551 -40.243458 9.1270609 226.42
6.0455413 -6.3528829 -1.6522973 226.42
36.236668 -38.078854 9.9037857 226.42
6.7284522 -7.1151385 -1.608884 226.60001
6.7427721 -7.1302814 -1.3792055 226.60001
6.7984376 -7.1891465 -1.1570933 226.60001
6.8397985 -7.2328844 -0.92873359 226.60001
7.5354395 -7.9685035 -0.76690269 226.60001
3.1208532 -3.3002098 -2.0222945 226.60001
13.892927 -14.691359 -0.94294173 226.60001
3.3031564 -3.49299 -2.0080535 226.60001
14.027921 -14.83411 -0.47401085 226.60001
3.507324 -3.7088912 -1.9932898 226.60001
13.97536 -14.778529 0 226.60001
3.71895 -3.9326794 -1.970036 226.60001
13.878176 -14.67576 0.4689509 226.60001
3.9771922 -4.2057629 -1.9559149 226.60001
13.861355 -14.657972 0.94079888 226.60001
4.2410312 -4.4847646 -1.9260581 226.60001
13.845359 -14.641056 1.4090807 226.60001
4.5638537 -4.8261404 -1.9046541 226.60001
34.130581 -36.092079 4.6343784 226.60001
4.9280028 -5.2112169 -1.8776063 226.60001
34.119122 -36.07996 5.8070703 226.60001
5.3499465 -5.6574101 -1.8449352 226.60001
5.4975572 -5.8135037 -1.7007177 226.60001
38.278412 -40.478287 9.1529999 226.60001
6.0336556 -6.3804121 -1.6545191 226.60001
36.161423 -38.239632 9.9160051 226.60001
6.7221808 -7.1508884 -1.6124506 226.77
6.763639 -7.1949906 -1.3878342 226.77
6.7743559 -7.2063913 -1.1566286 226.77
6.7814817 -7.2139716 -0.92371738 226.77
7.5213289 -8.0010023 -0.76787925 226.77
3.112299 -3.3107862 -2.023108 226.77
13.880748 -14.765994 -0.94508457 226.77
3.295306 -3.5054646 -2.0095952 226.77
14.005757 -14.898976 -0.47475359 226.77
3.495028 -3.7179239 -1.9925623 226.77
13.984874 -14.876761 0 226.77
3.7162759 -3.9532819 -1.9748243 226.77
13.905785 -14.792627 0.47136483 226.77
3.9621003 -4.2147837 -1.9546343 226.77
13.846539 -14.729604 0.9427554 226.77
4.226398 -4.4959369 -1.9254624 226.77
13.818255 -14.699516 1.4107549 226.77
4.5521479 -4.8424616 -1.9057567 226.77
33.919685 -36.082916 4.6202593 226.77
4.9138441 -5.2272253 -1.8781128 226.77
33.896271 -36.05801 5.7873249 226.77
5.3344703 -5.6746769 -1.8453963 226.77
5.4856439 -5.8354912 -1.7023809 226.77
6.0214291 -6.4054465 -1.6563706 226.77
36.127228 -38.431248 9.9378538 226.77
6.7130613 -7.1837797 -1.6153688 226.94
6.8463836 -7.3264503 -1.4092668 226.94
6.6851301 -7.1538901 -1.1450136 226.94
6.6730318 -7.1409435 -0.91182721 226.94
6.7442589 -7.217165 -0.6907286 226.94
3.1037095 -3.3213408 -2.0239215 226.94
13.870976 -14.843607 -0.94741374 226.94
3.2836306 -3.5138781 -2.0088243 226.94
13.994253 -14.975528 -0.47586772 226.94
3.4801655 -3.7241938 -1.9903799 226.94
13.963886 -14.943031 0 226.94
3.7019637 -3.9615445 -1.9734563 226.94
13.912344 -14.887875 0.47308242 226.94
3.9586332 -4.2362118 -1.959116 226.94
13.823236 -14.792518 0.94415289 226.94
4.2182541 -4.5140371 -1.9278454 226.94
13.815446 -14.784183 1.4149404 226.94
4.541698 -4.8601608 -1.9074105 226.94
33.680592 -36.042267 4.6022382 226.94
4.8956714 -5.2389545 -1.8770998 226.94
33.638588 -35.997318 5.7615395 226.94
5.3202672 -5.6933231 -1.8463186 226.94
5.4723125 -5.8560295 -1.7036284 226.94
6.0117908 -6.4333363 -1.6589627 226.94
36.094898 -38.625866 9.9604425 226.94
6.711782 -7.2227378 -1.6199082 227.10001
6.8312902 -7.3513441 -1.4103802 227.10001
6.8720174 -7.3951716 -1.1805557 227.10001
7.1790199 -7.7255454 -0.9839114 227.10001
13.885473 -14.942549 -1.4263804 227.10001
3.0919349 -3.3273182 -2.0222945 227.10001
13.86211 -14.917408 -0.94964975 227.10001
3.2750614 -3.5243859 -2.0095952 227.10001
13.991851 -15.057024 -0.47721392 227.10001
3.4760928 -3.7407215 -1.9940172 227.10001
13.962947 -15.02592 0 227.10001
3.6947246 -3.9759972 -1.9755083 227.10001
13.887048 -14.944243 0.47363946 227.10001
3.9429185 -4.2430859 -1.9571953 227.10001
13.830832 -14.883747 0.9475069 227.10001
4.2017331 -4.5216031 -1.9260581 227.10001
13.806703 -14.857781 1.4182886 227.10001
4.529417 -4.8742332 -1.9079617 227.10001
33.44968 -35.99614 4.5844026 227.10001
4.8876076 -5.2596922 -1.8796322 227.10001
33.450039 -35.996529 5.7464395 227.10001
5.3069973 -5.711009 -1.8472408 227.10001
5.4599328 -5.8755875 -1.7048758 227.10001
5.9991536 -6.4558582 -1.660444 227.10001
36.059143 -38.804256 9.9804382 227.10001
6.7078733 -7.2667074 -1.6247718 227.28999
6.7155252 -7.2749972 -1.3914527 227.28999
6.8973098 -7.4719262 -1.1891508 227.28999
6.8264899 -7.395206 -0.93895167 227.28999
13.868324 -15.023697 -1.4297286 227.28999
3.0821235 -3.3388958 -2.023108 227.28999
13.845089 -14.998526 -0.95188576 227.28999
3.2633562 -3.5352271 -2.0095952 227.28999
13.852333 -15.006373 -0.47415012 227.28999
3.4636691 -3.752228 -1.9940172 227.28999
13.851996 -15.006008 0 227.28999
3.6789699 -3.9854655 -1.9741403 227.28999
13.834702 -14.987274 0.47354662 227.28999
3.9313967 -4.2589221 -1.9584757 227.28999
13.820697 -14.972102 0.95020872 227.28999
4.1906009 -4.5397205 -1.9278454 227.28999
13.797955 -14.947464 1.422474 227.28999
4.5132284 -4.8892264 -1.9079617 227.28999
33.212616 -35.979565 4.5682397 227.28999
4.8740759 -5.2801361 -1.8811518 227.28999
33.207874 -35.974426 5.7253003 227.28999
5.2919898 -5.7328663 -1.8486241 227.28999
5.4457264 -5.8994112 -1.7065392 227.28999
5.9843779 -6.4829373 -1.6622955 227.28999
36.048912 -39.052155 10.013395 227.28999
6.702354 -7.3066516 -1.628987 227.47
6.6752329 -7.2770848 -1.3878342 227.47
6.9046865 -7.5272269 -1.1944938 227.47
7.3968563 -8.0637712 -1.0208824 227.47
13.869609 -15.120121 -1.4347512 227.47
3.0740891 -3.3512549 -2.024735 227.47
13.837066 -15.084642 -0.95458758 227.47
3.2522337 -3.5454617 -2.0095952 227.47
14.009211 -15.272308 -0.48115978 227.47
3.4506047 -3.761718 -1.9932898 227.47
13.83588 -15.08335 0 227.47
3.6689718 -3.9997735 -1.9755083 227.47
13.791605 -15.035083 0.47368589 227.47
3.9179976 -4.2712517 -1.9584757 227.47
13.781695 -15.024281 0.95076776 227.47
4.1840615 -4.561305 -1.9314198 227.47
13.750927 -14.990738 1.422474 227.47
4.5017452 -4.9076314 -1.9096156 227.47
32.975578 -35.948719 4.5511475 227.47
4.8600798 -5.298274 -1.8821647 227.47
32.96981 -35.942436 5.7036963 227.47
5.2765841 -5.7523317 -1.8495464 227.47
5.4324555 -5.9222569 -1.7082025 227.47
5.9653101 -6.5031543 -1.6626658 227.47
6.7045341 -7.3501267 -1.6344991 227.63
6.2878389 -6.8933072 -1.311289 227.63
7.3514953 -8.0593853 -1.017724 227.63
14.589691 -15.99456 -1.513855 227.63
3.0671811 -3.3625259 -2.0263619 227.63
3.2435641 -3.5558932 -2.0103662 227.63
14.160543 -15.52409 -0.48784447 227.63
3.4400866 -3.7713392 -1.9932898 227.63
14.148185 -15.510542 0 227.63
3.6590545 -4.0113921 -1.9761924 227.63
14.129551 -15.490113 0.48677677 227.63
3.9137161 -4.2905755 -1.9623171 227.63
32.747711 -35.901051 2.2660973 227.63
4.1700211 -4.5715604 -1.930824 227.63
4.4880228 -4.9201832 -1.9096156 227.63
32.766357 -35.921494 4.536099 227.63
4.8465691 -5.3132544 -1.8826712 227.63
32.771587 -35.927227 5.686738 227.63
5.2736154 -5.7814221 -1.8541576 227.63
5.4224882 -5.9446306 -1.7102816 227.63
5.948451 -6.5212393 -1.6630361 227.63
6.6840606 -7.3740778 -1.6351476 227.81
6.2621617 -6.9086246 -1.3104539 227.81
6.4956908 -7.1662621 -1.1310755 227.81
6.7323451 -7.4273472 -0.93523598 227.81
14.55143 -16.053621 -1.5151106 227.81
3.0578294 -3.3734989 -2.0271754 227.81
18.801584 -20.742533 -1.3055471 227.81
3.2348557 -3.5688002 -2.0119078 227.81
3.4344776 -3.7890296 -1.9969271 227.81
32.519794 -35.876915 0 227.81
3.6476965 -4.02426 -1.9768764 227.81
3.9053075 -4.308465 -1.9648781 227.81
32.509983 -35.866093 2.2574329 227.81
4.1620498 -4.5917115 -1.9338028 227.81
32.512932 -35.869347 3.3852816 227.81
4.4751258 -4.9371076 -1.9107182 227.81
32.532982 -35.891468 4.5193782 227.81
4.8324518 -5.3313212 -1.8836843 227.81
32.511806 -35.868107 5.6611853 227.81
5.2593474 -5.8022871 -1.855541 227.81
5.4077277 -5.9659848 -1.711529 227.81
5.9503741 -6.5646505 -1.6693313 227.81
6.6872773 -7.4243679 -1.6416323 227.99001
6.2695875 -6.960639 -1.3165776 227.99001
6.3149395 -7.0109897 -1.1034316 227.99001
14.520953 -16.121492 -1.5172033 227.99001
3.0459933 -3.3817313 -2.0263619 227.99001
18.744349 -20.810404 -1.3061061 227.99001
3.223628 -3.5789452 -2.0119078 227.99001
3.4238038 -3.8011849 -1.9976547 227.99001
32.297165 -35.857048 0 227.99001
3.6375515 -4.0384927 -1.9782445 227.99001
32.277756 -35.835503 1.1197351 227.99001
3.8854125 -4.3136735 -1.961677 227.99001
32.268787 -35.825542 2.2484889 227.99001
4.1463261 -4.6033454 -1.933207 227.99001
32.293262 -35.852718 3.3741207 227.99001
4.4621668 -4.953999 -1.9118207 227.99001
32.29612 -35.855888 4.5021005 227.99001
4.8208585 -5.3522272 -1.8857102 227.99001
32.305901 -35.866749 5.6449242 227.99001
5.2384882 -5.8158889 -1.8546187 227.99001
5.3941956 -5.9887586 -1.7131923 227.99001
5.9455061 -6.6008363 -1.673775 227.99001
6.250536 -6.981029 -1.5394964 228.16
6.2515497 -6.9821615 -1.3171343 228.16
14.501003 -16.195721 -1.520133 228.16
3.0432587 -3.3989213 -2.0312428 228.16
18.698513 -20.883789 -1.3072242 228.16
3.214226 -3.589869 -2.0126786 228.16
3.4187241 -3.8182666 -2.001292 228.16
32.089241 -35.839474 0 228.16
3.6230459 -4.0464673 -1.9768764 228.16
32.056587 -35.803005 1.1157429 228.16
3.8725965 -4.3251824 -1.961677 228.16
32.057068 -35.803543 2.2411287 228.16
4.1364698 -4.619895 -1.9349943 228.16
32.068298 -35.816086 3.3617039 228.16
4.4500132 -4.9700813 -1.9129232 228.16
32.068714 -35.816551 4.4851942 228.16
4.8062477 -5.3679485 -1.8862168 228.16
32.064182 -35.811489 5.6212292 228.16
5.2199111 -5.8299565 -1.8541576 228.16
5.3829274 -6.0120244 -1.7152715 228.16
5.9363828 -6.6301618 -1.6767374 228.16
6.2122726 -6.9774041 -1.3129591 228.32001
7.4790192 -8.4001694 -1.0493073 228.32001
14.462354 -16.243603 -1.5208306 228.32001
3.0337553 -3.4074063 -2.0312428 228.32001
18.641451 -20.937414 -1.3073173 228.32001
3.2078702 -3.6029658 -2.0149913 228.32001
3.3993762 -3.8180587 -1.9961997 228.32001
31.875986 -35.801975 0 228.32001
3.6179805 -4.0635872 -1.9802966 228.32001
31.846127 -35.768436 1.1118898 228.32001
3.8718426 -4.3487163 -1.9674391 228.32001
31.850681 -35.773556 2.2336752 228.32001
4.126092 -4.6342797 -1.9361858 228.32001
31.863346 -35.787781 3.3506825 228.32001
4.4373951 -4.9839244 -1.9134746 228.32001
31.866608 -35.791443 4.4708886 228.32001
4.7950988 -5.3856845 -1.8877363 228.32001
31.864983 -35.789619 5.6038065 228.32001
5.2126694 -5.8546848 -1.8573854 228.32001
5.3739228 -6.0357995 -1.7177664 228.32001
5.9217658 -6.6511173 -1.6778483 228.32001
6.2259998 -7.0372128 -1.5437115 228.5
6.1942587 -7.0013361 -1.313794 228.5
7.4882193 -8.463892 -1.0543234 228.5
14.42976 -16.309875 -1.5227839 228.5
3.0206144 -3.4141834 -2.0296159 228.5
18.616619 -21.042261 -1.3102055 228.5
3.1965353 -3.6130259 -2.0149913 228.5
3.3960059 -3.8384864 -2.001292 228.5
31.649384 -35.773121 0 228.5
3.6076872 -4.0777488 -1.9816647 228.5
31.634233 -35.755997 1.1084083 228.5
3.8606727 -4.3636966 -1.9687195 228.5
31.617674 -35.737278 2.2251971 228.5
4.107717 -4.6429296 -1.9343987 228.5
31.62649 -35.747246 3.3375683 228.5
4.4242635 -5.00072 -1.9145771 228.5
31.633934 -35.755657 4.4539824 228.5
4.7768731 -5.3992729 -1.8872298 228.5
31.632608 -35.754162 5.5826674 228.5
5.1942506 -5.8710322 -1.8573854 228.5
5.3614159 -6.059978 -1.7198455 228.5
5.9034462 -6.6726322 -1.6785889 228.5
6.2233391 -7.0764022 -1.5482509 228.67
6.1695342 -7.0152221 -1.3129591 228.67
7.4564981 -8.4785967 -1.0533946 228.67
14.308837 -16.270218 -1.5151106 228.67
3.0116775 -3.4245028 -2.0304294 228.67
18.539591 -21.080902 -1.3091806 228.67
3.1882386 -3.6252658 -2.0165329 228.67
3.3809111 -3.8443487 -1.9991096 228.67
31.442724 -35.752731 0 228.67
3.5980546 -4.0912576 -1.9830328 228.67
31.399921 -35.70406 1.1039054 228.67
3.8439546 -4.3708639 -1.9667988 228.67
31.404631 -35.709415 2.2176507 228.67
4.0964451 -4.6579647 -1.9355901 228.67
31.405659 -35.710583 3.3254306 228.67
4.4106765 -5.0152688 -1.9151284 228.67
31.43302 -35.741695 4.4406061 228.67
4.7633877 -5.4163284 -1.8882428 228.67
31.407007 -35.712116 5.5615277 228.67
5.1793785 -5.8893404 -1.8583076 228.67
5.3511634 -6.0846734 -1.7223405 228.67
5.8771324 -6.6827393 -1.6767374 228.67
6.1685438 -7.0562043 -1.5398207 228.84
6.1278362 -7.0096393 -1.3085055 228.84
6.6168456 -7.5690174 -1.1756774 228.84
14.323529 -16.384703 -1.5218072 228.84
3.0063138 -3.4389257 -2.0336833 228.84
18.509834 -21.17342 -1.3115098 228.84
3.178683 -3.6360991 -2.0173037 228.84
3.371942 -3.8571684 -2.0005646 228.84
31.221985 -35.714863 0 228.84
3.5846629 -4.1005001 -1.9823488 228.84
31.201729 -35.691696 1.1006559 228.84
3.828475 -4.3793969 -1.9655184 228.84
31.19072 -35.6791 2.210011 228.84
4.0851197 -4.6729732 -1.9367816 228.84
31.202394 -35.692455 3.3151066 228.84
4.3983068 -5.0312285 -1.9162309 228.84
31.223293 -35.716362 4.4259291 228.84
4.7523899 -5.4362645 -1.8902688 228.84
31.198931 -35.688492 5.5434084 228.84
5.1670051 -5.910543 -1.8601521 228.84
