# .PCD v0.7 - Point Cloud Data file format
VERSION 0.7
FIELDS x y z intensity
SIZE 4 4 4 4
TYPE F F F F
COUNT 1 1 1 1
WIDTH 1199
HEIGHT 1
VIEWPOINT 0 0 0 1 0 0 0
POINTS 1199
DATA ascii
0.31369349 57.977867 9.5255527 90.309998
0.056370262 10.418537 -1.9629825 90.309998
0.33700931 62.28717 11.735681 90.309998
0.099183343 11.838862 -1.9451219 90.480003
0.11463349 13.683044 -1.9230939 90.480003
0.13524596 16.143419 -1.8879135 90.480003
0.15958498 19.048609 -1.7772084 90.480003
0.21362355 25.498837 -1.783115 90.480003
0.03832728 4.5748749 -2.036937 90.480003
0.2616795 31.234957 -1.4566637 90.480003
0.040753815 4.8645148 -2.0319498 90.480003
0.33145791 39.56395 -0.91859043 90.480003
0.043435019 5.1845522 -2.0245714 90.480003
0.33295467 39.742607 0 90.480003
0.04646207 5.5458713 -2.0186028 90.480003
0.48837614 58.294243 1.3534678 90.480003
0.049984977 5.9663773 -2.0160968 90.480003
0.48762596 58.2047 2.7144163 90.480003
0.053805068 6.4223566 -2.0041013 90.480003
0.48763534 58.205818 4.0702901 90.480003
0.05857718 6.991972 -2.004986 90.480003
0.48796371 58.245014 5.4341784 90.480003
0.06387873 7.624783 -1.996128 90.480003
0.48756444 58.197357 6.8059664 90.480003
0.070463978 8.410821 -1.9929543 90.480003
0.48705542 58.136597 8.1708527 90.480003
0.077928878 9.301857 -1.9772402 90.480003
0.48589754 57.99839 9.5291195 90.480003
0.087216534 10.410463 -1.9615012 90.480003
0.52219599 62.3311 11.744198 90.480003
0.13635294 11.836519 -1.9447978 90.660004
0.15759659 13.680636 -1.9228156 90.660004
0.18600702 16.146889 -1.888378 90.660004
0.21945 19.050005 -1.7773943 90.660004
0.29363739 25.490061 -1.7825569 90.660004
0.052678417 4.5729051 -2.0361238 90.660004
0.33937016 29.460028 -1.3739316 90.660004
0.055993397 4.860672 -2.0304081 90.660004
0.45588809 39.574711 -0.91886896 90.660004
0.059786908 5.1899786 -2.0267537 90.660004
0.45734712 39.701366 0 90.660004
0.063906327 5.5475774 -2.0192869 90.660004
0.67167145 58.306419 1.3537928 90.660004
0.068728626 5.9661908 -2.0160968 90.660004
0.67086995 58.236843 2.7160001 90.660004
0.073849246 6.4107018 -2.0005269 90.660004
0.67065251 58.217964 4.0712667 90.660004
0.080498494 6.9879088 -2.0038836 90.660004
0.67121834 58.267086 5.4364076 90.660004
0.087810047 7.6226101 -1.9956214 90.660004
0.67034835 58.191566 6.8055019 90.660004
0.096909374 8.4125042 -1.9934154 90.660004
0.66980827 58.144684 8.1722441 90.660004
0.10715109 9.3015661 -1.9772402 90.660004
0.6681931 58.004471 9.5304165 90.660004
0.11989884 10.408173 -1.961131 90.660004
0.71764982 62.297707 11.738273 90.660004
0.16943441 11.838065 -1.9451219 90.82
0.19585615 13.684103 -1.9233723 90.82
0.23118214 16.152264 -1.8890749 90.82
0.27270374 19.053299 -1.7777659 90.82
0.36484641 25.491137 -1.7826965 90.82
0.065422006 4.5709133 -2.0353103 90.82
0.44751182 31.266813 -1.4582475 90.82
0.069540307 4.8586512 -2.0296373 90.82
0.56659991 39.587276 -0.91919386 90.82
0.074199826 5.1842031 -2.0245714 90.82
0.56861305 39.727932 0 90.82
0.079344027 5.5436187 -2.0179188 90.82
0.83480561 58.326305 1.3543035 90.82
0.085443318 5.9697647 -2.0173774 90.82
0.83372378 58.250721 2.7167454 90.82
0.091669023 6.4047432 -1.9987395 90.82
0.83365315 58.245789 4.0733595 90.82
0.10009462 6.9934239 -2.0055375 90.82
0.83415592 58.280914 5.4378939 90.82
0.10901295 7.6165314 -1.9941019 90.82
0.83318818 58.213303 6.8082895 90.82
0.12048466 8.4180384 -1.9947988 90.82
0.83265787 58.17625 8.1769762 90.82
0.13318151 9.3051434 -1.9780718 90.82
0.83039522 58.018166 9.5330105 90.82
0.14907596 10.415658 -1.9626122 90.82
0.89234614 62.346558 11.7479 90.82
0.20665833 11.839448 -1.9454461 91
0.23898324 13.691341 -1.9244857 91
0.28175142 16.141527 -1.8879135 91
0.33249047 19.048367 -1.7773943 91
0.44496205 25.491859 -1.782836 91
0.079813495 4.5725121 -2.0361238 91
0.54566729 31.261259 -1.4580612 91
0.084803842 4.8584089 -2.0296373 91
0.69096398 39.5853 -0.91919386 91
0.090616144 5.1913953 -2.0274813 91
0.69289541 39.695953 0 91
0.096529797 5.5301886 -2.0131307 91
1.0184225 58.345387 1.3548141 91
0.10416436 5.9675727 -2.016737 91
1.0168937 58.257801 2.7172112 91
0.11175631 6.4025149 -1.9981438 91
1.0168074 58.252857 4.0740571 91
0.12199747 6.9892306 -2.0044348 91
1.0174202 58.287964 5.4388227 91
0.13300794 7.6200204 -1.9951149 91
1.0162396 58.220325 6.8094506 91
0.14679421 8.4098349 -1.9929543 91
1.01618 58.216915 8.1830997 91
0.16234548 9.3007669 -1.9772402 91
1.013108 58.04092 9.5372257 91
0.1817283 10.411208 -1.9618716 91
1.0885519 62.363094 11.751603 91
0.24178572 11.838783 -1.9454461 91.169998
0.2795243 13.686612 -1.923929 91.169998
0.32980523 16.148565 -1.8888427 91.169998
0.3888846 19.041323 -1.776837 91.169998
0.51986253 25.454521 -1.7803247 91.169998
0.093342729 4.5704284 -2.0353103 91.169998
0.63878596 31.277479 -1.4588997 91.169998
0.099256322 4.8599811 -2.0304081 91.169998
0.80873936 39.599068 -0.91956526 91.169998
0.10571457 5.1762028 -2.0216615 91.169998
0.80969238 39.645733 0 91.169998
0.11305287 5.5355144 -2.0151827 91.169998
1.1916953 58.350105 1.3549998 91.169998
0.12171527 5.9596596 -2.0141761 91.169998
1.1900289 58.268513 2.7178636 91.169998
0.13110329 6.4193344 -2.0035055 91.169998
1.1899683 58.265541 4.0751734 91.169998
0.14269511 6.9869156 -2.0038836 91.169998
1.1906846 58.300613 5.440309 91.169998
0.15557688 7.6176577 -1.9946084 91.169998
1.1891809 58.226986 6.8106122 91.169998
0.17170627 8.4074163 -1.9924932 91.169998
1.1894745 58.241364 8.1869965 91.169998
0.19002056 9.3041563 -1.9780718 91.169998
1.1853545 58.039635 9.53755 91.169998
0.21261814 10.410623 -1.9618716 91.169998
1.2740635 62.383171 11.756047 91.169998
0.27888411 11.834019 -1.9447978 91.349998
0.3223806 13.679726 -1.9230939 91.349998
0.38058254 16.149435 -1.8890749 91.349998
0.44940639 19.06987 -1.7796237 91.349998
0.59996861 25.458746 -1.7807432 91.349998
0.10748544 4.5609798 -2.0312428 91.349998
0.73685545 31.267328 -1.4585271 91.349998
0.11408909 4.8411956 -2.0226996 91.349998
0.93365747 39.61832 -0.92007589 91.349998
0.12193166 5.1739826 -2.0209339 91.349998
0.93664199 39.744965 0 91.349998
0.13048689 5.5370111 -2.0158668 91.349998
1.3756138 58.372059 1.3556032 91.349998
0.14034818 5.9554596 -2.0128956 91.349998
1.3735493 58.284458 2.7187951 91.349998
0.15113461 6.4131646 -2.0017183 91.349998
1.3732437 58.271488 4.075871 91.349998
0.164735 6.9902768 -2.004986 91.349998
1.3743044 58.316494 5.4421668 91.349998
0.17950764 7.6171312 -1.9946084 91.349998
1.3727086 58.248779 6.8136325 91.349998
0.19811806 8.4068356 -1.9924932 91.349998
1.3732322 58.271 8.1917286 91.349998
0.21915726 9.2996016 -1.9772402 91.349998
1.3688011 58.082973 9.545332 91.349998
0.2454619 10.415798 -1.9629825 91.349998
1.470132 62.38279 11.756787 91.349998
0.31415212 11.839058 -1.9457704 91.519997
0.3629677 13.678709 -1.9230939 91.519997
0.42891866 16.164122 -1.8909334 91.519997
0.5055632 19.052526 -1.7781374 91.519997
0.67555642 25.458849 -1.7808827 91.519997
0.12092072 4.5569878 -2.0296159 91.519997
0.8294121 31.257017 -1.4581544 91.519997
0.12879536 4.8537493 -2.0280955 91.519997
1.0514153 39.623371 -0.92026156 91.519997
0.1375297 5.1829095 -2.0245714 91.519997
1.0553591 39.771999 0 91.519997
0.14681524 5.5328422 -2.0144987 91.519997
1.5492783 58.385708 1.356021 91.519997
0.15801774 5.9550166 -2.0128956 91.519997
1.5469534 58.2981 2.7196336 91.519997
0.17026344 6.4165053 -2.0029099 91.519997
1.5469792 58.299068 4.0781031 91.519997
0.18537281 6.9859133 -2.0038836 91.519997
1.5476964 58.326096 5.4434676 91.519997
0.20215863 7.6184993 -1.9951149 91.519997
1.5458987 58.25835 6.8152585 91.519997
0.22316398 8.4101019 -1.9934154 91.519997
0.24674873 9.2989101 -1.9772402 91.519997
1.541654 58.098385 9.5485744 91.519997
0.27631292 10.413059 -1.9626122 91.519997
1.6558964 62.403698 11.761601 91.519997
0.34703815 11.832216 -1.9447978 91.68
0.40133858 13.683581 -1.923929 91.68
0.47428861 16.170803 -1.8918626 91.68
0.55923289 19.066965 -1.7796237 91.68
0.74635571 25.446892 -1.7801852 91.68
0.13369931 4.5584588 -2.0304294 91.68
0.91833478 31.310493 -1.4607631 91.68
0.14234906 4.8533707 -2.0280955 91.68
1.1625293 39.636269 -0.92063296 91.68
0.15194795 5.1806431 -2.0238438 91.68
1.1688234 39.850864 0 91.68
0.16243055 5.5380464 -2.0165508 91.68
1.7131948 58.411133 1.3567173 91.68
0.17464665 5.9545522 -2.0128956 91.68
1.7103906 58.315521 2.7206585 91.68
0.18795712 6.408371 -2.0005269 91.68
1.7101256 58.306488 4.0789399 91.68
0.20493679 6.9872904 -2.0044348 91.68
1.7109176 58.333488 5.444582 91.68
0.22360285 7.6237068 -1.9966345 91.68
1.7094541 58.283592 6.8187428 91.68
0.24676262 8.4133358 -1.9943376 91.68
1.7095212 58.285881 8.1950693 91.68
0.27282989 9.3020964 -1.9780718 91.68
1.7041205 58.101746 9.5498714 91.68
0.30527532 10.408318 -1.9618716 91.68
1.8311332 62.432228 11.767897 91.68
0.38595131 11.821138 -1.9431765 91.870003
0.44626036 13.668319 -1.9219805 91.870003
0.52791035 16.16914 -1.8918626 91.870003
0.6225881 19.068987 -1.7799952 91.870003
0.83177823 25.476181 -1.7824174 91.870003
0.14881496 4.5579901 -2.0304294 91.870003
1.0209856 31.271334 -1.4590861 91.870003
0.15802109 4.8399606 -2.0226996 91.870003
1.2942878 39.642189 -0.92086506 91.870003
0.16918753 5.181973 -2.0245714 91.870003
1.2988787 39.782803 0 91.870003
0.18073314 5.5355988 -2.0158668 91.870003
1.90721 58.415123 1.3569494 91.870003
0.19457719 5.9596219 -2.0148163 91.870003
1.9043491 58.327499 2.7214971 91.870003
0.20920701 6.4077125 -2.0005269 91.870003
1.9043789 58.328411 4.080893 91.870003
0.22823182 6.9904151 -2.0055375 91.870003
1.9046738 58.337444 5.4455109 91.870003
0.24888274 7.6229234 -1.9966345 91.870003
1.9038219 58.311352 6.8226919 91.870003
0.27440688 8.4046917 -1.9924932 91.870003
1.9026655 58.275932 8.1945124 91.870003
0.30361143 9.2991848 -1.977656 91.870003
1.8973631 58.113525 9.5527897 91.870003
0.34004539 10.415106 -1.9633528 91.870003
2.0387332 62.443489 11.77123 91.870003
0.41917032 11.825931 -1.9441493 92.029999
0.48498899 13.682854 -1.9242073 92.029999
0.57313132 16.169588 -1.8920949 92.029999
0.6755541 19.059214 -1.7792522 92.029999
0.90214044 25.451826 -1.7808827 92.029999
0.16154268 4.5575571 -2.0304294 92.029999
1.108166 31.264368 -1.4588997 92.029999
0.17173229 4.8450336 -2.0250123 92.029999
1.4056927 39.658401 -0.92132926 92.029999
0.18378964 5.185204 -2.0260262 92.029999
1.4112432 39.814999 0 92.029999
0.19625731 5.5369506 -2.0165508 92.029999
2.0704699 58.413567 1.3570423 92.029999
0.21108457 5.9552679 -2.013536 92.029999
2.0681427 58.347908 2.7227082 92.029999
0.22723514 6.4109197 -2.0017183 92.029999
2.0676084 58.332836 4.0815907 92.029999
0.24761562 6.985908 -2.0044348 92.029999
2.0684922 58.357769 5.447926 92.029999
0.27016896 7.6221991 -1.9966345 92.029999
2.0667911 58.30978 6.8231568 92.029999
0.29794502 8.4058371 -1.9929543 92.029999
2.0669384 58.313934 8.2006359 92.029999
0.32957843 9.2983007 -1.977656 92.029999
2.0612469 58.153366 9.5602465 92.029999
0.3687804 10.404295 -1.9615012 92.029999
2.2121952 62.412018 11.766416 92.029999
0.45662487 11.832444 -1.9454461 92.209999
0.52812523 13.685221 -1.924764 92.209999
0.62385011 16.165724 -1.8918626 92.209999
0.73634845 19.080875 -1.7814815 92.209999
0.98201817 25.446873 -1.7807432 92.209999
0.17585984 4.5570269 -2.0304294 92.209999
1.2078441 31.298662 -1.4606699 92.209999
0.18681021 4.8407817 -2.0234704 92.209999
1.530893 39.669773 -0.92170066 92.209999
0.20015034 5.1864624 -2.0267537 92.209999
1.5360872 39.804371 0 92.209999
0.21372363 5.5381846 -2.0172348 92.209999
2.2546649 58.424755 1.3574601 92.209999
0.22993866 5.9583621 -2.0148163 92.209999
2.2522848 58.363083 2.7237329 92.209999
0.24752173 6.4139895 -2.0029099 92.209999
2.2519329 58.353962 4.0835438 92.209999
0.26956123 6.9850955 -2.0044348 92.209999
2.2522788 58.362923 5.4490409 92.209999
0.29418805 7.6232457 -1.9971409 92.209999
2.2511153 58.332775 6.8266411 92.209999
0.32427618 8.402915 -1.9924932 92.209999
2.2519596 58.354652 8.2073164 92.209999
0.35871279 9.2952652 -1.9772402 92.209999
2.2444634 58.160408 9.5625162 92.209999
0.40207091 10.418797 -1.9644637 92.209999
0.49173036 11.831038 -1.9454461 92.379997
0.56880993 13.685573 -1.9250424 92.379997
0.67172945 16.161816 -1.8916303 92.379997
0.79271114 19.072638 -1.7809242 92.379997
1.0580961 25.457802 -1.7817198 92.379997
0.18960764 4.5619617 -2.0328698 92.379997
1.3006207 31.292946 -1.4605768 92.379997
0.20132554 4.843894 -2.0250123 92.379997
1.6490868 39.677044 -0.92197919 92.379997
0.21546061 5.1839843 -2.0260262 92.379997
1.6527703 39.765667 0 92.379997
0.22999869 5.5337706 -2.0158668 92.379997
2.4296651 58.457764 1.3583885 92.379997
0.24753775 5.9557605 -2.0141761 92.379997
2.4266028 58.384087 2.7250373 92.379997
0.26647201 6.4113193 -2.0023141 92.379997
2.4257252 58.362972 4.0846601 92.379997
0.29036507 6.986186 -2.004986 92.379997
2.4265926 58.383839 5.451642 92.379997
0.31648394 7.6146069 -1.9951149 92.379997
2.4255843 58.359577 6.8305902 92.379997
0.34912586 8.399971 -1.9920321 92.379997
2.4263248 58.377396 8.2114916 92.379997
0.386372 9.296114 -1.977656 92.379997
2.4178383 58.17321 9.5657587 92.379997
0.43290067 10.415594 -1.9640934 92.379997
0.52674377 11.827555 -1.9451219 92.550003
0.60950142 13.685803 -1.9253206 92.550003
0.72029817 16.173643 -1.8932564 92.550003
0.84912002 19.066223 -1.7805526 92.550003
1.132561 25.430632 -1.7800457 92.550003
0.20297982 4.5577283 -2.0312428 92.550003
1.3939961 31.300924 -1.4611357 92.550003
0.21586096 4.8469629 -2.0265539 92.550003
1.7672483 39.681961 -0.92221129 92.550003
0.23067506 5.1795998 -2.0245714 92.550003
1.7736864 39.826523 0 92.550003
0.24691838 5.5443292 -2.0199709 92.550003
2.604881 58.490246 1.3593169 92.550003
0.26554492 5.9625716 -2.016737 92.550003
2.6010654 58.404572 2.7263417 92.550003
0.28540865 6.4085932 -2.0017183 92.550003
2.600656 58.395382 4.0874505 92.550003
0.3110922 6.9852939 -2.004986 92.550003
2.6010504 58.404232 5.4542427 92.550003
0.33933377 7.6194329 -1.9966345 92.550003
2.5998785 58.377922 6.8336101 92.550003
0.37404752 8.3988981 -1.9920321 92.550003
2.6000516 58.381813 8.2131615 92.550003
0.41377833 9.2910185 -1.9768244 92.550003
2.59166 58.193382 9.5702982 92.550003
0.4638024 10.414264 -1.9640934 92.550003
0.56174076 11.823968 -1.9447978 92.720001
0.65029323 13.687891 -1.9258773 92.720001
0.76809454 16.167467 -1.8927917 92.720001
0.90615934 19.073565 -1.7814815 92.720001
1.2079154 25.425167 -1.7799062 92.720001
0.21641526 4.5552812 -2.0304294 92.720001
1.4876201 31.312614 -1.461881 92.720001
0.23006606 4.8426142 -2.0250123 92.720001
1.8861177 39.700512 -0.92276835 92.720001
0.24621902 5.1826143 -2.0260262 92.720001
1.8941239 39.86903 0 92.720001
0.26327845 5.5416946 -2.0192869 92.720001
2.7788877 58.492245 1.359549 92.720001
0.28323504 5.9617572 -2.016737 92.720001
2.7750072 58.410568 2.7269938 92.720001
0.30451265 6.4096251 -2.0023141 92.720001
2.7753272 58.417301 4.0895429 92.720001
0.33199903 6.9881806 -2.0060887 92.720001
2.776123 58.434052 5.4577727 92.720001
0.36175594 7.6145272 -1.9956214 92.720001
2.7732663 58.37392 6.834075 92.720001
0.39896587 8.3977518 -1.9920321 92.720001
2.7715707 58.33823 8.2081509 92.720001
0.44143629 9.2917032 -1.9772402 92.720001
2.7646861 58.193321 9.5715952 92.720001
0.49442026 10.406952 -1.9629825 92.720001
0.59682065 11.822249 -1.9447978 92.889999
0.69090313 13.685902 -1.9258773 92.889999
0.81626123 16.169085 -1.8932564 92.889999
0.96355087 19.086702 -1.7829678 92.889999
1.2838509 25.431435 -1.7806038 92.889999
0.22993007 4.5546188 -2.0304294 92.889999
1.5797139 31.292101 -1.4611357 92.889999
0.2443403 4.8400669 -2.0242414 92.889999
2.004508 39.706722 -0.92304689 92.889999
0.26187682 5.1874433 -2.0282087 92.889999
2.0120058 39.855247 0 92.889999
0.27981454 5.5427661 -2.0199709 92.889999
2.9535341 58.505711 1.3600597 92.889999
0.3007316 5.9571061 -2.0154567 92.889999
2.9508207 58.451958 2.7293229 92.889999
0.32352901 6.4086933 -2.0023141 92.889999
2.9498494 58.43272 4.091217 92.889999
0.3524411 6.9814048 -2.0044348 92.889999
2.9500902 58.437489 5.4588876 92.889999
0.38434705 7.6134205 -1.9956214 92.889999
2.9486561 58.409081 6.8391852 92.889999
0.4238807 8.3965311 -1.9920321 92.889999
2.9484458 58.404915 8.2187281 92.889999
0.46900335 9.2903528 -1.9772402 92.889999
2.9388294 58.214428 9.5764589 92.889999
0.52569246 10.413291 -1.9644637 92.889999
0.63200068 11.822397 -1.9451219 93.059998
0.73182404 13.689724 -1.9267124 93.059998
0.8649745 16.180477 -1.8948824 93.059998
1.0194339 19.069841 -1.7816674 93.059998
1.3596213 25.433491 -1.7810223 93.059998
0.24363793 4.5575657 -2.0320563 93.059998
1.672979 31.295256 -1.4615084 93.059998
0.25909403 4.8466921 -2.0273247 93.059998
2.1230583 39.714577 -0.92337185 93.059998
0.27756548 5.1922245 -2.0303912 93.059998
2.1311038 39.865078 0 93.059998
0.29605836 5.5381579 -2.0186028 93.059998
3.1280713 58.51466 1.3604774 93.059998
0.31840533 5.9561872 -2.0154567 93.059998
3.1255176 58.466888 2.7304411 93.059998
0.3428483 6.413425 -2.0041013 93.059998
3.1251266 58.459572 4.0937285 93.059998
0.37315378 6.9803281 -2.0044348 93.059998
3.1248465 58.45433 5.4613028 93.059998
0.40662494 7.6064506 -1.9941019 93.059998
3.1234307 58.427849 6.8424377 93.059998
0.44910347 8.4010668 -1.9934154 93.059998
3.1215119 58.391953 8.2181721 93.059998
0.4965663 9.2889204 -1.9772402 93.059998
3.1123848 58.221218 9.5790529 93.059998
0.55637711 10.407761 -1.9637231 93.059998
0.67187297 11.832059 -1.9470674 93.25
0.7778905 13.699086 -1.9283825 93.25
0.91806304 16.167603 -1.893721 93.25
1.082779 19.068344 -1.7818531 93.25
1.4442936 25.434816 -1.7814409 93.25
0.25833571 4.5494361 -2.0288024 93.25
1.7750497 31.259617 -1.4601109 93.25
0.27547869 4.8513336 -2.0296373 93.25
2.255765 39.725285 -0.92378962 93.25
0.29467636 5.1894155 -2.0296638 93.25
2.2714531 40.00156 0 93.25
0.31463504 5.5408988 -2.0199709 93.25
3.3232293 58.523926 1.3609418 93.25
0.33815503 5.9550986 -2.0154567 93.25
3.3214223 58.492104 2.7321179 93.25
0.36389762 6.4084401 -2.0029099 93.25
3.3203256 58.47279 4.0954027 93.25
0.39673528 6.9867301 -2.00664 93.25
3.3193481 58.455574 5.4624171 93.25
0.43239507 7.6147189 -1.9966345 93.25
3.3177302 58.427086 6.8435993 93.25
0.4765186 8.3917589 -1.9915709 93.25
3.3193963 58.456421 8.2287483 93.25
0.52725583 9.2852697 -1.9768244 93.25
3.3073382 58.244072 9.5845652 93.25
0.59077603 10.403895 -1.9633528 93.25
0.70674092 11.826074 -1.9464189 93.419998
0.81841487 13.694741 -1.9281042 93.419998
0.96697718 16.180672 -1.8955793 93.419998
1.1392323 19.063059 -1.7816674 93.419998
1.5195158 25.426437 -1.7811618 93.419998
0.27281395 4.565064 -2.0361238 93.419998
1.8676717 31.252218 -1.4600178 93.419998
0.29020193 4.8560219 -2.0319498 93.419998
2.3744571 39.732388 -0.92411458 93.419998
0.31007233 5.188518 -2.0296638 93.419998
3.1488202 52.689995 0 93.419998
0.33107379 5.5399408 -2.0199709 93.419998
3.4981706 58.535763 1.3614523 93.419998
0.35559657 5.9502864 -2.0141761 93.419998
3.4965065 58.507915 2.7333291 93.419998
0.38325188 6.4130497 -2.0046971 93.419998
3.4952314 58.48658 4.0970769 93.419998
0.41700479 6.9778457 -2.0044348 93.419998
3.4951503 58.485226 5.4661331 93.419998
0.45487103 7.6114707 -1.996128 93.419998
3.4922571 58.436813 6.845922 93.419998
0.50164753 8.3941936 -1.9924932 93.419998
3.492116 58.434452 8.2270784 93.419998
0.55492008 9.2856169 -1.9772402 93.419998
3.4821384 58.267494 9.5900774 93.419998
0.62222856 10.411906 -1.9652044 93.419998
0.74170285 11.821955 -1.9460946 93.589996
0.85954034 13.700159 -1.9292176 93.589996
1.0152307 16.181696 -1.896044 93.589996
1.1962872 19.067545 -1.7824105 93.589996
1.5957003 25.433764 -1.7819989 93.589996
0.28635752 4.5642343 -2.0361238 93.589996
1.9625171 31.280436 -1.4616016 93.589996
0.30437765 4.8514557 -2.0304081 93.589996
2.4934616 39.743126 -0.92453235 93.589996
0.32534894 5.1857162 -2.0289361 93.589996
2.500771 39.859627 0 93.589996
0.34703892 5.5314312 -2.0172348 93.589996
3.6742127 58.563042 1.3623344 93.589996
0.37348711 5.9529872 -2.0154567 93.589996
3.6722138 58.531181 2.7349129 93.589996
0.40215853 6.4099789 -2.0041013 93.589996
3.6709976 58.511795 4.0995879 93.589996
0.43782699 6.9784966 -2.004986 93.589996
3.6705341 58.50441 5.4689198 93.589996
0.4774527 7.6100879 -1.996128 93.589996
3.667866 58.46188 6.8501034 93.589996
0.52655137 8.3926678 -1.9924932 93.589996
3.666347 58.437672 8.2290268 93.589996
0.58259112 9.285882 -1.977656 93.589996
3.6564889 58.28054 9.5939674 93.589996
0.65274936 10.40413 -1.9640934 93.589996
0.77922821 11.825474 -1.9470674 93.769997
0.90231591 13.693439 -1.9286609 93.769997
1.0659312 16.176445 -1.8958117 93.769997
1.2559217 19.059717 -1.7820389 93.769997
1.6746764 25.41469 -1.7810223 93.769997
0.3004548 4.5596662 -2.0344968 93.769997
2.0573623 31.222284 -1.4591793 93.769997
0.31949607 4.8486338 -2.0296373 93.769997
2.6193576 39.751057 -0.92490375 93.769997
0.34151623 5.1828094 -2.0282087 93.769997
2.6240087 39.82164 0 93.769997
0.3647854 5.5359397 -2.0192869 93.769997
3.8597531 58.57515 1.3628914 93.769997
0.39243627 5.9555659 -2.016737 93.769997
3.8583097 58.553246 2.7364969 93.769997
0.42191744 6.4029689 -2.0023141 93.769997
3.856111 58.519882 4.1009831 93.769997
0.45974839 6.9770865 -2.004986 93.769997
3.8557532 58.514446 5.4709635 93.769997
0.5012309 7.6066198 -1.9956214 93.769997
3.8537314 58.483765 6.8540525 93.769997
0.55291504 8.3909721 -1.9924932 93.769997
3.8505671 58.435745 8.2304192 93.769997
0.61188924 9.2859583 -1.9780718 93.769997
3.8418999 58.304214 9.5998039 93.769997
0.68504393 10.396145 -1.9629825 93.769997
0.81224805 11.823252 -1.9470674 93.93
0.94082314 13.694818 -1.9292176 93.93
1.1113725 16.177368 -1.8962764 93.93
1.3087322 19.050177 -1.7814815 93.93
1.7464615 25.421856 -1.7818594 93.93
0.31356227 4.5642776 -2.036937 93.93
2.1474187 31.258272 -1.4611357 93.93
0.33316123 4.8495641 -2.0304081 93.93
2.7318606 39.76553 -0.92541438 93.93
0.355988 5.1818352 -2.0282087 93.93
2.7362978 39.83012 0 93.93
0.38037205 5.5367742 -2.0199709 93.93
4.0244069 58.580101 1.3632628 93.93
0.40893593 5.9525566 -2.0160968 93.93
4.0229015 58.558189 2.7372422 93.93
0.4401888 6.4074798 -2.0041013 93.93
4.0211554 58.532768 4.1026573 93.93
0.47949383 6.9796114 -2.0060887 93.93
4.0218706 58.543186 5.474679 93.93
0.52247059 7.6051903 -1.9956214 93.93
4.0174422 58.478722 6.8547497 93.93
0.57634491 8.3893957 -1.9924932 93.93
0.63768405 9.2822618 -1.977656 93.93
4.0065947 58.320824 9.6043434 93.93
0.71474624 10.403995 -1.964834 93.93
0.84924638 11.818673 -1.9467431 94.110001
0.98483562 13.705622 -1.9311659 94.110001
1.1623319 16.175779 -1.8965086 94.110001
1.369287 19.055902 -1.7824105 94.110001
1.8256029 25.406294 -1.7811618 94.110001
0.32789981 4.5632701 -2.036937 94.110001
2.2430313 31.215504 -1.4594587 94.110001
0.3483949 4.8484936 -2.0304081 94.110001
2.8584938 39.780685 -0.92597145 94.110001
0.37253249 5.1844077 -2.0296638 94.110001
2.8657146 39.881172 0 94.110001
0.39776441 5.535552 -2.0199709 94.110001
4.2110009 58.603069 1.3640984 94.110001
0.42790601 5.9550223 -2.0173774 94.110001
4.2084222 58.567181 2.7382669 94.110001
0.45976895 6.398448 -2.0017183 94.110001
4.2077379 58.557659 4.1053081 94.110001
0.50100511 6.9723182 -2.0044348 94.110001
4.2070537 58.548138 5.4763513 94.110001
0.54677635 7.6093011 -1.9971409 94.110001
4.205267 58.52327 6.8614864 94.110001
0.60297704 8.3914261 -1.9934154 94.110001
0.66698217 9.2821636 -1.9780718 94.110001
4.1910677 58.325665 9.6072617 94.110001
0.74785036 10.407579 -1.9659449 94.110001
0.88283479 11.824128 -1.9480401 94.269997
1.0228101 13.698868 -1.9306092 94.269997
1.206907 16.164547 -1.8955793 94.269997
1.423682 19.06789 -1.7838967 94.269997
1.8969891 25.407066 -1.7815803 94.269997
0.34036949 4.5586925 -2.0353103 94.269997
2.3324239 31.239002 -1.4608563 94.269997
0.36220789 4.8511825 -2.0319498 94.269997
2.9698687 39.776535 -0.92606425 94.269997
0.38714734 5.185205 -2.0303912 94.269997
2.9751365 39.847088 0 94.269997
0.41336095 5.536294 -2.0206549 94.269997
4.3759747 58.609024 1.3645161 94.269997
0.44453385 5.953804 -2.0173774 94.269997
4.3747821 58.593052 2.7400372 94.269997
0.47763497 6.3971391 -2.0017183 94.269997
4.3733249 58.573532 4.1072612 94.269997
0.52075982 6.9747262 -2.0055375 94.269997
4.3720174 58.556019 5.478209 94.269997
0.56816745 7.609674 -1.9976474 94.269997
4.3706012 58.537052 6.8645062 94.269997
0.62597322 8.3838873 -1.9920321 94.269997
0.69319153 9.2841663 -1.9789035 94.269997
4.3564253 58.347191 9.6127739 94.269997
0.77647185 10.39957 -1.964834 94.269997
0.91982383 11.819328 -1.9477159 94.449997
1.0669169 13.70941 -1.9325577 94.449997
1.2579917 16.164637 -1.896044 94.449997
1.4832693 19.059353 -1.7835251 94.449997
1.9772626 25.406948 -1.7819989 94.449997
0.3548311 4.5594225 -2.0361238 94.449997
2.4276073 31.193676 -1.4590861 94.449997
0.37744653 4.8500204 -2.0319498 94.449997
3.0971427 39.796909 -0.92676061 94.449997
0.40329063 5.182106 -2.0296638 94.449997
3.1044948 39.89138 0 94.449997
0.43060586 5.5330944 -2.0199709 94.449997
4.5641122 58.646816 1.3657231 94.449997
0.46294203 5.9485998 -2.0160968 94.449997
4.5625563 58.626823 2.7422731 94.449997
0.49787793 6.3975105 -2.0023141 94.449997
4.5588651 58.579395 4.1086564 94.449997
0.54281813 6.9749722 -2.0060887 94.449997
4.5585809 58.575745 5.4813671 94.449997
0.59177089 7.6039934 -1.9966345 94.449997
4.5567908 58.552738 6.867991 94.449997
0.65215784 8.3799391 -1.9915709 94.449997
0.72205156 9.2780428 -1.9780718 94.449997
4.5413909 58.354858 9.6163406 94.449997
0.80868167 10.391201 -1.9637231 94.449997
0.9553653 11.822449 -1.9486886 94.620003
1.1069506 13.698287 -1.9314443 94.620003
1.3064276 16.166773 -1.8967409 94.620003
1.5401337 19.058838 -1.7838967 94.620003
2.0524771 25.398981 -1.7818594 94.620003
0.36821043 4.5565281 -2.0353103 94.620003
2.5159659 31.134562 -1.4566637 94.620003
0.39183515 4.8488793 -2.0319498 94.620003
3.2164969 39.80349 -0.92713195 94.620003
0.41896459 5.1846004 -2.0311186 94.620003
4.2710776 52.85371 0 94.620003
0.44732371 5.5355387 -2.0213389 94.620003
4.7408385 58.666897 1.3665123 94.620003
0.48089507 5.9509773 -2.0173774 94.620003
4.7374506 58.624977 2.7428322 94.620003
0.51701128 6.3979082 -2.0029099 94.620003
4.7349033 58.593452 4.1106095 94.620003
0.56351089 6.973331 -2.0060887 94.620003
4.7347646 58.591736 5.4841542 94.620003
0.61386222 7.5964184 -1.9951149 94.620003
4.7330599 58.570641 6.8717074 94.620003
0.67733222 8.3818464 -1.9924932 94.620003
4.7355285 58.601189 8.2627068 94.620003
0.7497344 9.2778091 -1.9784876 94.620003
4.7172155 58.374569 9.6218529 94.620003
0.83950943 10.388756 -1.9637231 94.620003
0.99217153 11.815455 -1.9480401 94.800003
1.1509739 13.706583 -1.9331144 94.800003
1.3580415 16.172485 -1.8979024 94.800003
1.6003344 19.057875 -1.7842683 94.800003
2.1337626 25.410301 -1.783115 94.800003
0.38328779 4.5644522 -2.0393775 94.800003
2.499753 29.768763 -1.393124 94.800003
0.40737525 4.8513021 -2.0334914 94.800003
3.3428657 39.809128 -0.92750335 94.800003
0.43447092 5.1739764 -2.0274813 94.800003
3.3536406 39.937439 0 94.800003
0.46502641 5.5378518 -2.0227072 94.800003
4.9304762 58.715473 1.3679978 94.800003
0.49990532 5.9532137 -2.0186577 94.800003
4.9236088 58.633694 2.7439501 94.800003
0.53742784 6.4000573 -2.0041013 94.800003
4.923965 58.637932 4.1147947 94.800003
0.58541542 6.9715266 -2.0060887 94.800003
4.9213119 58.606339 5.4869409 94.800003
0.63837159 7.6021647 -1.9971409 94.800003
4.9208646 58.601013 6.8770504 94.800003
0.70300978 8.3719206 -1.9906486 94.800003
4.9172854 58.558392 8.25881 94.800003
0.77887774 9.2754078 -1.9784876 94.800003
4.9033885 58.392895 9.6273651 94.800003
0.87214243 10.386067 -1.9637231 94.800003
1.0279082 11.820324 -1.9493371 94.970001
1.1923234 13.711 -1.9342277 94.970001
1.4051597 16.158489 -1.8967409 94.970001
1.6570457 19.055027 -1.7844541 94.970001
2.2096655 25.409821 -1.7835336 94.970001
0.39603764 4.554194 -2.0353103 94.970001
2.5809712 29.679613 -1.3893042 94.970001
0.42144775 4.846395 -2.0319498 94.970001
3.4632189 39.824928 -0.92810684 94.970001
0.45030469 5.1782322 -2.0296638 94.970001
3.4752412 39.963181 0 94.970001
0.48129267 5.5345755 -2.0220232 94.970001
3.4601009 39.789074 0.92727125 94.970001
0.51740247 5.9498167 -2.0180175 94.970001
5.1003261 58.650673 2.7454407 94.970001
0.55674559 6.4022388 -2.0052929 94.970001
5.0994806 58.640953 4.1160507 94.970001
0.60593122 6.9678435 -2.0055375 94.970001
5.0984559 58.629169 5.4904709 94.970001
0.66058958 7.5963821 -1.996128 94.970001
5.0952315 58.592091 6.8777475 94.970001
0.72700363 8.3601036 -1.9883431 94.970001
5.0965004 58.606682 8.2677174 94.970001
0.80690342 9.278903 -1.9797351 94.970001
5.0795283 58.411514 9.6328764 94.970001
0.90278435 10.381475 -1.9633528 94.970001
1.0627984 11.815257 -1.9490129 95.139999
1.2329994 13.707402 -1.9342277 95.139999
1.4532747 16.156229 -1.8969733 95.139999
1.7135757 19.050026 -1.7844541 95.139999
2.2834394 25.385269 -1.7822779 95.139999
0.41020319 4.5602779 -2.038564 95.139999
2.6768961 29.759375 -1.3934034 95.139999
0.43615609 4.8487992 -2.0334914 95.139999
3.5827994 39.83041 -0.92847818 95.139999
0.46583372 5.1787291 -2.0303912 95.139999
5.2924185 58.836449 0 95.139999
0.49754354 5.531251 -2.0213389 95.139999
3.5906811 39.91803 0.93052077 95.139999
0.53556287 5.9539165 -2.0199382 95.139999
5.2779031 58.675076 2.7473042 95.139999
0.57539684 6.3967557 -2.0041013 95.139999
5.2755942 58.64941 4.1177244 95.139999
0.62643027 6.9641004 -2.004986 95.139999
5.2761364 58.655437 5.4943724 95.139999
0.68347222 7.5982428 -1.9971409 95.139999
5.2722583 58.612328 6.8819289 95.139999
0.7523284 8.3637247 -1.9897264 95.139999
5.2719646 58.609058 8.2702227 95.139999
0.83425564 9.2745199 -1.9793193 95.139999
5.2561755 58.433529 9.6390371 95.139999
0.93375891 10.380709 -1.9637231 95.139999
1.1002778 11.815789 -1.9496614 95.32
1.2769746 13.713321 -1.9356195 95.32
1.5060498 16.17334 -1.8995285 95.32
1.7730453 19.040583 -1.7840825 95.32
2.366508 25.413729 -1.7847891 95.32
0.42435828 4.5571475 -2.0377505 95.32
2.7790806 29.844313 -1.3977823 95.32
0.45070243 4.840055 -2.0304081 95.32
3.7099516 39.840855 -0.92898881 95.32
0.48210084 5.1772399 -2.0303912 95.32
5.4746361 58.791653 0 95.32
0.51456952 5.525918 -2.0199709 95.32
0.55373794 5.9465446 -2.0180175 95.32
5.4651737 58.690033 2.7487948 95.32
0.59548998 6.3949161 -2.0041013 95.32
5.4638901 58.67625 4.1207938 95.32
0.64866203 6.9659262 -2.0060887 95.32
5.4611197 58.646503 5.4951153 95.32
0.70751882 7.5979843 -1.9976474 95.32
5.4596834 58.631077 6.8861103 95.32
0.77860004 8.3613195 -1.9897264 95.32
5.4591856 58.625729 8.2749538 95.32
0.86320686 9.2699051 -1.9789035 95.32
5.4428344 58.450134 9.6445494 95.32
0.96618396 10.375768 -1.9633528 95.32
1.1330808 11.810706 -1.9493371 95.480003
1.3160208 13.717587 -1.9367329 95.480003
1.5515877 16.173025 -1.8999931 95.480003
1.8279212 19.053398 -1.7857546 95.480003
2.4372766 25.405035 -1.7846496 95.480003
0.43708256 4.5559444 -2.0377505 95.480003
2.9913843 31.180794 -1.4607631 95.480003
0.4643929 4.8406148 -2.031179 95.480003
3.8221486 39.840294 -0.92922097 95.480003
0.49620071 5.1721644 -2.0289361 95.480003
3.8344471 39.968491 0 95.480003
0.53071666 5.5319428 -2.0227072 95.480003
0.57088453 5.9506335 -2.0199382 95.480003
5.6334338 58.720284 2.7509377 95.480003
0.61316329 6.3913279 -2.0035055 95.480003
5.6309624 58.694527 4.1231656 95.480003
0.66756123 6.9583464 -2.0044348 95.480003
5.6275325 58.658775 5.4977164 95.480003
0.72817928 7.5902009 -1.996128 95.480003
5.6281333 58.665035 6.8919177 95.480003
0.80194622 8.3591127 -1.9897264 95.480003
5.6259041 58.6418 8.2794075 95.480003
0.8896504 9.2733002 -1.9801509 95.480003
5.6082983 58.458282 9.6484404 95.480003
0.99477935 10.369116 -1.9626122 95.480003
1.1685076 11.81122 -1.9499855 95.650002
1.3567159 13.713622 -1.9367329 95.650002
1.5989804 16.16242 -1.8992962 95.650002
1.8848377 19.051853 -1.7861261 95.650002
2.5157869 25.429459 -1.7868818 95.650002
0.45077825 4.5564461 -2.038564 95.650002
3.0858531 31.191664 -1.4616947 95.650002
0.47838983 4.8355427 -2.0296373 95.650002
3.9436865 39.862602 -0.93001014 95.650002
0.51172805 5.1725235 -2.0296638 95.650002
5.8184757 58.812885 0 95.650002
0.5465728 5.5247331 -2.0206549 95.650002
5.8139553 58.767193 1.3710617 95.650002
0.58816475 5.9451423 -2.0186577 95.650002
5.810782 58.735119 2.7524283 95.650002
0.63212401 6.3894806 -2.0035055 95.650002
5.8086233 58.713299 4.1256771 95.650002
0.6887719 6.9620748 -2.0060887 95.650002
5.8076291 58.703251 5.5034757 95.650002
0.7506966 7.588007 -1.996128 95.650002
5.8027577 58.654011 6.8926148 95.650002
0.82616985 8.3508873 -1.9883431 95.650002
5.8018227 58.644558 8.2821913 95.650002
0.91696823 9.2686729 -1.9797351 95.650002
5.7869682 58.494411 9.6571951 95.650002
1.0263147 10.373942 -1.9640934 95.650002
1.2056078 11.807491 -1.9499855 95.830002
1.4009988 13.721114 -1.9384029 95.830002
1.6511606 16.17115 -1.9009223 95.830002
1.9456929 19.055744 -1.787055 95.830002
2.5940421 25.40555 -1.7857658 95.830002
0.46471933 4.5513721 -2.036937 95.830002
3.1809883 31.15399 -1.4603904 95.830002
0.4947035 4.8450313 -2.0342624 95.830002
4.0697112 39.857971 -0.93019581 95.830002
0.52835393 5.1745973 -2.0311186 95.830002
4.1173301 40.324345 0 95.830002
0.56411743 5.5248585 -2.0213389 95.830002
6.0003767 58.766541 1.3714794 95.830002
0.60722399 5.9470353 -2.0199382 95.830002
5.9975071 58.738438 2.7534533 95.830002
0.65219402 6.3874631 -2.0035055 95.830002
5.9954796 58.718578 4.1273508 95.830002
0.71083575 6.9617891 -2.00664 95.830002
5.9954605 58.718395 5.5066338 95.830002
0.7745313 7.5856113 -1.996128 95.830002
5.9912333 58.676991 6.8974929 95.830002
0.8533892 8.3579302 -1.9906486 95.830002
5.9934745 58.698944 8.29249 95.830002
0.94608206 9.2657471 -1.9797351 95.830002
5.9739127 58.507355 9.6623831 95.830002
1.0577024 10.358935 -1.9618716 95.830002
1.2429026 11.805608 -1.9503098 96.010002
1.4447201 13.722554 -1.939238 96.010002
1.7017475 16.163908 -1.9006901 96.010002
2.0053401 19.047556 -1.7868693 96.010002
2.6725895 25.38537 -1.7849287 96.010002
0.47901556 4.5498896 -2.036937 96.010002
3.2807281 31.161724 -1.461229 96.010002
0.50914925 4.836112 -2.031179 96.010002
4.1984673 39.878796 -0.93098497 96.010002
0.54480284 5.1747646 -2.031846 96.010002
4.2180262 40.064575 0 96.010002
0.5814715 5.5230589 -2.0213389 96.010002
6.1883168 58.779217 1.3722222 96.010002
0.62550735 5.9413295 -2.0186577 96.010002
6.1847291 58.745136 2.7546644 96.010002
0.67265737 6.3891802 -2.0046971 96.010002
6.1838884 58.737152 4.130002 96.010002
0.73270333 6.9595218 -2.00664 96.010002
6.1819849 58.719074 5.5084915 96.010002
0.79835832 7.5831404 -1.996128 96.010002
6.1799102 58.699364 6.9023714 96.010002
0.87984592 8.3571434 -1.9911097 96.010002
6.1797194 58.697552 8.2949953 96.010002
0.97498173 9.2607832 -1.9793193 96.010002
6.1601686 58.511852 9.6662741 96.010002
1.0910639 10.363379 -1.9633528 96.010002
1.2775002 11.797944 -1.9496614 96.18
1.4854293 13.718207 -1.939238 96.18
1.7507685 16.168663 -1.9018515 96.18
2.0627038 19.049442 -1.7876124 96.18
2.7491863 25.389231 -1.7857658 96.18
0.49251324 4.5484481 -2.036937 96.18
3.3746777 31.165756 -1.461881 96.18
0.52329737 4.8327451 -2.0304081 96.18
4.3197851 39.893993 -0.93163484 96.18
0.55955255 5.1675687 -2.0296638 96.18
4.3342981 40.028023 0 96.18
0.59785616 5.5213094 -2.0213389 96.18
6.368072 58.810291 1.3733827 96.18
0.64313287 5.9394474 -2.0186577 96.18
6.3645935 58.778168 2.7570868 96.18
0.69078934 6.3795638 -2.0023141 96.18
6.3602853 58.73838 4.1313968 96.18
0.75334936 6.9573169 -2.00664 96.18
6.3613257 58.747986 5.5129504 96.18
0.82064617 7.578815 -1.9956214 96.18
6.3559718 58.698544 6.9044623 96.18
0.90317166 8.3409529 -1.9878819 96.18
6.3561964 58.700615 8.2980566 96.18
1.0024548 9.2578497 -1.9793193 96.18
6.3356614 58.510975 9.6691914 96.18
1.1218078 10.360097 -1.9633528 96.18
1.3135911 11.803909 -1.9512825 96.349998
1.5267826 13.719645 -1.940073 96.349998
1.7993933 16.169319 -1.9025484 96.349998
2.1187751 19.03928 -1.7872409 96.349998
2.8271534 25.404757 -1.7874399 96.349998
0.50661278 4.5524144 -2.0393775 96.349998
3.4693429 31.175463 -1.4628128 96.349998
0.53783816 4.8330054 -2.031179 96.349998
4.4947462 40.389721 -0.94351882 96.349998
0.57529467 5.169589 -2.0311186 96.349998
4.4944091 40.386692 0 96.349998
0.61485916 5.5251145 -2.0233912 96.349998
6.54497 58.812996 1.3738934 96.349998
0.66096222 5.9393964 -2.0192981 96.349998
6.5427198 58.792778 2.7586706 96.349998
0.70992595 6.3793836 -2.0029099 96.349998
6.5389509 58.758907 4.1341872 96.349998
0.77398878 6.9550514 -2.00664 96.349998
6.5393505 58.762501 5.516109 96.349998
0.84377128 7.5821157 -1.9971409 96.349998
6.5371366 58.742603 6.9118958 96.349998
0.92813098 8.3401699 -1.9883431 96.349998
6.5351553 58.724804 8.3041801 96.349998
1.0294861 9.250946 -1.9784876 96.349998
6.5142593 58.537033 9.6766491 96.349998
1.1512376 10.345003 -1.961131 96.349998
1.34816 11.796038 -1.950634 96.519997
1.5681576 13.720958 -1.9409081 96.519997
1.8466839 16.15799 -1.9018515 96.519997
2.1761608 19.040823 -1.787984 96.519997
2.9022918 25.394274 -1.7873003 96.519997
0.51991034 4.5490761 -2.038564 96.519997
3.566591 31.206715 -1.4647692 96.519997
0.55259472 4.8350554 -2.0327206 96.519997
4.6168356 40.396072 -0.94398302 96.519997
0.58957285 5.1586046 -2.0274813 96.519997
4.6185341 40.410931 0 96.519997
0.62996936 5.5120625 -2.0192869 96.519997
6.7233024 58.827091 1.3746825 96.519997
0.67858183 5.9374089 -2.0192981 96.519997
6.7203088 58.800896 2.759975 96.519997
0.72928441 6.381043 -2.0041013 96.519997
6.716208 58.765018 4.1360006 96.519997
0.79462141 6.952724 -2.00664 96.519997
6.7170649 58.772514 5.5188956 96.519997
0.8662641 7.5795784 -1.9971409 96.519997
6.7125278 58.732819 6.9130573 96.519997
0.95353556 8.3431807 -1.9897264 96.519997
6.7120652 58.728767 8.3075209 96.519997
1.0571518 9.249794 -1.9789035 96.519997
6.6917229 58.550781 9.6821613 96.519997
1.183489 10.35521 -1.9637231 96.519997
1.3838433 11.797867 -1.9516068 96.690002
1.6100152 13.72608 -1.9422998 96.690002
1.8943861 16.150465 -1.9016192 96.690002
2.2324145 19.032305 -1.7877982 96.690002
2.9778576 25.387533 -1.7874399 96.690002
0.53212833 4.5366254 -2.0336833 96.690002
3.6510215 31.126547 -1.4615084 96.690002
0.56629318 4.8278961 -2.0304081 96.690002
0.60509318 5.1586828 -2.0282087 96.690002
6.9038687 58.858486 0 96.690002
0.6476348 5.521369 -2.0233912 96.690002
6.9031734 58.852558 1.3757502 96.690002
0.69619548 5.9353695 -2.0192981 96.690002
6.9000978 58.826336 2.7621176 96.690002
0.74799168 6.3769546 -2.0035055 96.690002
6.8972778 58.802296 4.1400466 96.690002
0.81547099 6.9522452 -2.0071912 96.690002
6.8993044 58.819572 5.5252123 96.690002
0.88897473 7.5788965 -1.9976474 96.690002
6.890696 58.746181 6.9170065 96.690002
0.97783262 8.3364487 -1.9888042 96.690002
6.89044 58.743999 8.3125305 96.690002
1.0848197 9.24856 -1.9793193 96.690002
6.8695555 58.565948 9.6879978 96.690002
1.2132924 10.343845 -1.9622419 96.690002
1.4188421 11.793709 -1.9516068 96.860001
1.6519169 13.731074 -1.9436915 96.860001
1.9437206 16.156607 -1.903013 96.860001
2.2874475 19.013735 -1.7866834 96.860001
3.0548389 25.39245 -1.7884165 96.860001
0.54514992 4.5313988 -2.0320563 96.860001
3.7512343 31.181034 -1.4645829 96.860001
0.58149707 4.8335238 -2.0334914 96.860001
0.62106419 5.1624136 -2.0303912 96.860001
7.0846858 58.88937 0 96.860001
0.66378969 5.5175571 -2.0227072 96.860001
7.0822992 58.869534 1.3766322 96.860001
0.71425563 5.9370403 -2.0205784 96.860001
7.0772333 58.827423 2.7631426 96.860001
0.76827741 6.3860803 -2.0070801 96.860001
7.0748153 58.807323 4.1418605 96.860001
0.83655435 6.9536128 -2.0082939 96.860001
7.0745082 58.804775 5.5257697 96.860001
0.91076452 7.5704627 -1.996128 96.860001
7.0675788 58.747173 6.9195619 96.860001
1.0027955 8.3354425 -1.9892653 96.860001
7.069911 58.76656 8.318655 96.860001
1.1122559 9.2453003 -1.9793193 96.860001
7.0487151 58.590378 9.6954556 96.860001
1.2439778 10.340199 -1.9622419 96.860001
1.4574592 11.785022 -1.9509583 97.050003
1.6971986 13.723555 -1.9434131 97.050003
1.9960681 16.140215 -1.9018515 97.050003
2.3512199 19.011974 -1.7872409 97.050003
3.1409855 25.398022 -1.7895325 97.050003
0.56039786 4.5313792 -2.0328698 97.050003
3.8558397 31.178335 -1.4650488 97.050003
0.59774888 4.8334002 -2.0342624 97.050003
0.63817996 5.160326 -2.0303912 97.050003
7.2833676 58.893341 0 97.050003
0.68139094 5.5097299 -2.0206549 97.050003
7.2823868 58.88541 1.3775606 97.050003
0.73440474 5.9383998 -2.0218589 97.050003
7.2766867 58.839321 2.7648196 97.050003
0.78898156 6.3797083 -2.0058885 97.050003
7.276155 58.835022 4.1454878 97.050003
0.85937285 6.9488921 -2.0077424 97.050003
7.2755833 58.830399 5.5304141 97.050003
0.93657649 7.5731616 -1.9976474 97.050003
7.2696671 58.782558 6.9265308 97.050003
1.0309089 8.3359346 -1.9901875 97.050003
7.27034 58.787998 8.325057 97.050003
1.1431484 9.2435026 -1.9797351 97.050003
7.2461181 58.59214 9.6996708 97.050003
1.2785015 10.337968 -1.9626122 97.050003
1.4931637 11.786519 -1.951931 97.220001
1.7384075 13.722388 -1.9439698 97.220001
2.0441978 16.136192 -1.9020839 97.220001
2.4066179 18.997011 -1.7864977 97.220001
3.2183349 25.404425 -1.7906487 97.220001
0.57406986 4.5315094 -2.0336833 97.220001
3.9518456 31.194506 -1.4663531 97.220001
0.6111595 4.8242822 -2.031179 97.220001
0.65325397 5.1565614 -2.0296638 97.220001
7.4656162 58.930996 0 97.220001
0.69749939 5.5058193 -2.0199709 97.220001
7.4608407 58.893299 1.3782569 97.220001
0.75130665 5.9305553 -2.0199382 97.220001
7.4570093 58.863056 2.7669623 97.220001
0.80814695 6.3792334 -2.0064843 97.220001
7.4549527 58.846821 4.1478596 97.220001
0.8802284 6.9482193 -2.0082939 97.220001
7.4543591 58.842136 5.5335727 97.220001
0.95879918 7.5684295 -1.9971409 97.220001
7.4512863 58.817879 6.9332676 97.220001
1.0556376 8.332839 -1.9901875 97.220001
7.4487176 58.797604 8.3295097 97.220001
1.1703235 9.2381296 -1.9793193 97.220001
7.4266291 58.623249 9.7084246 97.220001
1.3099102 10.339979 -1.9637231 97.220001
1.5273669 11.776165 -1.9509583 97.389999
1.7796243 13.721098 -1.9445266 97.389999
2.0910439 16.122177 -1.9011546 97.389999
2.4634848 18.993736 -1.7868693 97.389999
3.2962632 25.414549 -1.7920438 97.389999
0.58751255 4.5297861 -2.0336833 97.389999
4.0461831 31.196512 -1.4670053 97.389999
0.6240465 4.8114662 -2.0265539 97.389999
0.66807163 5.1509051 -2.0282087 97.389999
7.6460938 58.952221 0 97.389999
0.71479934 5.5111809 -2.0227072 97.389999
7.6401763 58.906593 1.3790926 97.389999
0.76914334 5.9301791 -2.0205784 97.389999
7.6357379 58.872372 2.7684531 97.389999
0.82657981 6.3730206 -2.0052929 97.389999
7.6349106 58.865993 4.1507893 97.389999
0.90034574 6.9417639 -2.0071912 97.389999
7.6342931 58.861233 5.5374742 97.389999
0.98224634 7.5732265 -1.999167 97.389999
7.6275578 58.809303 6.9348936 97.389999
1.080357 8.32967 -1.9901875 97.389999
7.6254334 58.792923 8.332015 97.389999
1.1977284 9.2346163 -1.9793193 97.389999
7.6061196 58.644012 9.7155581 97.389999
1.3408365 10.337996 -1.9640934 97.389999
1.5623007 11.771582 -1.9509583 97.559998
1.8211095 13.721647 -1.9453616 97.559998
2.1406994 16.129686 -1.9027808 97.559998
2.5214014 18.998188 -1.787984 97.559998
3.3700802 25.39279 -1.7912067 97.559998
0.60143089 4.5316453 -2.0353103 97.559998
4.1368871 31.170506 -1.4663531 97.559998
0.63856244 4.8114233 -2.0273247 97.559998
0.68408704 5.1544409 -2.0303912 97.559998
7.8096604 58.844021 0 97.559998
0.73090088 5.5071726 -2.0220232 97.559998
7.8146591 58.881683 1.3790461 97.559998
0.78723371 5.9316278 -2.0218589 97.559998
7.8159013 58.891045 2.7704096 97.559998
0.84548527 6.3705401 -2.0052929 97.559998
7.8153105 58.886593 4.1538587 97.559998
0.9219501 6.9466853 -2.0093963 97.559998
7.8102136 58.84819 5.538403 97.559998
1.0044577 7.5683608 -1.9986604 97.559998
7.805151 58.810043 6.9376812 97.559998
1.1053228 8.3283577 -1.9906486 97.559998
7.8081799 58.832863 8.3409224 97.559998
1.2248653 9.2290831 -1.9789035 97.559998
7.7857981 58.664227 9.7226915 97.559998
1.3712455 10.332024 -1.9637231 97.559998
1.5977516 11.770805 -1.9516068 97.730003
1.8618144 13.716184 -1.9453616 97.730003
2.190151 16.135073 -1.9041746 97.730003
2.577491 18.988649 -1.7877982 97.730003
3.4472857 25.396519 -1.7921833 97.730003
0.61389089 4.5225987 -2.0320563 97.730003
4.2331157 31.18581 -1.4676574 97.730003
0.65283537 4.8095074 -2.0273247 97.730003
0.69962811 5.1542344 -2.0311186 97.730003
7.9957867 58.905807 0 97.730003
0.74749058 5.5068421 -2.0227072 97.730003
7.9930949 58.885975 1.379696 97.730003
0.80431998 5.9255104 -2.0205784 97.730003
7.9981241 58.923027 2.7730181 97.730003
0.86438328 6.3680034 -2.0052929 97.730003
7.9967046 58.912571 4.1573462 97.730003
0.9415229 6.9362988 -2.0071912 97.730003
7.9968381 58.913555 5.5467634 97.730003
1.0266488 7.5634298 -1.9981539 97.730003
7.9854875 58.829929 6.9427919 97.730003
1.1300287 8.3250408 -1.9906486 97.730003
7.986968 58.840839 8.345376 97.730003
1.2525063 9.2273464 -1.9793193 97.730003
7.9653983 58.681934 9.7295008 97.730003
1.4016308 10.325962 -1.9633528 97.730003
1.6318555 11.760149 -1.950634 97.900002
1.9033195 13.716485 -1.9461967 97.900002
2.2393801 16.138342 -1.905336 97.900002
2.6343675 18.984863 -1.7881697 97.900002
3.5226233 25.386179 -1.7921833 97.900002
0.62780923 4.5243769 -2.0336833 97.900002
4.3269997 31.183008 -1.4681233 97.900002
0.66811717 4.8148608 -2.0304081 97.900002
0.71491796 5.1521358 -2.0311186 97.900002
8.1754761 58.917484 0 97.900002
0.76356804 5.5027385 -2.0220232 97.900002
8.1754723 58.917454 1.3809959 97.900002
0.82163733 5.9212213 -2.0199382 97.900002
8.1770353 58.928719 2.7744157 97.900002
0.88327372 6.3654108 -2.0052929 97.900002
8.1755791 58.918224 4.1594391 97.900002
0.96236336 6.935379 -2.0077424 97.900002
8.1751614 58.915211 5.5491786 97.900002
1.0493512 7.5622668 -1.9986604 97.900002
8.1709251 58.884682 6.9520841 97.900002
1.1549921 8.3235788 -1.9911097 97.900002
8.1724052 58.895351 8.3565092 97.900002
1.2790722 9.2177763 -1.9780718 97.900002
8.1446295 58.695183 9.7356615 97.900002
1.4325324 10.323705 -1.9637231 97.900002
1.6646897 11.755546 -1.950634 98.059998
1.9424487 13.716999 -1.9470317 98.059998
2.2841594 16.130058 -1.9051038 98.059998
2.6876521 18.979404 -1.7883556 98.059998
3.59462 25.384144 -1.7927414 98.059998
0.640185 4.5207973 -2.0328698 98.059998
4.4132218 31.164867 -1.4678438 98.059998
0.68000764 4.8020129 -2.0257831 98.059998
0.72721291 5.1353626 -2.0252988 98.059998
8.3405342 58.898384 0 98.059998
0.77972215 5.5061674 -2.0240753 98.059998
8.3466969 58.94191 1.38211 98.059998
0.83843493 5.9207797 -2.0205784 98.059998
8.3485661 58.955109 2.7767448 98.059998
0.90184891 6.3685904 -2.0070801 98.059998
8.3451138 58.930725 4.1619501 98.059998
0.98199636 6.9345679 -2.0082939 98.059998
8.3329506 58.84483 5.5447197 98.059998
1.0699224 7.5554757 -1.9976474 98.059998
8.3364439 58.869503 6.9530129 98.059998
1.1785042 8.3222485 -1.9915709 98.059998
8.3379507 58.880146 8.3576231 98.059998
1.3053566 9.2180424 -1.9789035 98.059998
8.3157005 58.723015 9.744091 98.059998
1.4602537 10.31188 -1.9622419 98.059998
1.7033801 11.748008 -1.9503098 98.25
1.9887779 13.716362 -1.9478667 98.25
2.3382063 16.126328 -1.9055684 98.25
2.7491467 18.960535 -1.7874266 98.25
3.6793497 25.376034 -1.7930204 98.25
0.65543514 4.5204577 -2.0336833 98.25
4.5194106 31.169834 -1.4687754 98.25
0.69672239 4.8052106 -2.0280955 98.25
0.74504042 5.138454 -2.0274813 98.25
8.5521603 58.983223 0 98.25
0.79743761 5.4998312 -2.0227072 98.25
8.5478477 58.95348 1.3830384 98.25
0.85888004 5.9235926 -2.0224991 98.25
8.5488958 58.960712 2.7783287 98.25
0.92296296 6.3655648 -2.0070801 98.25
8.5470734 58.948139 4.1651592 98.25
1.0049869 6.9312735 -2.0082939 98.25
8.5446138 58.931179 5.5554953 98.25
1.0955267 7.555716 -1.9986604 98.25
8.5384579 58.888718 6.9585881 98.25
1.2077708 8.3298502 -1.9943376 98.25
8.5377054 58.883533 8.3620768 98.25
1.3364791 9.217535 -1.9797351 98.25
8.5154848 58.730274 9.7499275 98.25
1.4958513 10.316707 -1.9640934 98.25
1.7393855 11.750711 -1.9516068 98.419998
2.0291762 13.708442 -1.9475883 98.419998
2.3874979 16.129145 -1.9067298 98.419998
2.8051 18.950325 -1.7872409 98.419998
3.7569628 25.380795 -1.7941365 98.419998
0.66857719 4.5166855 -2.0328698 98.419998
4.6165543 31.187908 -1.4702661 98.419998
