# .PCD v0.7 - Point Cloud Data file format
VERSION 0.7
FIELDS x y z intensity
SIZE 4 4 4 4
TYPE F F F F
COUNT 1 1 1 1
WIDTH 1151
HEIGHT 1
VIEWPOINT 0 0 0 1 0 0 0
POINTS 1151
DATA ascii
-6.4834709 -11.648499 -2.1902483 299.10001
-7.7451296 -13.915252 -2.2381818 299.10001
-9.8502264 -17.697365 -2.3685451 299.10001
-11.471469 -20.610163 -2.2006099 299.10001
-11.340882 -20.375544 -1.6306273 299.10001
-2.3031967 -4.1380277 -2.1085227 299.10001
-16.026787 -28.794453 -1.5367873 299.10001
-2.4601085 -4.4199424 -2.1128886 299.10001
-2.6302447 -4.7256174 -2.1118686 299.10001
-2.8242958 -5.0742579 -2.1136844 299.10001
-3.0501215 -5.4799871 -2.1191745 299.10001
-3.3083036 -5.9438486 -2.1226554 299.10001
-3.6137407 -6.4926109 -2.1306767 299.10001
-3.9567459 -7.1088696 -2.1298447 299.10001
-4.3944387 -7.8952479 -2.1409733 299.10001
-4.9102559 -8.8219881 -2.1460645 299.10001
-5.5697565 -10.006877 -2.1577625 299.10001
-6.5199342 -11.632653 -2.1908967 299.26999
-7.7921929 -13.902576 -2.239852 299.26999
-9.9104624 -17.681923 -2.3704035 299.26999
-11.422551 -20.379742 -2.1796165 299.26999
-11.512491 -20.540211 -1.6465318 299.26999
-2.3154643 -4.1311755 -2.1085227 299.26999
-2.467798 -4.4029646 -2.1082635 299.26999
-2.6397002 -4.7096667 -2.1082313 299.26999
-2.8384199 -5.0642161 -2.1130004 299.26999
-3.0654411 -5.4692602 -2.1185343 299.26999
-3.3249915 -5.9323411 -2.1220596 299.26999
-3.6207693 -6.4600582 -2.1235101 299.26999
-3.9768748 -7.0954103 -2.1293383 299.26999
-4.4178448 -7.8821745 -2.1409733 299.26999
-4.9364095 -8.8073807 -2.1460645 299.26999
-5.5975008 -9.9868784 -2.157022 299.26999
-6.5563602 -11.616694 -2.191545 299.44
-7.8314614 -13.875946 -2.2392952 299.44
-9.962882 -17.652439 -2.3704035 299.44
-11.483947 -20.347496 -2.1798022 299.44
-11.711654 -20.75095 -1.6662031 299.44
-2.3286095 -4.1258788 -2.1093361 299.44
-2.4844792 -4.4020519 -2.111347 299.44
-17.01647 -30.150133 -0.80378979 299.44
-2.657325 -4.7083035 -2.1111412 299.44
-2.8534334 -5.0557723 -2.1130004 299.44
-3.083518 -5.4634409 -2.1198146 299.44
-3.3435168 -5.9241123 -2.1226554 299.44
-3.6408656 -6.4509611 -2.1240613 299.44
-3.99791 -7.0835795 -2.1293383 299.44
-4.4364295 -7.860558 -2.1386678 299.44
-4.9615583 -8.7909918 -2.1456487 299.44
-5.631938 -9.9787846 -2.1588733 299.44
-6.5918474 -11.594324 -2.191221 299.62
-7.8808885 -13.861605 -2.2409654 299.62
-10.029089 -17.640049 -2.3729587 299.62
-11.532066 -20.283619 -2.1768296 299.62
-11.540127 -20.297796 -1.63272 299.62
-2.3424628 -4.120131 -2.1101496 299.62
-16.829546 -29.601294 -1.5879358 299.62
-2.4982965 -4.3942251 -2.111347 299.62
-16.934214 -29.785393 -0.79548037 299.62
-2.6711826 -4.6983128 -2.1104138 299.62
-2.8683734 -5.0451488 -2.1123164 299.62
-3.09973 -5.4520798 -2.1191745 299.62
-3.3602242 -5.9102597 -2.121464 299.62
-3.6573131 -6.432806 -2.1218565 299.62
-4.0182314 -7.0676208 -2.1283252 299.62
-4.4611025 -7.8465815 -2.1386678 299.62
-4.9920521 -8.7804632 -2.1468961 299.62
-5.6652021 -9.9644594 -2.1596141 299.62
-6.6232777 -11.569576 -2.1902483 299.79001
-7.9357576 -13.862224 -2.2448621 299.79001
-10.084345 -17.615387 -2.3736556 299.79001
-11.570433 -20.211294 -2.1727424 299.79001
-11.653827 -20.356966 -1.6402538 299.79001
-2.351954 -4.1084056 -2.1077092 299.79001
-16.686031 -29.147249 -1.566228 299.79001
-2.5049052 -4.3755817 -2.1059511 299.79001
-2.6841855 -4.6887493 -2.1096864 299.79001
-2.8833301 -5.0366163 -2.1123164 299.79001
-3.1140103 -5.43957 -2.1178939 299.79001
-3.3758483 -5.8969498 -2.1202724 299.79001
-3.6773386 -6.4235945 -2.1224077 299.79001
-4.0420675 -7.0607047 -2.1298447 299.79001
-4.4853306 -7.8349996 -2.1391289 299.79001
-5.0171103 -8.7639151 -2.1464803 299.79001
-5.6966953 -9.9510174 -2.1603546 299.79001
-6.662457 -11.563005 -2.1925178 299.95001
-7.9734488 -13.838293 -2.2445838 299.95001
-10.139447 -17.597485 -2.3750496 299.95001
-11.564196 -20.070202 -2.1610379 299.95001
-11.761428 -20.412508 -1.6473689 299.95001
-2.3670664 -4.1081543 -2.1109631 299.95001
-16.816235 -29.18536 -1.5707932 299.95001
-2.5143504 -4.3637724 -2.1036384 299.95001
-2.6981986 -4.6828499 -2.1104138 299.95001
-2.8983219 -5.0301733 -2.1130004 299.95001
-3.1291883 -5.4308529 -2.1178939 299.95001
-3.3903961 -5.884191 -2.119081 299.95001
-3.6933427 -6.4099689 -2.121305 299.95001
-4.0598369 -7.0460367 -2.1288316 299.95001
-4.5042782 -7.8173852 -2.1377454 299.95001
-5.041564 -8.7498703 -2.1464803 299.95001
-5.718574 -9.9248533 -2.1581328 299.95001
-6.6957784 -11.536898 -2.191545 300.13
-8.002965 -13.789194 -2.2406869 300.13
-10.193684 -17.563826 -2.3748171 300.13
-11.569215 -19.93388 -2.1502626 300.13
-11.749385 -20.244314 -1.636766 300.13
-2.3762922 -4.0943766 -2.1077092 300.13
-16.824604 -28.988972 -1.5630603 300.13
-2.5298998 -4.3590441 -2.1051803 300.13
-2.7119617 -4.6727386 -2.1096864 300.13
-2.9141104 -5.0210433 -2.1130004 300.13
-3.1462345 -5.4209952 -2.1178939 300.13
-3.4126985 -5.880116 -2.121464 300.13
-3.7115319 -6.3950086 -2.1202025 300.13
-4.0829239 -7.0349212 -2.1293383 300.13
-4.5288148 -7.803196 -2.1377454 300.13
-5.0690279 -8.7339888 -2.1464803 300.13
-5.7507124 -9.9085388 -2.1585031 300.13
-6.7289839 -11.515276 -2.191221 300.29999
-8.0448427 -13.767098 -2.2409654 300.29999
-10.247756 -17.536934 -2.3752818 300.29999
-11.456506 -19.605461 -2.1184936 300.29999
-11.89194 -20.350616 -1.648206 300.29999
-2.3884301 -4.0873079 -2.1077092 300.29999
-16.886351 -28.897526 -1.5608243 300.29999
-2.5437534 -4.3531122 -2.1059511 300.29999
-2.7229943 -4.6598463 -2.1075039 300.29999
-2.9289954 -5.0123749 -2.1130004 300.29999
-3.1613491 -5.4100003 -2.1172538 300.29999
-3.4253139 -5.8617225 -2.1184852 300.29999
-3.7295198 -6.3823085 -2.1196513 300.29999
-4.1008506 -7.0177646 -2.1278186 300.29999
-4.5519471 -7.7897243 -2.1377454 300.29999
-5.0929456 -8.7155323 -2.1456487 300.29999
-5.783061 -9.8965225 -2.1596141 300.29999
-6.762115 -11.498141 -2.191545 300.45999
-8.0963078 -13.766772 -2.2445838 300.45999
-10.313807 -17.537357 -2.379231 300.45999
-11.473859 -19.50988 -2.1116195 300.45999
-11.502694 -19.55891 -1.5866808 300.45999
-2.4007609 -4.0821972 -2.1085227 300.45999
-16.886972 -28.714212 -1.5534642 300.45999
-2.5568352 -4.3475823 -2.1067219 300.45999
-2.7388296 -4.6570415 -2.1096864 300.45999
-2.9420283 -5.0025558 -2.1123164 300.45999
-3.1754837 -5.399518 -2.1166136 300.45999
-3.4426374 -5.8537798 -2.119081 300.45999
-3.7541502 -6.3834691 -2.1235101 300.45999
-4.1184702 -7.0029497 -2.1268058 300.45999
-4.5717096 -7.7736273 -2.1368232 300.45999
-5.1212311 -8.7080212 -2.1473119 300.45999
-5.8096786 -9.8786411 -2.1592438 300.45999
-6.799201 -11.473956 -2.191221 300.64999
-8.1429253 -13.741552 -2.2448621 300.64999
-10.367856 -17.496223 -2.3783016 300.64999
-11.485704 -19.382641 -2.1019588 300.64999
-11.623431 -19.615061 -1.5943539 300.64999
-2.4114904 -4.0694981 -2.1060824 300.64999
-16.511562 -27.864004 -1.510421 300.64999
-2.5702975 -4.337492 -2.1059511 300.64999
-2.7514086 -4.6431255 -2.1075039 300.64999
-2.957643 -4.9911556 -2.1116323 300.64999
-3.1972353 -5.3954782 -2.1191745 300.64999
-3.4610569 -5.8406892 -2.1184852 300.64999
-3.774318 -6.3693309 -2.1229589 300.64999
-4.1406837 -6.9875894 -2.1262991 300.64999
-4.5964704 -7.7567501 -2.1363621 300.64999
-5.1440959 -8.6808929 -2.1448171 300.64999
-5.8454113 -9.8643932 -2.1603546 300.64999
-6.8322039 -11.452038 -2.1908967 300.82001
-8.1877203 -13.724134 -2.2459755 300.82001
-10.431936 -17.485855 -2.3810892 300.82001
-11.524798 -19.317694 -2.0986147 300.82001
-12.012768 -20.135622 -1.6395562 300.82001
-2.4263625 -4.0670323 -2.1085227 300.82001
-16.899189 -28.326168 -1.5381848 300.82001
-2.5869377 -4.3361864 -2.1090343 300.82001
-2.768991 -4.6413412 -2.1104138 300.82001
-2.9714763 -4.9807439 -2.1109483 300.82001
-3.2103179 -5.3810863 -2.1172538 300.82001
-3.470546 -5.8172774 -2.1137192 300.82001
-3.7912295 -6.3548021 -2.1218565 300.82001
-4.1613979 -6.9752731 -2.1262991 300.82001
-4.6184678 -7.7414069 -2.135901 300.82001
-5.1708322 -8.6672716 -2.1452329 300.82001
-5.8726397 -9.8436308 -2.1596141 300.82001
-6.8661523 -11.431716 -2.1908967 300.98999
-8.2294245 -13.701479 -2.246254 300.98999
-10.481726 -17.45142 -2.3806248 300.98999
-11.52157 -19.182695 -2.0876534 300.98999
-11.89166 -19.798872 -1.6150019 300.98999
-2.4355967 -4.0551167 -2.1060824 300.98999
-2.5959911 -4.3221636 -2.1059511 300.98999
-2.7779536 -4.6251197 -2.1067765 300.98999
-2.9901121 -4.9783502 -2.1136844 300.98999
-3.2233429 -5.3666649 -2.1153331 300.98999
-3.4848418 -5.8020444 -2.111932 300.98999
-3.809078 -6.341877 -2.121305 300.98999
-4.1810794 -6.9612365 -2.1257927 300.98999
-4.6344023 -7.715991 -2.1326733 300.98999
-5.1955185 -8.6502142 -2.1448171 300.98999
-5.9008083 -9.8244781 -2.1592438 300.98999
-6.8979983 -11.407915 -2.1902483 301.16
-8.2720909 -13.68039 -2.2468104 301.16
-10.540654 -17.432142 -2.3822508 301.16
-11.599043 -19.182507 -2.0913689 301.16
-15.15886 -25.069735 -2.0486081 301.16
-2.4485631 -4.0494356 -2.1068959 301.16
-16.912954 -27.970659 -1.5243028 301.16
-2.606894 -4.3112836 -2.1044092 301.16
-16.89884 -27.947315 -0.75825024 301.16
-2.7935925 -4.6200452 -2.1082313 301.16
-3.0038974 -4.9678478 -2.1130004 301.16
-3.2392519 -5.3570771 -2.1153331 301.16
-3.49809 -5.7851443 -2.109549 301.16
-3.8298674 -6.333838 -2.1224077 301.16
-4.2007146 -6.947145 -2.1252861 301.16
-4.6653318 -7.7155294 -2.1363621 301.16
-5.220149 -8.6330862 -2.1444011 301.16
-5.9289155 -9.8052454 -2.1588733 301.16
-6.9358563 -11.38956 -2.1908967 301.34
-8.319149 -13.661102 -2.2479239 301.34
-10.608798 -17.420998 -2.3852708 301.34
-11.568105 -18.996302 -2.0750201 301.34
-14.86501 -24.41024 -1.998523 301.34
-2.4603224 -4.0401626 -2.1060824 301.34
-2.6194656 -4.301496 -2.1036384 301.34
-2.8090618 -4.6128373 -2.1089587 301.34
-3.0224221 -4.963202 -2.1150525 301.34
-3.259022 -5.3517294 -2.1172538 301.34
-3.5192263 -5.7790179 -2.1113362 301.34
-3.8487468 -6.3201327 -2.1218565 301.34
-4.2215123 -6.932261 -2.1247797 301.34
-4.6844869 -7.692524 -2.1340566 301.34
-5.2502971 -8.6216574 -2.1456487 301.34
-5.9586678 -9.7848921 -2.1585031 301.34
-6.9686661 -11.371829 -2.191221 301.5
-8.3624392 -13.64626 -2.2493157 301.5
-10.661557 -17.398081 -2.3862 301.5
-11.046763 -18.026678 -1.9724673 301.5
-13.590441 -22.177584 -1.8188303 301.5
-2.4725497 -4.0348344 -2.1068959 301.5
-2.6343601 -4.2988849 -2.1059511 301.5
-2.8229058 -4.6065636 -2.1096864 301.5
-3.0333242 -4.949935 -2.1130004 301.5
-3.2699943 -5.3361454 -2.1146929 301.5
-3.5333555 -5.7659121 -2.1101446 301.5
-3.8673854 -6.3109994 -2.1224077 301.5
-4.2418652 -6.9220953 -2.1252861 301.5
-4.7069669 -7.6810718 -2.1345177 301.5
-5.2723088 -8.6036263 -2.1448171 301.5
-5.990077 -9.7749166 -2.1599844 301.5
-7.0012479 -11.344842 -2.1902483 301.67999
-8.4063091 -13.621608 -2.249594 301.67999
-10.716162 -17.3645 -2.3862 301.67999
-11.182822 -18.120678 -1.9865869 301.67999
-13.642235 -22.105915 -1.8164586 301.67999
-2.481375 -4.0208273 -2.103642 301.67999
-22.208607 -35.986889 -1.9720628 301.67999
-2.6430066 -4.2827353 -2.1020968 301.67999
-2.8314934 -4.58816 -2.1053214 301.67999
-3.0498469 -4.9419804 -2.1136844 301.67999
-3.2897272 -5.3306832 -2.1166136 301.67999
-3.5544603 -5.7596574 -2.111932 301.67999
-3.8861833 -6.2971826 -2.1218565 301.67999
-4.2595263 -6.9021487 -2.1232603 301.67999
-4.7331185 -7.6695585 -2.1354399 301.67999
-5.2993116 -8.5870199 -2.1448171 301.67999
-6.0186915 -9.7527056 -2.1592438 301.67999
-7.0378957 -11.324468 -2.1905725 301.85999
-8.4563789 -13.606906 -2.2515423 301.85999
-10.778001 -17.342558 -2.387826 301.85999
-11.28174 -18.153111 -1.9940183 301.85999
-13.661065 -21.981611 -1.809762 301.85999
-2.4949591 -4.014564 -2.1044555 301.85999
-20.971735 -33.744991 -1.8528092 301.85999
-2.6574221 -4.2759786 -2.1028676 301.85999
-2.8458934 -4.5792418 -2.1053214 301.85999
-3.0633733 -4.9291825 -2.1123164 301.85999
-3.3024573 -5.3138852 -2.1140525 301.85999
-3.5705216 -5.7452192 -2.1107404 301.85999
-3.9039178 -6.2816768 -2.1207538 301.85999
-4.2822104 -6.8903766 -2.1237667 301.85999
-4.7551351 -7.6513457 -2.1345177 301.85999
-5.3210993 -8.5620213 -2.1427379 301.85999
-6.0503383 -9.7354183 -2.1596141 301.85999
-7.0726314 -11.30979 -2.191545 302.01999
-8.4953938 -13.584918 -2.2518208 302.01999
-10.835868 -17.327551 -2.3899167 302.01999
-11.372511 -18.185694 -2.0010781 302.01999
-12.909969 -20.64423 -1.702616 302.01999
-2.5013163 -3.9998353 -2.1003881 302.01999
-21.113556 -33.76252 -1.8570018 302.01999
-2.670331 -4.2701054 -2.1036384 302.01999
-2.85867 -4.5712767 -2.1053214 302.01999
-3.0771263 -4.9206085 -2.1123164 302.01999
-3.3172834 -5.3046422 -2.1140525 302.01999
-3.5865514 -5.7352262 -2.1107404 302.01999
-3.9224637 -6.2723808 -2.121305 302.01999
-4.2983575 -6.8734698 -2.1222472 302.01999
-4.7744193 -7.6347365 -2.1335955 302.01999
-5.3460255 -8.5487871 -2.1431537 302.01999
-6.0775013 -9.7184849 -2.1596141 302.01999
-7.109045 -11.284604 -2.191221 302.20999
-8.54673 -13.566726 -2.2534909 302.20999
-10.930327 -17.350349 -2.3980472 302.20999
-11.342532 -18.004665 -1.9852865 302.20999
-15.448753 -24.522713 -2.0267045 302.20999
-2.5165143 -3.9946105 -2.102015 302.20999
-17.324705 -27.500519 -1.5157316 302.20999
-2.686444 -4.2643499 -2.1051803 302.20999
-2.8718271 -4.5586195 -2.1038663 302.20999
-3.0904214 -4.9056072 -2.1102643 302.20999
-3.334856 -5.2936125 -2.1140525 302.20999
-3.6045327 -5.7216859 -2.1101446 302.20999
-3.9422171 -6.2577124 -2.1207538 302.20999
-4.3231897 -6.8624525 -2.1232603 302.20999
-4.7997108 -7.6188622 -2.1335955 302.20999
-5.3764305 -8.5343227 -2.1439853 302.20999
-6.1117907 -9.7016029 -2.1603546 302.20999
-7.1396203 -11.267621 -2.191545 302.35999
-8.5875187 -13.552669 -2.2548826 302.35999
-10.98103 -17.330065 -2.3992088 302.35999
-11.215897 -17.700727 -1.9550036 302.35999
-15.426404 -24.345675 -2.015404 302.35999
-2.5259855 -3.9864652 -2.1012015 302.35999
-2.6946354 -4.2526255 -2.1028676 302.35999
-2.885746 -4.5542326 -2.1053214 302.35999
-3.1052656 -4.9006743 -2.1116323 302.35999
-3.3497174 -5.2864642 -2.1146929 302.35999
-3.617456 -5.7090044 -2.1089532 302.35999
-3.9575572 -6.2457461 -2.1202025 302.35999
-4.3390698 -6.8478422 -2.1222472 302.35999
-4.815474 -7.5996952 -2.1317508 302.35999
-5.3977075 -8.5185661 -2.1435695 302.35999
-6.1329603 -9.6789284 -2.1588733 302.35999
-7.1769457 -11.243883 -2.191545 302.54999
-8.6281519 -13.517439 -2.2537692 302.54999
-11.014924 -17.256718 -2.3940983 302.54999
-11.291676 -17.690294 -1.9579762 302.54999
-13.031677 -20.416298 -1.6936872 302.54999
-2.5401742 -3.9796069 -2.102015 302.54999
-17.106001 -26.799404 -1.4826573 302.54999
-2.7087228 -4.2436662 -2.1028676 302.54999
-2.8988278 -4.5414977 -2.1038663 302.54999
-3.1204884 -4.8887658 -2.1109483 302.54999
-3.3621323 -5.2673411 -2.1114917 302.54999
-3.6343133 -5.6937585 -2.1077616 302.54999
-3.9689376 -6.2180033 -2.1152411 302.54999
-4.360713 -6.8317847 -2.1217406 302.54999
-4.8437901 -7.5886059 -2.1331344 302.54999
-5.4217162 -8.4940233 -2.1419063 302.54999
-6.1639657 -9.6568813 -2.1585031 302.54999
-7.2102752 -11.222539 -2.191545 302.72
-8.6799965 -13.510108 -2.2568309 302.72
-11.041381 -17.18552 -2.3887553 302.72
-11.389322 -17.727077 -1.9657792 302.72
-13.28955 -20.684715 -1.719218 302.72
-2.5480204 -3.965904 -2.0987611 302.72
-17.782621 -27.678024 -1.5341786 302.72
-2.7183094 -4.2309527 -2.1005552 302.72
-2.9153109 -4.5375786 -2.1060488 302.72
-3.13498 -4.8794856 -2.1109483 302.72
-3.3808186 -5.262125 -2.1134124 302.72
-3.653255 -5.6861625 -2.1089532 302.72
-3.9946437 -6.2175221 -2.1191001 302.72
-4.3809643 -6.8188162 -2.1217406 302.72
-4.8652329 -7.5725632 -2.1326733 302.72
-5.4490094 -8.4811916 -2.1427379 302.72
-6.1957784 -9.6435108 -2.1596141 302.72
-7.2426577 -11.204018 -2.1918693 302.88
-8.7166147 -13.484154 -2.2565527 302.88
-11.086094 -17.149614 -2.3880584 302.88
-11.147974 -17.24534 -1.9158033 302.88
-13.263861 -20.518509 -1.7084756 302.88
-2.5600772 -3.9603074 -2.0995746 302.88
-17.106058 -26.462191 -1.4694276 302.88
-2.7321177 -4.2264452 -2.1020968 302.88
-24.287395 -37.571346 -1.0386831 302.88
-2.9269595 -4.5278554 -2.1053214 302.88
-3.1455331 -4.8659773 -2.1088963 302.88
-3.3934426 -5.2494807 -2.1121318 302.88
-3.6670465 -5.6727319 -2.1077616 302.88
-4.0088596 -6.201499 -2.1174462 302.88
-4.3978882 -6.8033061 -2.1207275 302.88
-4.8810778 -7.5507755 -2.1303675 302.88
-5.4726725 -8.4659414 -2.1427379 302.88
-6.2194829 -9.6212196 -2.1585031 302.88
-7.2776179 -11.176631 -2.191221 303.07001
-8.763443 -13.458493 -2.2571094 303.07001
-11.149406 -17.122746 -2.3894522 303.07001
-11.469118 -17.613745 -1.4697689 303.07001
-2.574193 -3.9533272 -2.1003881 303.07001
-2.7441041 -4.2142687 -2.1005552 303.07001
-24.391123 -37.458763 -1.037801 303.07001
-2.9439914 -4.5212469 -2.1067765 303.07001
-3.1626773 -4.8570943 -2.1095803 303.07001
-3.4108319 -5.2381988 -2.1121318 303.07001
-3.6837542 -5.6573405 -2.1065702 303.07001
-4.0283532 -6.1865602 -2.116895 303.07001
-4.4193687 -6.7870631 -2.1202211 303.07001
-4.9060903 -7.5345478 -2.1303675 303.07001
-5.502851 -8.451026 -2.1435695 303.07001
-6.2513537 -9.6005421 -2.1585031 303.07001
-7.3107476 -11.154989 -2.191221 303.23999
-8.8065939 -13.437402 -2.2579443 303.23999
-11.187096 -17.069653 -2.3866646 303.23999
-11.224454 -17.126656 -1.9104155 303.23999
-11.665688 -17.799904 -1.4881846 303.23999
-2.5869129 -3.9472003 -2.1012015 303.23999
-21.151941 -32.274357 -1.7995178 303.23999
-2.7565958 -4.2061086 -2.1005552 303.23999
-2.9573932 -4.5124917 -2.1067765 303.23999
-3.1760445 -4.8461175 -2.1088963 303.23999
-3.4273975 -5.2296405 -2.1127722 303.23999
-3.7015703 -5.6479826 -2.1071661 303.23999
-4.0509067 -6.1810122 -2.1191001 303.23999
-4.439487 -6.773921 -2.1202211 303.23999
-4.9369583 -7.5329795 -2.1340566 303.23999
-5.5214677 -8.4248438 -2.1410747 303.23999
-6.2765799 -9.5770197 -2.1573923 303.23999
-7.3459864 -11.136543 -2.1918693 303.41
-8.8496962 -13.416173 -2.2587795 303.41
-11.212535 -16.998245 -2.3813217 303.41
-11.360746 -17.222935 -1.9249067 303.41
-11.764589 -17.835161 -1.4940442 303.41
-2.5955949 -3.9349318 -2.0987611 303.41
-2.7700796 -4.1994514 -2.101326 303.41
-24.529305 -37.18652 -1.034273 303.41
-2.9676917 -4.4990315 -2.104594 303.41
-3.1893744 -4.8351035 -2.1082122 303.41
-3.4387259 -5.2131214 -2.1102111 303.41
-3.7172606 -5.6353812 -2.1065702 303.41
-4.0681701 -6.1673608 -2.1185486 303.41
-4.4521084 -6.749413 -2.1166756 303.41
-4.9571443 -7.5150495 -2.1331344 303.41
-5.5529037 -8.4182224 -2.1435695 303.41
-6.3103786 -9.5665579 -2.1592438 303.41
-7.3800883 -11.116343 -2.1921935 303.57999
-8.8894634 -13.389856 -2.2587795 303.57999
-11.205788 -16.878845 -2.369242 303.57999
-11.512027 -17.340122 -1.941813 303.57999
-11.829594 -17.81846 -1.4955788 303.57999
-2.6072588 -3.9272132 -2.0987611 303.57999
-17.093256 -25.74691 -1.4411981 303.57999
-2.7835484 -4.1927514 -2.1020968 303.57999
-24.635107 -37.106911 -1.0340873 303.57999
-2.9799969 -4.4886546 -2.1038663 303.57999
-3.204746 -4.8271852 -2.1088963 303.57999
-3.4541783 -5.2028956 -2.1102111 303.57999
-3.7360766 -5.6275082 -2.1077616 303.57999
-4.0864511 -6.1552634 -2.1185486 303.57999
-4.467834 -6.7297263 -2.1146495 303.57999
-4.985878 -7.510036 -2.135901 303.57999
-5.5756922 -8.3984499 -2.1427379 303.57999
-6.335474 -9.5428801 -2.1581328 303.57999
-7.4130387 -11.094397 -2.1921935 303.75
-8.9379559 -13.376595 -2.2610061 303.75
-11.186291 -16.741467 -2.3546069 303.75
-11.242588 -16.825722 -1.8879356 303.75
-11.933398 -17.859592 -1.5019964 303.75
-2.6209297 -3.9224985 -2.1003881 303.75
-11.377935 -17.028284 -0.95505339 303.75
-2.7959762 -4.184474 -2.1020968 303.75
-2.9984772 -4.4875383 -2.1075039 303.75
-3.2200985 -4.8192177 -2.1095803 303.75
-3.4685478 -5.1910486 -2.109571 303.75
-3.7485144 -5.6100483 -2.1053786 303.75
-4.1057639 -6.1447101 -2.1191001 303.75
-4.4888568 -6.718049 -2.1151562 303.75
-5.0038142 -7.4887371 -2.1340566 303.75
-5.5994997 -8.3802433 -2.1423221 303.75
-6.3659444 -9.5273094 -2.1588733 303.75
-7.445653 -11.067778 -2.191545 303.92999
-8.9854631 -13.356667 -2.262398 303.92999
-11.195587 -16.641962 -2.3455472 303.92999
-11.384315 -16.922501 -1.9027984 303.92999
-11.894787 -17.681305 -1.4901378 303.92999
-2.6311998 -3.9112132 -2.0987611 303.92999
-21.60375 -32.113438 -1.8049215 303.92999
-2.8070481 -4.1726069 -2.1005552 303.92999
-25.09346 -37.300804 -1.043743 303.92999
-3.0115204 -4.4765501 -2.1067765 303.92999
-3.2341735 -4.8075185 -2.1088963 303.92999
-3.486954 -5.1832705 -2.1108515 303.92999
-3.7639892 -5.5950761 -2.1041873 303.92999
-4.1175361 -6.120615 -2.1152411 303.92999
-4.5131798 -6.7087297 -2.1166756 303.92999
-5.0294886 -7.4762096 -2.1349788 303.92999
-5.6268911 -8.364234 -2.1427379 303.92999
-6.3925529 -9.5023708 -2.1577625 303.92999
-7.476531 -11.046943 -2.191545 304.09
-9.0327168 -13.346285 -2.2649031 304.09
-11.208614 -16.561279 -2.3385782 304.09
-11.482869 -16.966505 -1.9113444 304.09
-11.582919 -17.114334 -1.4450752 304.09
-2.6421118 -3.9038503 -2.0987611 304.09
-11.765444 -17.384024 -0.97890413 304.09
-2.8186891 -4.164752 -2.1005552 304.09
-24.778387 -36.61129 -1.0263814 304.09
-3.0250537 -4.469666 -2.1075039 304.09
-3.2433724 -4.7922425 -2.1061599 304.09
-3.5014148 -5.1735129 -2.1108515 304.09
-3.781739 -5.5877056 -2.1053786 304.09
-4.1378446 -6.1138692 -2.116895 304.09
-4.5275588 -6.6896911 -2.1146495 304.09
-5.0459833 -7.455689 -2.1331344 304.09
-5.6502266 -8.3484879 -2.1427379 304.09
-6.4190636 -9.4844818 -2.1577625 304.09
-7.5089765 -11.020138 -2.1908967 304.26999
-9.0790625 -13.324389 -2.2660165 304.26999
-11.230387 -16.481661 -2.3323059 304.26999
-11.460985 -16.820087 -1.8988969 304.26999
-11.888279 -17.447182 -1.476326 304.26999
-2.6533341 -3.8940208 -2.0979476 304.26999
-19.236889 -28.231968 -1.5931532 304.26999
-2.8276024 -4.149776 -2.0974717 304.26999
-25.432581 -37.324738 -1.0486172 304.26999
-3.0380316 -4.458601 -2.1067765 304.26999
-3.25947 -4.7835827 -2.1068442 304.26999
-3.5155168 -5.1593556 -2.109571 304.26999
-3.7960494 -5.571064 -2.1035914 304.26999
-4.1527014 -6.0944848 -2.1146898 304.26999
-4.5485525 -6.6754346 -2.1146495 304.26999
-5.0770521 -7.4510574 -2.1363621 304.26999
-5.6753244 -8.3290796 -2.1423221 304.26999
-6.4488282 -9.4642696 -2.1577625 304.26999
-7.5457926 -10.999748 -2.191545 304.45001
-9.116396 -13.289268 -2.2649031 304.45001
-11.239408 -16.384052 -2.3234785 304.45001
-11.15555 -16.261808 -1.8398176 304.45001
-2.6655545 -3.8856659 -2.0979476 304.45001
-19.400078 -28.280125 -1.5993022 304.45001
-2.8416693 -4.1423941 -2.0982425 304.45001
-25.261292 -36.824211 -1.0367798 304.45001
-3.0541315 -4.452107 -2.1082313 304.45001
-3.2734189 -4.7717695 -2.1061599 304.45001
-3.5295644 -5.1451612 -2.1082904 304.45001
-3.8135326 -5.5591111 -2.1035914 304.45001
-4.1718273 -6.0814085 -2.1146898 304.45001
-4.5684071 -6.6595163 -2.1141431 304.45001
-5.0960317 -7.4286513 -2.1345177 304.45001
-5.7003565 -8.3095951 -2.1419063 304.45001
-6.479641 -9.4455843 -2.1581328 304.45001
-7.5772753 -10.975687 -2.191221 304.62
-9.1602859 -13.26868 -2.2660165 304.62
-11.237185 -16.277069 -2.313025 304.62
-11.078171 -16.046736 -1.8191956 304.62
-11.647786 -16.871824 -1.433635 304.62
-2.679148 -3.8807471 -2.0995746 304.62
-11.962066 -17.327059 -0.98188549 304.62
-2.8539476 -4.1339445 -2.0982425 304.62
-25.322731 -36.679989 -1.0348301 304.62
-3.0620356 -4.43536 -2.104594 304.62
-3.2886302 -4.7635827 -2.1068442 304.62
-3.5448148 -5.134666 -2.1082904 304.62
-3.8278408 -5.5446291 -2.1024001 304.62
-4.1887603 -6.0674214 -2.1141386 304.62
-4.5881462 -6.6459322 -2.1141431 304.62
-5.115839 -7.4102955 -2.1335955 304.62
-5.7283206 -8.2974758 -2.1431537 304.62
-6.5087543 -9.4279346 -2.1585031 304.62
-7.6117191 -10.951828 -2.191221 304.79999
-9.2053165 -13.244715 -2.2668514 304.79999
-11.24065 -16.173176 -2.3032684 304.79999
-11.211492 -16.131224 -1.8327578 304.79999
-11.811182 -16.994064 -1.4471678 304.79999
-2.6892409 -3.8693104 -2.0979476 304.79999
-16.959156 -24.401028 -1.3857638 304.79999
-2.8658674 -4.1234426 -2.0974717 304.79999
-3.0791442 -4.4303079 -2.1067765 304.79999
-3.3035793 -4.7532277 -2.1068442 304.79999
-3.563091 -5.126616 -2.109571 304.79999
-3.84742 -5.5357118 -2.1035914 304.79999
-4.2078009 -6.0542321 -2.1141386 304.79999
-4.6112108 -6.6346631 -2.1151562 304.79999
-5.1390939 -7.394187 -2.1335955 304.79999
-5.7510104 -8.2746191 -2.1419063 304.79999
-6.5360975 -9.404212 -2.1577625 304.79999
-7.6453114 -10.930813 -2.191545 304.97
-9.249115 -13.223836 -2.2679648 304.97
-11.239631 -16.069757 -2.2932794 304.97
-11.630239 -16.628227 -1.8931377 304.97
-14.242325 -20.362831 -1.7376337 304.97
-2.7017567 -3.8628116 -2.0987611 304.97
-16.975374 -24.270384 -1.3811986 304.97
-2.8791471 -4.1164336 -2.0982425 304.97
-3.0880046 -4.4150457 -2.1038663 304.97
-3.3176677 -4.7434049 -2.1068442 304.97
-3.5685124 -5.1020479 -2.1038089 304.97
-3.8583565 -5.5164495 -2.1006126 304.97
-4.2246437 -6.0401454 -2.1135871 304.97
-4.6275492 -6.6161957 -2.1136365 304.97
-5.1632409 -7.3820958 -2.1345177 304.97
-5.7766576 -8.2591219 -2.1423221 304.97
-6.5617189 -9.3815565 -2.157022 304.97
-7.679213 -10.914263 -2.1925178 305.13
-9.2962637 -13.212534 -2.2704699 305.13
-11.239882 -15.974948 -2.2842197 305.13
-11.289318 -16.04521 -1.8303427 305.13
-11.810131 -16.785427 -1.4351697 305.13
-2.712533 -3.8552518 -2.0987611 305.13
-16.997099 -24.157528 -1.3774719 305.13
-2.8885071 -4.1053591 -2.0967009 305.13
-3.1024656 -4.4094524 -2.1053214 305.13
-3.3276565 -4.7295103 -2.1047919 305.13
-3.5871074 -5.0982614 -2.1063697 305.13
-3.8759437 -5.5087762 -2.1018043 305.13
-4.2414947 -6.0283246 -2.1135871 305.13
-4.6448936 -6.601665 -2.1131301 305.13
-5.1815958 -7.3644652 -2.1335955 305.13
-5.7996988 -8.242959 -2.1423221 305.13
-6.5912843 -9.3680182 -2.1581328 305.13
-7.7134633 -10.890084 -2.1925178 305.31
-9.3365812 -13.181647 -2.2701917 305.31
-11.245234 -15.876338 -2.2751598 305.31
-11.277515 -15.921913 -1.8203104 305.31
-14.388279 -20.313776 -1.740703 305.31
-2.7235754 -3.8452201 -2.0979476 305.31
-19.430897 -27.433086 -1.5677186 305.31
-2.9013903 -4.0962644 -2.0967009 305.31
-3.116303 -4.3996844 -2.1053214 305.31
-3.3446708 -4.7221003 -2.1061599 305.31
-3.6009159 -5.0838742 -2.1050894 305.31
-3.8899202 -5.4918985 -2.1000168 305.31
-4.2604122 -6.0149698 -2.1135871 305.31
-4.6723204 -6.5965133 -2.1161692 305.31
-5.2047062 -7.3481507 -2.1335955 305.31
-5.8199124 -8.2167158 -2.1402431 305.31
-6.6195464 -9.3456612 -2.1577625 305.31
-7.7495699 -10.876538 -2.194139 305.47
-9.38025 -13.165201 -2.2718618 305.47
-11.241112 -15.776925 -2.2654033 305.47
-11.373933 -15.96334 -1.8286706 305.47
-14.442634 -20.270267 -1.740424 305.47
-2.7353628 -3.8390875 -2.0987611 305.47
-19.618721 -27.534916 -1.5766627 305.47
-2.9128177 -4.0881462 -2.0967009 305.47
-3.127496 -4.3894472 -2.104594 305.47
-3.3556633 -4.7096806 -2.1047919 305.47
-3.6161983 -5.0753422 -2.1057296 305.47
-3.9041333 -5.4794598 -2.0994213 305.47
-4.2738457 -5.9983516 -2.1119335 305.47
-4.6884775 -6.5802884 -2.1151562 305.47
-5.2252059 -7.3335876 -2.1335955 305.47
-5.8496461 -8.2099905 -2.1427379 305.47
-6.6433372 -9.3239384 -2.157022 305.47
-7.7841067 -10.856705 -2.1947875 305.64001
-9.4192705 -13.137312 -2.2718618 305.64001
-11.245047 -15.68377 -2.256808 305.64001
-11.460699 -15.984547 -1.8349873 305.64001
-12.020686 -16.765575 -1.4425639 305.64001
-2.7467415 -3.8309546 -2.0987611 305.64001
-19.512909 -27.215183 -1.5616628 305.64001
-2.9249346 -4.0794854 -2.0967009 305.64001
-3.138335 -4.3771205 -2.1031389 305.64001
-3.3707175 -4.7012305 -2.1054759 305.64001
-3.6323452 -5.0661302 -2.1063697 305.64001
-3.9192615 -5.4663 -2.0988255 305.64001
-4.2916245 -5.9856448 -2.1119335 305.64001
-4.7057261 -6.5632038 -2.1141431 305.64001
-5.246942 -7.3180518 -2.1335955 305.64001
-5.8751197 -8.1941881 -2.1431537 305.64001
-6.6732631 -9.3073807 -2.1577625 305.64001
-7.8204856 -10.835397 -2.195436 305.82001
-9.4709282 -13.122108 -2.2743669 305.82001
-11.257061 -15.596822 -2.2493744 305.82001
-11.43161 -15.838662 -1.822354 305.82001
-15.820223 -21.919149 -1.8902609 305.82001
-2.757694 -3.8208251 -2.0979476 305.82001
-19.647419 -27.221785 -1.5655758 305.82001
-2.9334161 -4.064291 -2.0936174 305.82001
-3.1520705 -4.3672395 -2.1031389 305.82001
-3.38657 -4.692142 -2.1061599 305.82001
-3.6537874 -5.0623755 -2.109571 305.82001
-3.9431193 -5.4632492 -2.1024001 305.82001
-4.3070321 -5.9674559 -2.1102796 305.82001
-4.7240572 -6.5452499 -2.1131301 305.82001
-5.2699065 -7.3015323 -2.1335955 305.82001
-5.8928194 -8.164587 -2.1402431 305.82001
-6.6990194 -9.2815895 -2.1566515 305.82001
-7.8502812 -10.808951 -2.1947875 305.98999
-9.5098209 -13.09395 -2.2743669 305.98999
-11.265933 -15.51192 -2.2419407 305.98999
-11.876425 -16.352497 -1.8855205 305.98999
-15.921534 -21.922155 -1.8945858 305.98999
-2.766871 -3.8096693 -2.0963206 305.98999
-12.197987 -16.795252 -0.96800363 305.98999
-2.9530537 -4.0660219 -2.0990133 305.98999
-3.1661093 -4.3593755 -2.1038663 305.98999
-3.3971639 -4.6775112 -2.1041079 305.98999
-3.6598842 -5.0392475 -2.104449 305.98999
-3.9581897 -5.4499807 -2.1018043 305.98999
-4.3235893 -5.953095 -2.1097283 305.98999
-4.7457304 -6.5343356 -2.1141431 305.98999
-5.2904038 -7.2842894 -2.1331344 305.98999
-5.9135695 -8.1423178 -2.1389954 305.98999
-6.7265291 -9.261672 -2.1566515 305.98999
-7.8850918 -10.793362 -2.1960845 306.14999
-9.5440121 -13.064144 -2.2738101 306.14999
-11.267021 -15.422654 -2.233578 306.14999
-11.895024 -16.282286 -1.8812475 306.14999
-16.005051 -21.908218 -1.8972366 306.14999
-2.7796545 -3.8048785 -2.0979476 306.14999
-18.519289 -25.349787 -1.4640239 306.14999
-2.9633079 -4.0562692 -2.0982425 306.14999
-30.160601 -41.284782 -1.1870464 306.14999
-3.1771717 -4.3490129 -2.1031389 306.14999
-3.4102125 -4.6680064 -2.1041079 306.14999
-3.6806483 -5.0381875 -2.1082904 306.14999
-3.975646 -5.4419894 -2.1029956 306.14999
-4.3424649 -5.9441028 -2.1108308 306.14999
-4.7582526 -6.5132461 -2.1116107 306.14999
-5.3107247 -7.2694874 -2.1331344 306.14999
-5.9443622 -8.1368303 -2.1419063 306.14999
-6.7535257 -9.2444391 -2.157022 306.14999
-7.9196706 -10.765565 -2.1957603 306.34
-9.6013651 -13.051568 -2.2771504 306.34
-11.300446 -15.361204 -2.2300935 306.34
-12.151918 -16.518648 -1.9132023 306.34
-16.064608 -21.837345 -1.8957019 306.34
-2.7900913 -3.7926965 -2.0963206 306.34
-18.559448 -25.228693 -1.4605768 306.34
-2.9756491 -4.0449338 -2.0974717 306.34
-30.16227 -41.000931 -1.1817544 306.34
-3.191576 -4.3384528 -2.1031389 306.34
-3.4279008 -4.6596999 -2.1054759 306.34
-3.6962128 -5.0244284 -2.1076503 306.34
-3.9914076 -5.4257002 -2.1018043 306.34
-4.3598738 -5.9265728 -2.1097283 306.34
-4.7855577 -6.5052242 -2.1141431 306.34
-5.3255763 -7.2392955 -2.1294453 306.34
-5.971312 -8.1170731 -2.1419063 306.34
-6.7829795 -9.2204094 -2.1566515 306.34
-7.9558015 -10.743803 -2.1964087 306.51999
-9.6399632 -13.018156 -2.2765937 306.51999
-11.36047 -15.341592 -2.2324164 306.51999
-11.77239 -15.897864 -1.845577 306.51999
-16.071394 -21.703394 -1.8884473 306.51999
-2.8030798 -3.7853808 -2.0971341 306.51999
-16.978889 -22.928909 -1.3305159 306.51999
-2.9861455 -4.0325994 -2.0959301 306.51999
-30.409918 -41.066658 -1.1863966 306.51999
-3.2040813 -4.3269076 -2.1024115 306.51999
-3.4391675 -4.6443768 -2.1034238 306.51999
-3.7063413 -5.005178 -2.104449 306.51999
-4.0141139 -5.4208055 -2.1047831 306.51999
-4.377327 -5.9113016 -2.1091771 306.51999
-4.803668 -6.4870477 -2.1131301 306.51999
-5.3552418 -7.2319126 -2.1322122 306.51999
-5.9979472 -8.0998459 -2.1423221 306.51999
-6.8048949 -9.1895771 -2.1544297 306.51999
-7.9869518 -10.723127 -2.196733 306.67999
-9.6821947 -12.999127 -2.2779853 306.67999
-11.435306 -15.352821 -2.2386885 306.67999
-11.809603 -15.855346 -1.8444623 306.67999
-16.083075 -21.592827 -1.8827273 306.67999
-2.8125482 -3.776073 -2.0963206 306.67999
-2.9984972 -4.0257249 -2.0967009 306.67999
-30.554338 -41.021664 -1.1875571 306.67999
-3.2150388 -4.3164492 -2.1016841 306.67999
-3.4532464 -4.6362619 -2.1041079 306.67999
-3.7214355 -4.9963279 -2.1050894 306.67999
-4.0246744 -5.4034505 -2.1024001 306.67999
-4.3961143 -5.9021382 -2.1102796 306.67999
-4.8194532 -6.4705048 -2.1121171 306.67999
-5.3754158 -7.2169299 -2.1322122 306.67999
-6.0182056 -8.0799265 -2.1414905 306.67999
-6.8364005 -9.1784201 -2.1562812 306.67999
-8.0217838 -10.699562 -2.1970572 306.85999
-9.7229843 -12.968646 -2.2779853 306.85999
-11.497781 -15.335894 -2.2414761 306.85999
-11.769765 -15.698669 -1.8305285 306.85999
-16.098171 -21.471956 -1.8765887 306.85999
-2.8265893 -3.7701423 -2.0979476 306.85999
-17.387894 -23.192202 -1.3517579 306.85999
-3.0122366 -4.0177612 -2.0974717 306.85999
-30.859373 -41.160641 -1.1943811 306.85999
-3.2274659 -4.3048368 -2.1009564 306.85999
-3.4644122 -4.6208792 -2.1020558 306.85999
-3.7302942 -4.9755158 -2.101248 306.85999
-4.0427752 -5.3923073 -2.1029956 306.85999
-4.4134812 -5.8867602 -2.1097283 306.85999
-4.839757 -6.4553323 -2.1121171 306.85999
-5.3968949 -7.1984501 -2.1317508 306.85999
-6.0423861 -8.0594149 -2.1410747 306.85999
-6.8640227 -9.1553249 -2.155911 306.85999
-8.0546837 -10.677289 -2.1973815 307.03
-9.7638063 -12.942903 -2.278542 307.03
-11.530073 -15.284267 -2.2389209 307.03
-11.782713 -15.619166 -1.8253266 307.03
-16.101732 -21.34446 -1.8696131 307.03
-2.8366628 -3.7602804 -2.0971341 307.03
-17.325485 -22.966665 -1.3416027 307.03
-3.0308127 -4.0176458 -2.1020968 307.03
-30.95487 -41.033783 -1.1933597 307.03
-3.2435904 -4.2997036 -2.1031389 307.03
-3.4781075 -4.61058 -2.1020558 307.03
-3.7530279 -4.9750142 -2.1057296 307.03
-4.056457 -5.3772402 -2.1018043 307.03
-4.4297705 -5.8721042 -2.1091771 307.03
-4.8577237 -6.4393992 -2.1116107 307.03
-5.415885 -7.1792979 -2.1308286 307.03
-6.0709848 -8.047699 -2.1427379 307.03
-6.8887897 -9.1317806 -2.1551704 307.03
-8.0893803 -10.653504 -2.1977057 307.20999
-9.808012 -12.916897 -2.279377 307.20999
-11.554008 -15.216328 -2.2342749 307.20999
-16.09873 -21.201609 -1.8615212 307.20999
-2.8462522 -3.74844 -2.0955071 307.20999
-3.0378394 -4.0007558 -2.0982425 307.20999
-3.2559555 -4.2880087 -2.1024115 307.20999
-3.4891653 -4.59514 -2.1000037 307.20999
-3.767493 -4.9616904 -2.1050894 307.20999
-4.0767937 -5.3690314 -2.1035914 307.20999
-4.4458709 -5.8550968 -2.1080744 307.20999
-4.8779297 -6.4241066 -2.1116107 307.20999
-5.4384127 -7.1622481 -2.1308286 307.20999
-6.0974207 -8.0301447 -2.1431537 307.20999
-6.9162555 -9.1085281 -2.1548002 307.20999
-8.1238909 -10.637146 -2.1990027 307.37
-9.8476505 -12.894179 -2.2802122 307.37
-11.590425 -15.176109 -2.2331133 307.37
-11.664883 -15.273601 -1.7930001 307.37
-15.936267 -20.866407 -1.8359904 307.37
-2.8589265 -3.7433813 -2.0971341 307.37
-20.575426 -26.940765 -1.5808551 307.37
-3.0523603 -3.9966567 -2.1005552 307.37
-3.2645249 -4.2744579 -2.100229 307.37
-3.4985616 -4.5808973 -2.0979517 307.37
-3.780184 -4.9496446 -2.104449 307.37
-4.0882945 -5.3530741 -2.1018043 307.37
-4.4587035 -5.8380747 -2.1064208 307.37
-4.8958502 -6.41046 -2.1116107 307.37
-5.4548488 -7.1423936 -2.1294453 307.37
-6.1174464 -8.0099764 -2.1423221 307.37
-6.9428573 -9.0907412 -2.1551704 307.37
-8.1542139 -10.61143 -2.1986785 307.54001
-9.888279 -12.868045 -2.2807689 307.54001
-11.585777 -15.077073 -2.2235889 307.54001
-16.130615 -20.991468 -1.8511972 307.54001
-2.8655677 -3.7290871 -2.0938802 307.54001
-20.700312 -26.938211 -1.5843023 307.54001
-3.0574582 -3.9788027 -2.0959301 307.54001
-22.314419 -29.038719 -0.85025781 307.54001
-3.2783282 -4.2662306 -2.1009564 307.54001
-3.5087025 -4.5660262 -2.0958993 307.54001
-3.7936988 -4.936904 -2.1038089 307.54001
-4.1053228 -5.3424339 -2.1024001 307.54001
-4.4806914 -5.8309178 -2.1086259 307.54001
-4.9124908 -6.392837 -2.1105976 307.54001
-5.4724593 -7.1215477 -2.128062 307.54001
-6.1376095 -7.9871368 -2.1410747 307.54001
-6.973392 -9.0747766 -2.1562812 307.54001
-8.1850214 -10.59018 -2.1990027 307.70001
-9.9278078 -12.845082 -2.2816038 307.70001
-11.510002 -14.892202 -2.2010558 307.70001
-11.285036 -14.60113 -1.7216591 307.70001
-16.167212 -20.917927 -1.8486861 307.70001
-2.8793221 -3.7254074 -2.0963206 307.70001
-3.0719428 -3.9746296 -2.0982425 307.70001
-3.2913682 -4.258533 -2.1016841 307.70001
-3.522589 -4.5576973 -2.0965834 307.70001
-3.8063116 -4.9247918 -2.1031687 307.70001
-4.1155558 -5.3249068 -2.1000168 307.70001
-4.4934301 -5.8138189 -2.106972 307.70001
-4.9397893 -6.3913407 -2.1146495 307.70001
-5.4911346 -7.1046982 -2.1276009 307.70001
-6.1622825 -7.973062 -2.1419063 307.70001
-6.9938989 -9.0490475 -2.1548002 307.70001
-8.223731 -10.567652 -2.1999755 307.89001
-9.9800797 -12.824594 -2.2838306 307.89001
-11.408046 -14.659557 -2.1722503 307.89001
-11.290588 -14.508623 -1.7151567 307.89001
-16.177673 -20.788622 -1.8419894 307.89001
-2.890538 -3.7143967 -2.0955071 307.89001
-20.419094 -26.238928 -1.5504827 307.89001
-3.0851064 -3.9644208 -2.0982425 307.89001
-3.304328 -4.2461247 -2.1009564 307.89001
-3.5365291 -4.544508 -2.0958993 307.89001
-3.8249493 -4.915133 -2.104449 307.89001
-4.1378813 -5.3172565 -2.1024001 307.89001
-4.5138655 -5.8004036 -2.1075232 307.89001
-4.9609566 -6.3749247 -2.1146495 307.89001
-5.5158601 -7.087986 -2.128062 307.89001
-6.1874866 -7.9510393 -2.1414905 307.89001
-7.0262823 -9.0289078 -2.1555407 307.89001
-8.2495594 -10.539983 -2.1990027 308.04999
-10.018295 -12.799794 -2.2843874 308.04999
-11.431797 -14.605743 -2.1689982 308.04999
-11.302831 -14.44097 -1.7108836 308.04999
-16.193853 -20.689945 -1.8372461 308.04999
-2.9031515 -3.709188 -2.0971341 308.04999
-3.0927527 -3.9514303 -2.0959301 308.04999
-3.3161724 -4.2368808 -2.1009564 308.04999
-3.5503643 -4.5360942 -2.0965834 308.04999
-3.8351564 -4.8999567 -2.1025283 308.04999
-4.1491833 -5.3011703 -2.1006126 308.04999
-4.5181961 -5.7726364 -2.1020105 308.04999
-4.9763546 -6.3579988 -2.1136365 308.04999
-5.5356317 -7.0725551 -2.128062 308.04999
-6.2096663 -7.9337296 -2.1414905 308.04999
-7.0490456 -9.006156 -2.1548002 308.04999
-8.2917957 -10.521869 -2.200948 308.23999
-10.060686 -12.766501 -2.2843874 308.23999
-11.456808 -14.53811 -2.1645844 308.23999
-11.308749 -14.350231 -1.704567 308.23999
-15.039825 -19.084778 -1.6991282 308.23999
-2.9131739 -3.6966703 -2.0955071 308.23999
-17.12031 -21.724808 -1.2898951 308.23999
-3.1104083 -3.9469507 -2.0990133 308.23999
-3.3302042 -4.2258606 -2.1009564 308.23999
-3.5665503 -4.5257721 -2.0972676 308.23999
-3.8502114 -4.8857236 -2.1018882 308.23999
-4.1667399 -5.2873821 -2.1006126 308.23999
-4.5385041 -5.7591319 -2.1025617 308.23999
-5.0010037 -6.3460207 -2.1151562 308.23999
-5.5590549 -7.0541592 -2.128062 308.23999
-6.2407846 -7.91924 -2.1431537 308.23999
-7.0752225 -8.9780998 -2.1536891 308.23999
-8.3254299 -10.500314 -2.2015965 308.41
-10.099751 -12.738147 -2.2846656 308.41
-11.432014 -14.418442 -2.1518078 308.41
-11.397054 -14.374349 -1.711441 308.41
-15.040606 -18.969719 -1.6928501 308.41
-2.9229941 -3.6865788 -2.0946937 308.41
-20.342358 -25.656467 -1.5269116 308.41
-3.1175191 -3.9319203 -2.0959301 308.41
-3.3404129 -4.2130413 -2.0995016 308.41
-3.5776277 -4.5122247 -2.0958993 308.41
-3.8646905 -4.8742781 -2.1018882 308.41
-4.1847816 -5.277988 -2.1018043 308.41
-4.556766 -5.7471471 -2.1031129 308.41
-5.0210128 -6.3326707 -2.1156626 308.41
-5.5811696 -7.0391593 -2.1285231 308.41
-6.2581768 -7.893024 -2.1410747 308.41
-7.0993876 -8.9539871 -2.1529486 308.41
-8.3516254 -10.469394 -2.2002997 308.57999
-10.142442 -12.714317 -2.285779 308.57999
-11.421476 -14.317684 -2.1418188 308.57999
-11.529064 -14.452554 -1.7248174 308.57999
-15.166497 -19.012352 -1.7006629 308.57999
-2.9350591 -3.6793182 -2.0955071 308.57999
-20.37105 -25.53665 -1.5233712 308.57999
-3.133775 -3.9284239 -2.0990133 308.57999
-3.3563838 -4.2074809 -2.1016841 308.57999
-3.5921719 -4.5030589 -2.0965834 308.57999
-3.8791358 -4.8627901 -2.1018882 308.57999
-4.1956611 -5.2595782 -2.0994213 308.57999
-4.5714002 -5.7305956 -2.1020105 308.57999
-5.0397801 -6.3177452 -2.1156626 308.57999
-5.6020303 -7.0225687 -2.1285231 308.57999
-6.2852283 -7.8790088 -2.1423221 308.57999
-7.1283746 -8.935957 -2.1536891 308.57999
-8.3918886 -10.452338 -2.202245 308.76001
-10.182335 -12.682391 -2.285779 308.76001
-11.442771 -14.252301 -2.1374052 308.76001
-11.519556 -14.347939 -1.716643 308.76001
-15.252382 -18.997282 -1.7035927 308.76001
-2.9408841 -3.6629558 -2.0914397 308.76001
-3.1472564 -3.9199984 -2.0997841 308.76001
-3.3602548 -4.1852942 -2.0958643 308.76001
-3.6051242 -4.4902859 -2.0958993 308.76001
-3.8955798 -4.852057 -2.1025283 308.76001
-4.2085781 -5.2419047 -2.0976338 308.76001
-4.5881772 -5.7147069 -2.1014593 308.76001
-5.0596027 -6.3018813 -2.1156626 308.76001
-5.6240649 -7.0049348 -2.1285231 308.76001
-6.3062754 -7.8546476 -2.1410747 308.76001
-7.1601043 -8.9181156 -2.1548002 308.76001
-8.4260035 -10.435005 -2.203542 308.92001
-10.2202 -12.656989 -2.2863357 308.92001
-11.473791 -14.209473 -2.1357791 308.92001
-11.498278 -14.239798 -1.7075396 308.92001
-2.954545 -3.6589935 -2.0938802 308.92001
-20.341492 -25.191488 -1.5099552 308.92001
-3.1512344 -3.9025793 -2.0951591 308.92001
-3.3719292 -4.1758943 -2.0958643 308.92001
-3.6176493 -4.4802012 -2.0958993 308.92001
-3.911495 -4.8441076 -2.1038089 308.92001
-4.2279973 -5.2360735 -2.1000168 308.92001
-4.6041179 -5.7018719 -2.1014593 308.92001
-5.073535 -6.2832117 -2.1141431 308.92001
-5.6387138 -6.9831452 -2.1266787 308.92001
-6.3294144 -7.8385286 -2.1414905 308.92001
-7.1800413 -8.8919697 -2.1533189 308.92001
-8.4544392 -10.406896 -2.2028935 309.09
-10.258957 -12.628147 -2.2866139 309.09
-11.51089 -14.1692 -2.1348498 309.09
-11.620837 -14.304538 -1.7194297 309.09
-16.41324 -20.203691 -1.8202255 309.09
-2.9653883 -3.6502111 -2.0938802 309.09
-17.025003 -20.956734 -1.25915 309.09
-3.165127 -3.8960772 -2.0967009 309.09
-17.031349 -20.964546 -0.62710923 309.09
-3.3843043 -4.1658711 -2.0958643 309.09
-17.046028 -20.982615 0 309.09
-3.6297414 -4.467989 -2.0952153 309.09
-3.9198768 -4.8251276 -2.1006076 309.09
-4.241107 -5.220542 -2.0988255 309.09
-4.6234398 -5.6911707 -2.1025617 309.09
-5.094595 -6.2711339 -2.1151562 309.09
-5.6606355 -6.967895 -2.1271398 309.09
-6.3514104 -7.8181963 -2.1410747 309.09
-7.2039142 -8.8675756 -2.1525784 309.09
-8.4877777 -10.384821 -2.203542 309.26001
-10.301394 -12.603786 -2.2877274 309.26001
-11.527739 -14.104222 -2.1302037 309.26001
-11.535948 -14.114266 -1.7006656 309.26001
-16.444075 -20.119373 -1.8170166 309.26001
-2.9785182 -3.6442258 -2.0955071 309.26001
-20.441315 -25.01001 -1.5063217 309.26001
-3.1731694 -3.8823822 -2.0943882 309.26001
-3.3966498 -4.1558113 -2.0958643 309.26001
-3.6453609 -4.4601102 -2.0965834 309.26001
-3.932977 -4.8120089 -2.0999675 309.26001
-4.2553697 -5.2064571 -2.0982296 309.26001
-4.6390886 -5.6759391 -2.1020105 309.26001
-5.1107306 -6.2529941 -2.1141431 309.26001
-5.6837478 -6.9540825 -2.128062 309.26001
-6.3758173 -7.8008313 -2.1414905 309.26001
-7.2339244 -8.850728 -2.1536891 309.26001
-8.5165987 -10.353532 -2.2025692 309.44
-10.342197 -12.572891 -2.2880058 309.44
-11.527823 -14.014243 -2.1220732 309.44
-11.730772 -14.260965 -1.7227738 309.44
-2.9899521 -3.6348507 -2.0955071 309.44
-20.491863 -24.911724 -1.504272 309.44
-3.1853504 -3.8723941 -2.0943882 309.44
-3.4096889 -4.1451197 -2.0958643 309.44
-3.6581609 -4.4471846 -2.0958993 309.44
-3.9492786 -4.8010926 -2.1006076 309.44
-4.2729177 -5.1945376 -2.0988255 309.44
-4.6568975 -5.6613369 -2.1020105 309.44
-5.1303496 -6.2369075 -2.1141431 309.44
-5.703094 -6.9331861 -2.1271398 309.44
-6.4002929 -7.7807627 -2.1414905 309.44
-7.2591968 -8.8249226 -2.1529486 309.44
-8.5553761 -10.334327 -2.2041905 309.62
-10.385434 -12.544914 -2.2888408 309.62
-11.56926 -13.974897 -2.1216087 309.62
-11.590116 -14.00009 -1.6956494 309.62
-16.322067 -19.715975 -1.7898116 309.62
-2.9966962 -3.6198099 -2.0922532 309.62
-20.636272 -24.927246 -1.5091166 309.62
-3.1998539 -3.865211 -2.0959301 309.62
-3.4226944 -4.1343875 -2.0958643 309.62
-3.6697171 -4.4327745 -2.0945313 309.62
-3.9643421 -4.788662 -2.1006076 309.62
-4.2843461 -5.1752057 -2.0964425 309.62
-4.6832418 -5.6570454 -2.1058693 309.62
-5.1499181 -6.2207594 -2.1141431 309.62
-5.7273293 -6.9182334 -2.128062 309.62
-6.424705 -7.7606173 -2.1414905 309.62
-7.2906451 -8.8066158 -2.1540594 309.62
-8.5897903 -10.313446 -2.2051632 309.79001
-10.42768 -12.520133 -2.2899542 309.79001
-11.549651 -13.867243 -2.1104581 309.79001
-11.61631 -13.947278 -1.6934199 309.79001
-16.328144 -19.604605 -1.7840916 309.79001
-3.010931 -3.6151145 -2.0946937 309.79001
-17.159576 -20.602875 -1.2503923 309.79001
-3.2077649 -3.8514457 -2.0936174 309.79001
-3.4361386 -4.1256456 -2.0965917 309.79001
-3.6828532 -4.4218669 -2.0945313 309.79001
-3.9736824 -4.7710547 -2.0980468 309.79001
-4.3033481 -5.166872 -2.0982296 309.79001
-4.7012362 -5.6446023 -2.1064208 309.79001
-5.1720676 -6.2099118 -2.1156626 309.79001
-5.7528124 -6.9071913 -2.1299064 309.79001
-6.4426951 -7.735508 -2.139827 309.79001
-7.3167429 -8.7849445 -2.1540594 309.79001
-8.6203527 -10.287914 -2.2051632 309.95999
-10.47623 -12.502801 -2.2924592 309.95999
-11.362375 -13.560366 -2.0688763 309.95999
-11.483705 -13.705166 -1.6681534 309.95999
-16.35677 -19.520899 -1.7808827 309.95999
-3.0228174 -3.6075654 -2.0955071 309.95999
-22.903528 -27.334095 -1.6630284 309.95999
-3.2215488 -3.8447402 -2.0951591 309.95999
-3.4447749 -4.1111484 -2.0944092 309.95999
-3.6959569 -4.4109201 -2.0945313 309.95999
-3.9902546 -4.7621484 -2.0993273 309.95999
-4.3149805 -5.1496906 -2.0964425 309.95999
-4.7167287 -5.6291547 -2.1058693 309.95999
-5.1830139 -6.1856408 -2.1126237 309.95999
-5.7657819 -6.8811417 -2.1271398 309.95999
-6.4631057 -7.7133589 -2.1389954 309.95999
-7.3377271 -8.7571707 -2.1525784 309.95999
-8.6533833 -10.265309 -2.2058117 310.13
-10.504345 -12.461062 -2.2905109 310.13
-11.3283 -13.438502 -2.0554028 310.13
-11.553838 -13.706051 -1.6724263 310.13
-16.414616 -19.472281 -1.7808827 310.13
-3.0335081 -3.5985806 -2.0955071 310.13
-20.950045 -24.852556 -1.5158247 310.13
-3.2305632 -3.8323429 -2.0936174 310.13
-3.4569578 -4.1009092 -2.0944092 310.13
-3.7090282 -4.3999348 -2.0945313 310.13
-4.0007033 -4.7459421 -2.0974066 310.13
-4.3314714 -5.1383252 -2.0970383 310.13
-4.7309318 -5.6121955 -2.1047668 310.13
-5.2025914 -6.1717143 -2.1131301 310.13
-5.7836647 -6.8610282 -2.1262176 310.13
-6.4834414 -7.6911573 -2.1381638 310.13
-7.3649445 -8.7368641 -2.1529486 310.13
-8.6858444 -10.245621 -2.2067845 310.29001
-10.542944 -12.436212 -2.2913458 310.29001
-11.337523 -13.37348 -2.050292 310.29001
-16.373457 -19.313751 -1.7705588 310.29001
-3.0459082 -3.5928829 -2.0971341 310.29001
-19.753294 -23.300528 -1.4245212 310.29001
-3.2424459 -3.8247142 -2.0943882 310.29001
-3.4659867 -4.0883975 -2.0929544 310.29001
-3.7188699 -4.386693 -2.0931633 310.29001
-4.0176163 -4.7390871 -2.0993273 310.29001
-4.3420997 -5.1218405 -2.0952508 310.29001
-4.747829 -5.6004286 -2.1053181 310.29001
-5.2223082 -6.1601138 -2.1141431 310.29001
-5.8053188 -6.8478193 -2.1271398 310.29001
-6.5036287 -7.6715298 -2.137748 310.29001
-7.3867717 -8.7132645 -2.1522079 310.29001
-8.7210541 -10.218263 -2.2071087 310.48001
-10.59184 -12.410221 -2.293016 310.48001
-11.368914 -13.3207 -2.0479691 310.48001
-11.703278 -13.712467 -1.6819013 310.48001
-16.360996 -19.169811 -1.7623276 310.48001
-3.0554338 -3.579983 -2.0955071 310.48001
-20.137831 -23.595043 -1.4466017 310.48001
-3.2563095 -3.8153443 -2.0951591 310.48001
-3.4807346 -4.0782986 -2.0936818 310.48001
-3.7346163 -4.3757658 -2.0938473 310.48001
-4.0320797 -4.724297 -2.0986869 310.48001
-4.3603001 -5.1088653 -2.0958467 310.48001
-4.7663741 -5.5846534 -2.1053181 310.48001
-5.2401953 -6.1398187 -2.1131301 310.48001
-5.834312 -6.8359318 -2.1294453 310.48001
-6.5252228 -7.6454568 -2.1365006 310.48001
-7.4169011 -8.6902161 -2.1525784 310.48001
-8.7518263 -10.189317 -2.2067845 310.66
-10.632066 -12.378386 -2.2932944 310.66
-11.457301 -13.339167 -2.0563319 310.66
-11.411543 -13.285892 -1.6339692 310.66
-16.453638 -19.156155 -1.7658154 310.66
-3.0702369 -3.5745244 -2.0979476 310.66
-3.2646723 -3.8008957 -2.0928466 310.66
-3.4935298 -4.0673432 -2.0936818 310.66
-3.7471201 -4.362586 -2.0931633 310.66
-4.0481362 -4.7130442 -2.0993273 310.66
-4.3738403 -5.0922456 -2.0946553 310.66
