# .PCD v0.7 - Point Cloud Data file format
VERSION 0.7
FIELDS x y z intensity
SIZE 4 4 4 4
TYPE F F F F
COUNT 1 1 1 1
WIDTH 1221
HEIGHT 1
VIEWPOINT 0 0 0 1 0 0 0
POINTS 1221
DATA ascii
5.9034247 -5.9572468 -0.98077649 225.25999
3.0672827 -3.0952475 -1.9401338 225.25999
6.5461087 -6.6057906 -0.43369171 225.25999
3.2930064 -3.3230293 -1.9540944 225.25999
37.401714 -37.74271 -1.2336538 225.25999
3.5249081 -3.5570452 -1.9554609 225.25999
37.392086 -37.732994 0 225.25999
3.7662449 -3.8005822 -1.9474627 225.25999
29.919964 -30.192749 0.98687655 225.25999
4.03578 -4.0725751 -1.937348 225.25999
29.747881 -30.019096 1.9708517 225.25999
4.3380294 -4.3775797 -1.9230794 225.25999
29.716093 -29.987019 2.9520941 225.25999
4.695765 -4.7385774 -1.9129232 225.25999
16.290495 -16.439016 2.1591802 225.25999
5.1029963 -5.1495209 -1.8978664 225.25999
15.558362 -15.700211 2.5848176 225.25999
5.7917404 -5.8445449 -1.9496092 225.25999
16.030539 -16.176691 3.2007029 225.25999
6.3205132 -6.3781381 -1.9086293 225.25999
5.9238935 -5.9779024 -1.5856426 225.25999
5.8179994 -5.9039268 -1.3618124 225.42
5.8358378 -5.922029 -1.1684973 225.42
5.8714285 -5.9581451 -0.97822118 225.42
3.061192 -3.1064038 -1.9417608 225.42
6.5192227 -6.6155071 -0.43313271 225.42
3.2811234 -3.3295832 -1.9525527 225.42
37.190914 -37.740196 -1.2301722 225.42
3.5188842 -3.5708556 -1.9576434 225.42
37.214973 -37.764614 0 225.42
3.7542977 -3.809746 -1.9467787 225.42
29.469238 -29.904478 0.97476053 225.42
4.0177417 -4.0770812 -1.9341469 225.42
29.732649 -30.171778 1.9754168 225.42
4.3244476 -4.3883166 -1.9224836 225.42
29.607031 -30.044306 2.9495828 225.42
4.6838636 -4.7530413 -1.9134746 225.42
5.0899544 -5.1651292 -1.8983729 225.42
15.632975 -15.863863 2.6045632 225.42
5.7658348 -5.8509922 -1.9463813 225.42
15.722565 -15.954776 3.1480956 225.42
5.9593945 -6.0474105 -1.8046734 225.42
15.209912 -15.434552 3.5601666 225.42
5.901659 -5.988822 -1.5841613 225.42
5.7814722 -5.9038448 -1.3575972 225.60001
5.8033471 -5.9261832 -1.1657139 225.60001
5.8401728 -5.963788 -0.97613049 225.60001
3.0501397 -3.1147001 -1.9409473 225.60001
6.4844294 -6.6216812 -0.43220103 225.60001
3.2745206 -3.3438303 -1.9548652 225.60001
36.995224 -37.778278 -1.2276189 225.60001
3.5076487 -3.581893 -1.9576434 225.60001
36.988403 -37.771313 0 225.60001
3.7396808 -3.8188362 -1.9454106 225.60001
29.523434 -30.148338 0.97968119 225.60001
4.0049133 -4.0896831 -1.9341469 225.60001
29.018486 -29.632702 1.9341439 225.60001
4.311976 -4.403245 -1.9230794 225.60001
29.622776 -30.249783 2.9606042 225.60001
4.6756339 -4.7746005 -1.9162309 225.60001
5.0750561 -5.182477 -1.8988794 225.60001
15.09661 -15.416151 2.5232577 225.60001
5.7419786 -5.8635154 -1.9445368 225.60001
15.09868 -15.418264 3.0328603 225.60001
5.8158102 -5.93891 -1.7668335 225.60001
15.191726 -15.51328 3.5672998 225.60001
5.8016825 -5.9244833 -1.5623134 225.60001
5.7487869 -5.9054174 -1.3540305 225.77
5.7733049 -5.9306035 -1.1632087 225.77
5.811367 -5.9697027 -0.97427207 225.77
3.0421591 -3.1250455 -1.9417608 225.77
6.4745088 -6.6509123 -0.43285319 225.77
3.2671595 -3.3561759 -1.956407 225.77
36.788132 -37.790455 -1.2244623 225.77
3.4983051 -3.5936196 -1.9583708 225.77
36.809204 -37.812103 0 225.77
3.7309554 -3.8326085 -1.9467787 225.77
29.419905 -30.221476 0.97921699 225.77
3.9927616 -4.1015477 -1.9341469 225.77
29.953314 -30.769417 2.0025284 225.77
4.3015556 -4.4187555 -1.9242709 225.77
29.532892 -30.337542 2.9606042 225.77
4.661447 -4.7884521 -1.9162309 225.77
5.0596571 -5.1975121 -1.8988794 225.77
15.242022 -15.657304 2.5553153 225.77
5.7286286 -5.8847098 -1.9459201 225.77
15.18411 -15.597814 3.059303 225.77
5.7695074 -5.9267025 -1.7581012 225.77
15.160773 -15.573842 3.5708666 225.77
5.7662563 -5.9233627 -1.5574994 225.77
5.7240372 -5.91294 -1.3520851 225.92999
5.7457008 -5.9353185 -1.160982 225.92999
5.7850022 -5.9759169 -0.97264594 225.92999
5.9545555 -6.1510658 -0.59865004 225.92999
3.0385039 -3.1387796 -1.9450146 225.92999
6.4670272 -6.68045 -0.43359855 225.92999
3.2616253 -3.3692644 -1.9587194 225.92999
28.477335 -29.417135 -0.95057487 225.92999
3.4999182 -3.6154215 -1.9649181 225.92999
39.128113 -40.419407 0 225.92999
3.725467 -3.8484137 -1.9495149 225.92999
3.9971068 -4.1290183 -1.9418297 225.92999
4.2891994 -4.4307504 -1.9242709 225.92999
4.6507316 -4.8042135 -1.9173335 225.92999
5.0558891 -5.2227421 -1.9029315 225.92999
15.253505 -15.756896 2.5646074 225.92999
5.7094655 -5.8978877 -1.9449979 225.92999
15.516561 -16.028633 3.1352916 225.92999
5.7474914 -5.9371686 -1.756438 225.92999
15.141932 -15.641642 3.5767028 225.92999
15.080982 -15.57868 4.085196 225.92999
5.8015232 -6.0328879 -1.3751062 226.12
5.7136316 -5.9414916 -1.1584769 226.12
5.7500076 -5.9793177 -0.97009063 226.12
5.9037008 -6.1391406 -0.59558076 226.12
3.0280786 -3.1488383 -1.9450146 226.12
6.4531474 -6.7104988 -0.43415755 226.12
3.2389216 -3.3680899 -1.9517819 226.12
36.381969 -37.832886 -1.2186131 226.12
3.4917839 -3.6310363 -1.9671006 226.12
39.125561 -40.685886 0 226.12
3.7126846 -3.8607466 -1.9495149 226.12
3.9873326 -4.1463475 -1.9437504 226.12
4.2771297 -4.4477019 -1.9254624 226.12
4.638772 -4.8237667 -1.9189873 226.12
5.0412245 -5.2422686 -1.9039444 226.12
15.228707 -15.836029 2.5692534 226.12
5.6993189 -5.9266076 -1.9482257 226.12
14.680821 -15.266293 2.9766343 226.12
5.7372637 -5.9660659 -1.7593488 226.12
5.7095304 -5.9372263 -1.5519449 226.12
15.085093 -15.686687 4.1003785 226.12
5.8555808 -6.1232343 -1.3919667 226.28
5.6833296 -5.94311 -1.1556934 226.28
5.7209315 -5.9824305 -0.96799994 226.28
3.0180106 -3.1559615 -1.9442011 226.28
6.4426675 -6.7371569 -0.43471655 226.28
3.2307792 -3.3784554 -1.9525527 226.28
36.211231 -37.866417 -1.2164313 226.28
3.4803429 -3.6394265 -1.9663731 226.28
39.159695 -40.94965 0 226.28
3.7057858 -3.875174 -1.9515669 226.28
29.746716 -31.106415 0.99927109 226.28
3.9783573 -4.1602049 -1.9450308 226.28
4.2646928 -4.4596286 -1.9254624 226.28
4.6266122 -4.8380909 -1.9195385 226.28
5.0265656 -5.2563257 -1.9039444 226.28
16.587543 -17.345747 2.8066654 226.28
5.6881266 -5.9481263 -1.9500703 226.28
5.7219329 -5.9834781 -1.7597646 226.28
15.432108 -16.137497 3.668463 226.28
5.7228122 -5.9843974 -1.5600915 226.28
5.841466 -6.1448727 -1.3929394 226.45
5.6520252 -5.9455919 -1.15291 226.45
5.6922069 -5.9878607 -0.96614152 226.45
3.0098925 -3.1662264 -1.9450146 226.45
6.4364147 -6.7707224 -0.4356482 226.45
3.2245553 -3.3920391 -1.9548652 226.45
36.000912 -37.8708 -1.2131354 226.45
3.4618278 -3.6416354 -1.9620082 226.45
39.186844 -41.22221 0 226.45
3.6955664 -3.8875146 -1.952251 226.45
3.9659963 -4.1719904 -1.9450308 226.45
4.2540731 -4.4750299 -1.9266539 226.45
4.6148863 -4.8545842 -1.9206411 226.45
5.0122805 -5.2726188 -1.9044509 226.45
5.655704 -5.9494615 -1.9449979 226.45
14.692264 -15.455381 2.9969535 226.45
5.6394572 -5.9323711 -1.739805 226.45
5.8167114 -6.157455 -1.3916425 226.63
5.6224384 -5.9518013 -1.1506832 226.63
5.6651826 -5.9970493 -0.96474773 226.63
2.9974213 -3.1730103 -1.9433876 226.63
6.4192276 -6.7952666 -0.43592772 226.63
3.2113485 -3.3994694 -1.9533235 226.63
35.804867 -37.902321 -1.2105358 226.63
3.4542081 -3.6565559 -1.9641907 226.63
39.206848 -41.50359 0 226.63
3.6794634 -3.8950067 -1.9501989 226.63
29.768967 -31.512835 1.0064665 226.63
3.9541712 -4.1858068 -1.9456711 226.63
4.2439265 -4.4925361 -1.928441 226.63
4.6009326 -4.8704557 -1.9211924 226.63
5.004992 -5.2981849 -1.9079964 226.63
5.5795193 -5.9063683 -1.9251698 226.63
14.623236 -15.479866 2.9927783 226.63
5.6194487 -5.9486365 -1.7393892 226.63
5.6321626 -5.9620948 -1.5452794 226.63
5.7878838 -6.165626 -1.3893728 226.81
5.5901575 -5.9549956 -1.1478997 226.81
5.6340785 -6.0017829 -0.96265697 226.81
5.785646 -6.1632423 -0.59111637 226.81
2.9961915 -3.1917362 -1.949082 226.81
6.4101543 -6.8285089 -0.43676621 226.81
3.2107575 -3.4203055 -1.9594903 226.81
35.607613 -37.931522 -1.2078898 226.81
3.4439788 -3.6687479 -1.9649181 226.81
39.244637 -41.805912 0 226.81
3.6672087 -3.9065468 -1.9501989 226.81
3.9410017 -4.1982083 -1.9456711 226.81
4.2310987 -4.5072384 -1.9290369 226.81
4.5908723 -4.8904924 -1.9233974 226.81
4.9909711 -5.3167033 -1.9090095 226.81
5.5569406 -5.919611 -1.9237865 226.81
14.682974 -15.641249 3.0150461 226.81
5.5833268 -5.9477191 -1.7339835 226.81
15.360517 -16.36301 3.687269 226.81
5.58112 -5.9453683 -1.5363921 226.81
5.7466745 -6.1582427 -1.3838607 226.98
5.5643568 -5.9628677 -1.1462296 226.98
5.6067591 -6.0083065 -0.9610309 226.98
5.7550831 -6.1672535 -0.58986074 226.98
2.9892013 -3.2032835 -1.950709 226.98
6.4062219 -6.865026 -0.43788421 226.98
3.2056315 -3.435214 -1.9625736 226.98
35.406242 -37.941986 -1.2048724 226.98
3.4343493 -3.6803122 -1.9656457 226.98
39.285526 -42.099098 0 226.98
3.6556017 -3.9174104 -1.9501989 226.98
3.9298205 -4.2112684 -1.9463112 226.98
4.216404 -4.5183768 -1.928441 226.98
4.5750299 -4.9026871 -1.9228462 226.98
4.975174 -5.3314886 -1.9090095 226.98
5.5260749 -5.921844 -1.9191753 226.98
14.400036 -15.431345 2.9663355 226.98
5.5483041 -5.9456654 -1.7285779 226.98
15.350946 -16.450357 3.696672 226.98
5.5580916 -5.9561539 -1.5349109 226.98
5.7162981 -6.1622448 -1.3809426 227.14999
5.5345178 -5.9662828 -1.1437246 227.14999
5.575398 -6.0103521 -0.95870787 227.14999
5.7272615 -6.1740632 -0.58888417 227.14999
2.9771988 -3.2094595 -1.949082 227.14999
6.3831072 -6.881074 -0.43769789 227.14999
3.1916597 -3.4406512 -1.9602611 227.14999
35.228241 -37.976509 -1.2026441 227.14999
3.4246814 -3.6918519 -1.9663731 227.14999
39.286938 -42.351837 0 227.14999
3.6452405 -3.9296174 -1.9508829 227.14999
3.9198854 -4.225688 -1.9475918 227.14999
4.2042775 -4.5322666 -1.9290369 227.14999
4.5643859 -4.9204679 -1.9245 227.14999
4.960649 -5.3476453 -1.909516 227.14999
5.4965687 -5.9253736 -1.9150252 227.14999
5.5160036 -5.9463248 -1.7240038 227.14999
5.5176721 -5.948123 -1.5286157 227.14999
5.6083517 -6.0819712 -1.3592184 227.32001
5.5060501 -5.9710302 -1.1414977 227.32001
5.5467672 -6.0151854 -0.95684946 227.32001
5.7021546 -6.1836958 -0.58818656 227.32001
2.967663 -3.2182789 -1.949082 227.32001
6.3816233 -6.9205446 -0.43900222 227.32001
3.1851902 -3.4541759 -1.9625736 227.32001
35.015106 -37.972092 -1.1992089 227.32001
3.4212902 -3.7102144 -1.9707379 227.32001
39.336006 -42.657887 0 227.32001
3.6361132 -3.9431791 -1.952251 227.32001
3.9086149 -4.2386932 -1.9482319 227.32001
4.1908116 -4.5447211 -1.9290369 227.32001
4.5523729 -4.9368157 -1.9256026 227.32001
17.495274 -18.972731 2.407759 227.32001
4.9486952 -5.3666072 -1.9110354 227.32001
5.4789634 -5.9416561 -1.9150252 227.32001
5.4877272 -5.9511595 -1.7206771 227.32001
5.477603 -5.9756608 -1.139271 227.49001
5.5168147 -6.0184374 -0.95475876 227.49001
5.5855622 -6.0934362 -0.77118886 227.49001
5.6743455 -6.1902919 -0.58721 227.49001
2.9581013 -3.2270701 -1.949082 227.49001
6.3826613 -6.9630122 -0.4404929 227.49001
3.1799154 -3.469053 -1.965657 227.49001
34.841488 -38.009491 -1.19712 227.49001
3.4127843 -3.7230959 -1.9721929 227.49001
39.343056 -42.920368 0 227.49001
3.6243975 -3.9539502 -1.952251 227.49001
3.8921802 -4.2460814 -1.9463112 227.49001
4.1824694 -4.5627651 -1.9314198 227.49001
4.5403032 -4.9531355 -1.9267051 227.49001
17.4093 -18.992262 2.4036717 227.49001
4.9379802 -5.386972 -1.9130615 227.49001
5.4481597 -5.9435401 -1.910414 227.49001
18.193993 -19.848303 3.7841165 227.49001
5.4687233 -5.9659734 -1.7202613 227.49001
5.4166412 -5.944469 -1.3212821 227.66
5.4491773 -5.9801755 -1.1370442 227.66
5.4909058 -6.02597 -0.95336491 227.66
5.5540457 -6.0952625 -0.76933098 227.66
5.6478906 -6.1982522 -0.58637291 227.66
2.9509745 -3.2385337 -1.950709 227.66
6.4346356 -7.0616622 -0.44552389 227.66
3.1658797 -3.4743805 -1.9633445 227.66
3.4029775 -3.7345824 -1.9729204 227.66
3.6139159 -3.9660757 -1.952935 227.66
3.8846693 -4.2632132 -1.9488722 227.66
4.1714845 -4.5779772 -1.9326113 227.66
4.5255871 -4.9665852 -1.9267051 227.66
18.133471 -19.900496 2.5117979 227.66
4.9193687 -5.3987389 -1.9120485 227.66
17.228653 -18.907509 2.9913452 227.66
5.4029751 -5.9294705 -1.9007305 227.66
18.167038 -19.937334 3.790797 227.66
5.4259634 -5.954699 -1.7123607 227.66
5.434062 -5.9635868 -1.5200987 227.66
5.3796821 -5.943377 -1.317067 227.85001
5.420013 -5.9879341 -1.1350958 227.85001
5.4655604 -6.0382543 -0.95243573 227.85001
5.5311298 -6.1106944 -0.76895946 227.85001
5.6232891 -6.2125101 -0.58595437 227.85001
2.9402189 -3.2483017 -1.950709 227.85001
3.1555793 -3.486228 -1.9641154 227.85001
3.3905745 -3.7458465 -1.9729204 227.85001
39.401432 -43.530003 0 227.85001
3.6020052 -3.9794314 -1.953619 227.85001
3.8717823 -4.2774763 -1.9495125 227.85001
18.222668 -20.13208 1.2663239 227.85001
4.1549993 -4.5903697 -1.9320155 227.85001
18.733585 -20.696533 1.9520651 227.85001
4.5103827 -4.9829907 -1.9272563 227.85001
17.36446 -19.183949 2.4140756 227.85001
4.905334 -5.4193258 -1.9135679 227.85001
18.121666 -20.020494 3.1579051 227.85001
5.3793645 -5.9430265 -1.8993472 227.85001
5.3996229 -5.9654074 -1.7102816 227.85001
5.4023857 -5.9684601 -1.516766 227.85001
5.3554239 -5.9519773 -1.3154459 228.02
5.3916245 -5.9922109 -1.132869 228.02
5.4383197 -6.0441074 -0.9508096 228.02
5.5023193 -6.1152358 -0.76747316 228.02
5.5981588 -6.2217517 -0.58525681 228.02
2.9317901 -3.2583694 -1.9515225 228.02
6.418201 -7.1331401 -0.44748041 228.02
3.1427529 -3.4928317 -1.9625736 228.02
3.3769531 -3.7531202 -1.9714655 228.02
3.5914392 -3.9914985 -1.9543031 228.02
3.8628757 -4.2931709 -1.9514332 228.02
4.1439152 -4.605516 -1.933207 228.02
17.745964 -19.722731 1.8552432 228.02
4.4968638 -4.9977803 -1.9278077 228.02
17.315456 -19.244267 2.4151902 228.02
4.8905268 -5.4352946 -1.9140744 228.02
18.139248 -20.159822 3.1713786 228.02
5.351294 -5.9473877 -1.8956583 228.02
18.694498 -20.776924 3.9280217 228.02
5.3910589 -5.9915819 -1.7131923 228.02
5.3662486 -5.9640083 -1.5115817 228.02
5.3206363 -5.9487181 -1.3112308 228.19
5.3645792 -5.9978485 -1.1309206 228.19
5.4124169 -6.051333 -0.9494158 228.19
5.4748578 -6.1211448 -0.76617271 228.19
5.5756836 -6.2338729 -0.58483827 228.19
2.9221094 -3.2670538 -1.9515225 228.19
6.3876853 -7.1417284 -0.44682822 228.19
3.1360664 -3.5062678 -1.9648862 228.19
3.3608346 -3.7575688 -1.9685556 228.19
39.46109 -44.119328 0 228.19
3.5795805 -4.0021367 -1.9543031 228.19
18.800152 -21.019442 0.65473008 228.19
3.8513837 -4.3060255 -1.9520735 228.19
18.260042 -20.415575 1.2773175 228.19
4.1302323 -4.6177912 -1.933207 228.19
17.676727 -19.763399 1.854127 228.19
4.4845786 -5.013967 -1.9289103 228.19
17.274212 -19.31337 2.4174197 228.19
4.8769584 -5.4526653 -1.9150875 228.19
17.634388 -19.716063 3.0933254 228.19
5.3478956 -5.9791951 -1.9007305 228.19
18.017487 -20.144384 3.7983122 228.19
5.332828 -5.9623489 -1.7003018 228.19
5.3328061 -5.9623246 -1.507138 228.19
5.3003402 -5.9615288 -1.3105823 228.36
5.3375478 -6.0033779 -1.1289722 228.36
5.3878388 -6.0599422 -0.94825429 228.36
5.4474101 -6.1269445 -0.76487219 228.36
5.5531859 -6.2459159 -0.58441973 228.36
2.917259 -3.2811713 -1.9547763 228.36
6.3478832 -7.1397467 -0.44552389 228.36
3.134233 -3.5252116 -1.9702821 228.36
3.3471951 -3.7647395 -1.9671006 228.36
39.51207 -44.440987 0 228.36
3.568939 -4.0141444 -1.9549872 228.36
39.650223 -44.596371 1.3854523 228.36
3.8398495 -4.31885 -1.9527136 228.36
19.011789 -21.383408 1.3343357 228.36
4.1177812 -4.6314521 -1.9338028 228.36
17.461582 -19.639818 1.8376645 228.36
4.4722371 -5.0301242 -1.9300128 228.36
17.196985 -19.342215 2.414633 228.36
4.853045 -5.458436 -1.9120485 228.36
17.622007 -19.820257 3.1014559 228.36
5.3779759 -6.0488491 -1.917792 228.36
18.036596 -20.286562 3.8150129 228.36
5.306015 -5.9679112 -1.697391 228.36
17.677855 -19.88307 4.3710933 228.36
5.3059506 -5.9678392 -1.5045459 228.36
5.277401 -5.971314 -1.3092853 228.53
5.3118429 -6.0102844 -1.1273022 228.53
5.3606267 -6.0654826 -0.94662821 228.53
5.4212947 -6.1341276 -0.76375747 228.53
5.5253811 -6.2519002 -0.58344316 228.53
2.9026711 -3.2843363 -1.9515225 228.53
6.3187327 -7.1495681 -0.44496489 228.53
3.1164269 -3.5261984 -1.965657 228.53
3.337244 -3.7760503 -1.967828 228.53
17.735785 -20.067822 0 228.53
3.557013 -4.0247164 -1.9549872 228.53
18.464558 -20.892418 0.64734906 228.53
3.8282731 -4.3316436 -1.9533539 228.53
17.827665 -20.171782 1.2554233 228.53
4.1052856 -4.6450801 -1.9343987 228.53
17.473257 -19.770775 1.8450587 228.53
4.4572926 -5.0433717 -1.9300128 228.53
4.8368282 -5.4728112 -1.9120485 228.53
18.052485 -20.426165 3.1878722 228.53
5.2805114 -5.974833 -1.6948961 228.53
17.643614 -19.96353 4.377254 228.53
5.2934265 -5.9894466 -1.5060271 228.53
5.2544503 -5.9810152 -1.3079883 228.7
5.2874508 -6.018579 -1.1259104 228.7
5.3373618 -6.0753918 -0.94569898 228.7
5.3978133 -6.1442018 -0.76301438 228.7
5.5068069 -6.2682667 -0.58344316 228.7
2.8965311 -3.2970521 -1.9539628 228.7
6.2895803 -7.1592793 -0.44440588 228.7
3.115695 -3.5465212 -1.9718238 228.7
3.3223367 -3.7817366 -1.9656457 228.7
17.715765 -20.165432 0 228.7
3.5462961 -4.036664 -1.9556712 228.7
18.409086 -20.954622 0.64758116 228.7
3.8141534 -4.3415599 -1.9527136 228.7
17.794107 -20.254606 1.2572867 228.7
4.0927453 -4.6586742 -1.9349943 228.7
17.868811 -20.339642 1.8931907 228.7
4.4435778 -5.0580187 -1.930564 228.7
17.095047 -19.458883 2.4164908 228.7
4.823123 -5.4900455 -1.9130615 228.7
17.07143 -19.432001 3.0247965 228.7
17.466234 -19.881397 3.7192619 228.7
5.2575955 -5.9845958 -1.6932328 228.7
17.606445 -20.040997 4.3827662 228.7
5.2327867 -5.9921198 -1.3070155 228.87
5.2591481 -6.0223064 -1.1236836 228.87
5.3114729 -6.0822239 -0.94430518 228.87
5.3834887 -6.16469 -0.76357168 228.87
5.4894967 -6.2860808 -0.58358264 228.87
2.8891394 -3.3083842 -1.9555898 228.87
3.1063724 -3.5571399 -1.9725946 228.87
3.3172286 -3.7985938 -1.969283 228.87
17.812405 -20.397173 0 228.87
3.5355396 -4.048584 -1.9563552 228.87
18.541479 -21.232044 0.65445155 228.87
3.8025014 -4.3542848 -1.9533539 228.87
17.72999 -20.302799 1.2570072 228.87
4.0789051 -4.6707973 -1.9349943 228.87
17.290012 -19.798975 1.838083 228.87
4.4336095 -5.076973 -1.9327692 228.87
16.694056 -19.116539 2.3678155 228.87
4.808085 -5.5057893 -1.9135679 228.87
17.00194 -19.469101 3.0227058 228.87
5.3994474 -6.1829643 -1.9449979 228.87
17.564798 -20.113638 3.7529418 228.87
5.2565441 -6.0193248 -1.6986386 228.87
17.53652 -20.081257 4.3801723 228.87
5.2162786 -6.0091095 -1.3073398 229.03999
5.2373614 -6.0333972 -1.1228486 229.03999
5.2907987 -6.0949564 -0.94384056 229.03999
5.4682055 -6.2993274 -0.58330363 229.03999
2.8829036 -3.3210812 -1.9580302 229.03999
3.0970142 -3.5677347 -1.9733655 229.03999
3.3071647 -3.8098264 -1.9700105 229.03999
17.734762 -20.4303 0 229.03999
3.5247438 -4.0604758 -1.9570392 229.03999
18.617336 -21.447016 0.65937227 229.03999
3.7908072 -4.3669786 -1.9539942 229.03999
17.817661 -20.525799 1.2675351 229.03999
4.0675316 -4.6857624 -1.9361858 229.03999
4.4185262 -5.0901055 -1.9327692 229.03999
17.007994 -19.593067 2.420578 229.03999
4.7968011 -5.5258751 -1.915594 229.03999
17.90251 -20.623543 3.1936796 229.03999
5.3593907 -6.1739736 -1.9371589 229.03999
17.47648 -20.132761 3.7468183 229.03999
5.2630272 -6.062964 -1.7065392 229.03999
17.414762 -20.061663 4.3646083 229.03999
5.199964 -5.9903159 -1.4945477 229.03999
5.1935077 -6.0209842 -1.3063672 229.22
5.2132068 -6.0438223 -1.1217352 229.22
5.2651372 -6.1040268 -0.94267905 229.22
5.3678422 -6.2230949 -0.76673001 229.22
5.4379635 -6.3043895 -0.58218753 229.22
2.8712626 -3.3287382 -1.9572167 229.22
3.0869961 -3.5788441 -1.9741364 229.22
3.2963963 -3.8216081 -1.9707379 229.22
17.613014 -20.419277 0 229.22
3.51197 -4.0715289 -1.9570392 229.22
17.795021 -20.630285 0.63254058 229.22
3.7770693 -4.3788662 -1.9539942 229.22
17.75309 -20.581673 1.2675351 229.22
4.055285 -4.7014093 -1.9373773 229.22
17.115316 -19.842283 1.832363 229.22
4.4025135 -5.1039615 -1.9327692 229.22
17.08943 -19.812273 2.4410143 229.22
4.7819448 -5.5438476 -1.916607 229.22
16.886585 -19.577108 3.0234027 229.22
5.3475947 -6.1996222 -1.9399257 229.22
17.40579 -20.179039 4.3782268 229.22
5.1759844 -6.0006695 -1.4930665 229.22
5.1730509 -6.0333705 -1.3057187 229.39
5.1913838 -6.0547528 -1.1209002 229.39
5.2444172 -6.1166058 -0.94221449 229.39
5.3506503 -6.2405062 -0.7669158 229.39
5.4101439 -6.3098941 -0.58121091 229.39
2.8578057 -3.3330815 -1.9547763 229.39
3.077565 -3.5893886 -1.9749072 229.39
3.2850428 -3.8313718 -1.9707379 229.39
39.681877 -46.281292 0 229.39
3.5010974 -4.0833578 -1.9577233 229.39
17.594475 -20.520576 0.62757343 229.39
3.7640605 -4.3900537 -1.9539942 229.39
17.669838 -20.608473 1.2659512 229.39
4.0438032 -4.7163196 -1.9385688 229.39
16.882349 -19.69002 1.8136684 229.39
4.3911042 -5.1213803 -1.934423 229.39
17.035755 -19.868937 2.4417574 229.39
4.7717719 -5.5653553 -1.9191395 229.39
16.840061 -19.640697 3.0254934 229.39
5.3215761 -6.2065969 -1.9371589 229.39
18.180826 -21.204443 4.5889835 229.39
5.1581573 -6.0160003 -1.4930665 229.39
5.1489515 -6.0435834 -1.3044217 229.57001
5.1684837 -6.0665092 -1.1200651 229.57001
5.223887 -6.1315393 -0.94198215 229.57001
5.3310189 -6.2572851 -0.7669158 229.57001
5.3877063 -6.323822 -0.5809319 229.57001
2.8544297 -3.3503878 -1.9596572 229.57001
3.0662735 -3.5990393 -1.9749072 229.57001
3.2741983 -3.8430912 -1.9714655 229.57001
39.713978 -46.614296 0 229.57001
3.4919083 -4.0986285 -1.9597754 229.57001
17.616798 -20.677723 0.63068372 229.57001
3.7514789 -4.4032993 -1.9546343 229.57001
17.63999 -20.704943 1.2684667 229.57001
4.0277281 -4.7275472 -1.9379731 229.57001
4.3774872 -5.1380768 -1.9355255 229.57001
16.717548 -19.622227 2.4049723 229.57001
4.7567735 -5.5832644 -1.9201525 229.57001
16.631414 -19.521128 2.999011 229.57001
5.2957411 -6.2158775 -1.9348533 229.57001
16.518854 -19.389009 3.5798106 229.57001
5.1559715 -6.0518231 -1.6899062 229.57001
5.1405067 -6.0336714 -1.4934368 229.57001
18.001333 -21.12907 5.2298059 229.57001
5.127171 -6.0543156 -1.3034489 229.74001
5.1491814 -6.0803065 -1.1197867 229.74001
5.203104 -6.14398 -0.94151753 229.74001
5.3098559 -6.2700357 -0.76654422 229.74001
5.3689194 -6.3397799 -0.5809319 229.74001
2.8432956 -3.3574481 -1.9588437 229.74001
3.0531962 -3.6053047 -1.9733655 229.74001
3.2639852 -3.8542106 -1.9721929 229.74001
39.737061 -46.922703 0 229.74001
3.4797323 -4.1089711 -1.9597754 229.74001
17.600595 -20.783306 0.63230848 229.74001
3.7371731 -4.4129648 -1.9539942 229.74001
18.681087 -22.059185 1.3480312 229.74001
4.0186191 -4.7453046 -1.9403561 229.74001
4.3659501 -5.1554437 -1.9371793 229.74001
16.506109 -19.490906 2.382864 229.74001
4.7551913 -5.6150713 -1.9262305 229.74001
16.529772 -19.518847 2.9911127 229.74001
5.2684708 -6.2211671 -1.9316255 229.74001
16.445894 -19.4198 3.5764704 229.74001
5.1417851 -6.0715728 -1.6911536 229.74001
16.866096 -19.915989 4.2877636 229.74001
5.1213117 -6.0473971 -1.4930665 229.74001
17.943644 -21.188389 5.2312875 229.74001
5.1091847 -6.0695019 -1.3034489 229.91
5.1349444 -6.1001029 -1.1206218 229.91
5.1925273 -6.168509 -0.94291139 229.91
5.2476268 -6.2339654 -0.76022762 229.91
5.3590794 -6.3663659 -0.58190852 229.91
2.838028 -3.3714607 -1.9620975 229.91
3.0424855 -3.6143479 -1.9733655 229.91
3.2513354 -3.862453 -1.9714655 229.91
39.775406 -47.251549 0 229.91
3.4675252 -4.1192775 -1.9597754 229.91
17.581345 -20.885916 0.63384038 229.91
3.7289438 -4.4298325 -1.956555 229.91
16.946857 -20.132172 1.2271938 229.91
4.0057511 -4.7586679 -1.9409518 229.91
16.695248 -19.833267 1.8128313 229.91
4.3493962 -5.1669044 -1.9366281 229.91
16.599531 -19.719561 2.4047863 229.91
4.7646761 -5.6602397 -1.9368671 229.91
16.453876 -19.54653 2.9878604 229.91
5.2462292 -6.232305 -1.9302422 229.91
16.402231 -19.485178 3.5795321 229.91
5.1262679 -6.0897956 -1.6919854 229.91
17.874521 -21.234198 4.5601258 229.91
5.1033463 -6.0625658 -1.4930665 229.91
17.883228 -21.244541 5.232028 229.91
5.0873542 -6.0800934 -1.3024762 230.08
5.1168222 -6.1153116 -1.1206218 230.08
5.1665535 -6.1747475 -0.94151753 230.08
5.2380524 -6.2601986 -0.76152807 230.08
5.3555298 -6.4006004 -0.58358264 230.08
2.8268397 -3.3784652 -1.961284 230.08
3.0293796 -3.6205285 -1.9718238 230.08
3.2410564 -3.8735116 -1.9721929 230.08
39.773643 -47.535015 0 230.08
3.4564939 -4.1309891 -1.9604595 230.08
17.601416 -21.036129 0.63681138 230.08
3.7133522 -4.4379702 -1.9552746 230.08
17.822941 -21.300884 1.2952056 230.08
3.9928396 -4.7719965 -1.9415476 230.08
4.3389816 -5.1856842 -1.9388331 230.08
17.533867 -20.9554 2.5491405 230.08
4.7615185 -5.6906743 -1.9424386 230.08
17.339123 -20.722652 3.1597636 230.08
5.2177238 -6.2359033 -1.9265531 230.08
17.138685 -20.483105 3.7534986 230.08
5.1144533 -6.1124806 -1.6940645 230.08
17.545485 -20.969284 4.4920354 230.08
5.086597 -6.0791883 -1.4934368 230.08
17.939936 -21.440708 5.2672067 230.08
5.0754046 -6.1003447 -1.3037732 230.24001
5.1035256 -6.1341443 -1.1214569 230.24001
5.1492901 -6.1891508 -0.94151753 230.24001
5.3567758 -6.4385366 -0.58567536 230.24001
2.8173943 -3.3863459 -1.961284 230.24001
8.01793 -9.6370907 -0.58462203 230.24001
3.0239787 -3.6346486 -1.9749072 230.24001
39.697842 -47.714527 -1.4410654 230.24001
3.2314184 -3.8839793 -1.9729204 230.24001
39.772499 -47.804256 0 230.24001
3.4461465 -4.1420703 -1.9611435 230.24001
17.440298 -20.962236 0.63309765 230.24001
3.7033682 -4.4512358 -1.956555 230.24001
17.26634 -20.753149 1.2589637 230.24001
3.9807191 -4.7845955 -1.9421433 230.24001
16.486313 -19.815601 1.8025073 230.24001
4.3232541 -5.1963029 -1.9382819 230.24001
18.049681 -21.694679 2.6329291 230.24001
4.7542706 -5.7143602 -1.9459841 230.24001
5.1953111 -6.2444654 -1.9247087 230.24001
17.129555 -20.588739 3.7640758 230.24001
5.1023688 -6.1327543 -1.6957277 230.24001
17.64085 -21.203287 4.5315928 230.24001
5.0721149 -6.0963907 -1.4941775 230.24001
5.0626903 -6.1262698 -1.3057187 230.42999
5.0856791 -6.154088 -1.1220136 230.42999
5.1211452 -6.1970053 -0.94012374 230.42999
5.3582721 -6.4839478 -0.58818656 230.42999
2.8084769 -3.3984869 -1.962911 230.42999
5.5882406 -6.7622285 -0.40909564 230.42999
3.0130847 -3.6460791 -1.9756781 230.42999
39.482082 -47.77655 -1.4389764 230.42999
3.2244549 -3.9018543 -1.9765579 230.42999
39.5182 -47.820259 0 230.42999
3.4323921 -4.1534753 -1.9611435 230.42999
17.326109 -20.966011 0.63147289 230.42999
3.686173 -4.4605708 -1.9552746 230.42999
3.9672632 -4.8007131 -1.9433348 230.42999
16.813231 -20.345387 1.8456168 230.42999
4.3108974 -5.2165384 -1.940487 230.42999
17.912943 -21.676128 2.6234541 230.42999
4.7389927 -5.7345686 -1.9475037 230.42999
16.304907 -19.730272 2.9932034 230.42999
5.1584587 -6.242157 -1.9187142 230.42999
16.861845 -20.404213 3.7200971 230.42999
5.0882349 -6.1571808 -1.6978068 230.42999
5.0556269 -6.117722 -1.4952884 230.42999
5.041986 -6.1382141 -1.3050702 230.60001
5.0761971 -6.1798635 -1.1239619 230.60001
5.132997 -6.2490129 -0.94569898 230.60001
5.3681369 -6.5352769 -0.59139538 230.60001
2.7960618 -3.4039812 -1.961284 230.60001
7.9673648 -9.6996288 -0.58536732 230.60001
3.0092816 -3.6635594 -1.9803032 230.60001
39.250046 -47.783787 -1.4356805 230.60001
3.214046 -3.9128437 -1.9772853 230.60001
25.121365 -30.58325 0 230.60001
3.4260178 -4.1709023 -1.9645637 230.60001
17.216869 -20.960159 0.62975526 230.60001
3.6789353 -4.4788094 -1.9584757 230.60001
17.39049 -21.171528 1.2776902 230.60001
3.9554255 -4.815414 -1.9445263 230.60001
4.2954006 -5.2293062 -1.940487 230.60001
17.30125 -21.062887 2.5430095 230.60001
4.7207289 -5.7471094 -1.9469972 230.60001
17.555077 -21.371901 3.2343323 230.60001
5.131268 -6.2469082 -1.9154863 230.60001
16.774832 -20.422014 3.7142518 230.60001
5.0798774 -6.1843443 -1.7011335 230.60001
5.0449381 -6.141808 -1.4975102 230.60001
5.0337362 -6.1653767 -1.307664 230.77
5.0641012 -6.2025681 -1.1253537 230.77
5.0993576 -6.2457504 -0.94291139 230.77
5.3752203 -6.5836301 -0.59432518 230.77
2.7894161 -3.4165082 -1.9637245 230.77
7.9233885 -9.7046547 -0.58424932 230.77
2.9995656 -3.6739016 -1.981074 230.77
39.004402 -47.773029 -1.4318739 230.77
3.2059569 -3.9266922 -1.9794677 230.77
25.106403 -30.750605 0 230.77
3.4100618 -4.176682 -1.9625115 230.77
16.897903 -20.696741 0.6203317 230.77
3.6668286 -4.4911728 -1.959116 230.77
16.855047 -20.644251 1.2428458 230.77
3.942328 -4.8286076 -1.9451221 230.77
16.794409 -20.569981 1.8569174 230.77
4.2810822 -5.2435169 -1.9410383 230.77
16.423847 -20.116112 2.4228075 230.77
4.7024326 -5.7595921 -1.9464906 230.77
16.911173 -20.712994 3.1270092 230.77
5.1077876 -6.2560754 -1.9136418 230.77
16.623981 -20.361238 3.6942108 230.77
5.071404 -6.2115121 -1.70446 230.77
16.813652 -20.59355 4.3678508 230.77
5.0304217 -6.1613169 -1.4986211 230.77
17.17329 -21.034039 5.1161227 230.77
5.0179081 -6.1833496 -1.3083125 230.94
5.0569077 -6.2314072 -1.1278588 230.94
5.4009218 -6.6553206 -0.59934765 230.94
2.7792668 -3.4247694 -1.9637245 230.94
7.8933005 -9.7265701 -0.58415616 230.94
2.9898145 -3.6842182 -1.9818448 230.94
24.933979 -30.725056 -0.91868323 230.94
3.1942923 -3.936187 -1.9794677 230.94
24.960863 -30.758184 0 230.94
3.3988385 -4.1882405 -1.9631957 230.94
16.691528 -20.568243 0.61499321 230.94
3.6558747 -4.5049753 -1.9603964 230.94
24.999228 -30.80546 1.8501074 230.94
3.9267807 -4.8388009 -1.9445263 230.94
16.603811 -20.460154 1.8425475 230.94
4.2667165 -5.257689 -1.9415896 230.94
16.303858 -20.090534 2.4138899 230.94
4.6926379 -5.7825332 -1.9495296 230.94
16.936012 -20.869509 3.1430378 230.94
5.0904293 -6.2727141 -1.914103 230.94
17.201223 -21.19632 3.8364458 230.94
5.0665116 -6.2432413 -1.7090341 230.94
16.756207 -20.647943 4.3688235 230.94
5.018311 -6.183846 -1.5004725 230.94
17.05879 -21.020803 5.1005697 230.94
5.0071297 -6.2098379 -1.3105823 231.12
5.0484948 -6.2611389 -1.1303639 231.12
5.1309352 -6.3633814 -0.95592022 231.12
5.4087901 -6.7079773 -0.60255641 231.12
2.7719345 -3.4377508 -1.9661649 231.12
7.8501644 -9.7357674 -0.58322448 231.12
2.9759088 -3.6907196 -1.9803032 231.12
17.181559 -21.308556 -0.63551158 231.12
3.1807411 -3.9447525 -1.9787402 231.12
24.925625 -30.912739 0 231.12
3.3892031 -4.2032866 -1.9652478 231.12
16.572863 -20.55365 0.61299706 231.12
3.6417038 -4.516438 -1.9603964 231.12
16.465281 -20.420227 1.2232808 231.12
3.9103615 -4.849627 -1.9439306 231.12
4.2537985 -5.275557 -1.9432434 231.12
16.401905 -20.341629 2.437856 231.12
4.676877 -5.8002591 -1.9505427 231.12
16.346672 -20.27313 3.0454712 231.12
5.0731411 -6.2917051 -1.9150252 231.12
16.414757 -20.357567 3.6752832 231.12
5.0628362 -6.2789254 -1.7144397 231.12
17.033159 -21.12451 4.4583139 231.12
5.0062613 -6.2087612 -1.5026944 231.12
16.964293 -21.039101 5.0920529 231.12
5.0033479 -6.2407336 -1.3141489 231.28
5.0446181 -6.2922101 -1.1334257 231.28
5.0895367 -6.3482375 -0.9515065 231.28
5.4125009 -6.7510743 -0.60506767 231.28
2.7634666 -3.4469037 -1.9669784 231.28
2.9667451 -3.7004552 -1.981074 231.28
17.114483 -21.347092 -0.63523304 231.28
3.1720436 -3.9565265 -1.9801952 231.28
17.107836 -21.3388 0 231.28
3.3786275 -4.214201 -1.9659318 231.28
16.502895 -20.584251 0.61253285 231.28
3.6290774 -4.5265903 -1.9603964 231.28
17.051773 -21.268873 1.2712617 231.28
3.8991921 -4.8635073 -1.9451221 231.28
16.905172 -21.086016 1.8898424 231.28
4.2402525 -5.2889156 -1.9437946 231.28
15.772052 -19.672661 2.3523953 231.28
4.6606617 -5.8132968 -1.9505427 231.28
16.303663 -20.335749 3.0480266 231.28
5.0555515 -6.3058476 -1.9150252 231.28
16.331827 -20.370876 3.6694379 231.28
17.306177 -21.586195 4.5455351 231.28
5.0024271 -6.2395849 -1.5067677 231.28
16.906704 -21.087925 5.0924234 231.28
4.9973779 -6.2758174 -1.3180398 231.47
5.0372958 -6.3259468 -1.1364875 231.47
5.0820684 -6.3821735 -0.95406181 231.47
5.4186683 -6.804883 -0.60827643 231.47
2.7542973 -3.4589074 -1.9686054 231.47
7.7756119 -9.7647848 -0.58210647 231.47
2.9510088 -3.7059419 -1.9787614 231.47
17.085947 -21.456909 -0.63681138 231.47
3.158906 -3.9670236 -1.9801952 231.47
17.048193 -21.409496 0 231.47
3.3646343 -4.2253819 -1.9659318 231.47
16.343622 -20.524681 0.60914409 231.47
3.6175878 -4.5430465 -1.9623171 231.47
3.8830426 -4.8764105 -1.9451221 231.47
17.13343 -21.516541 1.9233255 231.47
4.2274804 -5.3089633 -1.9459997 231.47
17.290798 -21.714165 2.5896413 231.47
4.6510005 -5.8408289 -1.9545947 231.47
5.0334005 -6.3210554 -1.9145641 231.47
17.201817 -21.602419 3.8809812 231.47
5.1535602 -6.4719548 -1.758517 231.47
17.052553 -21.414972 4.4975471 231.47
4.9927273 -6.2699766 -1.5101005 231.47
16.724045 -21.002424 5.0583553 231.47
4.97996 -6.2921648 -1.318364 231.64
5.0344825 -6.3610539 -1.1401061 231.64
5.0705066 -6.4065704 -0.95545566 231.64
5.4244556 -6.8537836 -0.61120623 231.64
2.7440224 -3.4670641 -1.9686054 231.64
7.7937198 -9.8473415 -0.58564687 231.64
2.9400001 -3.7146814 -1.9787614 231.64
37.941978 -47.939579 -1.4194329 231.64
3.1459653 -3.9749181 -1.9794677 231.64
3.3590806 -4.2441883 -1.970036 231.64
16.734327 -21.143774 0.62604153 231.64
3.6052682 -4.5552459 -1.9629574 231.64
18.196091 -22.990707 1.3673167 231.64
3.8697419 -4.8894072 -1.9457178 231.64
17.167332 -21.690872 1.934347 231.64
4.212903 -5.3229909 -1.946551 231.64
4.6336498 -5.8546028 -1.9545947 231.64
17.021271 -21.506325 3.2073853 231.64
5.0363631 -6.36343 -1.9228642 231.64
17.137644 -21.653362 3.8809812 231.64
5.1039829 -6.4488673 -1.7481215 231.64
17.197151 -21.72855 4.5526681 231.64
4.9899583 -6.3047976 -1.5149144 231.64
4.9795718 -6.3301802 -1.3232276 231.81
5.0327301 -6.3977566 -1.1440029 231.81
5.0674419 -6.4418831 -0.95847559 231.81
5.4225993 -6.8933697 -0.61329889 231.81
2.734853 -3.4766266 -1.9694189 231.81
7.7496452 -9.8515797 -0.58452886 231.81
2.9289656 -3.7233882 -1.9787614 231.81
37.695732 -47.919937 -1.4155335 231.81
3.1353097 -3.9856989 -1.9801952 231.81
16.699507 -21.22891 0 231.81
3.3406632 -4.2467508 -1.9666158 231.81
16.514521 -20.99375 0.62014598 231.81
3.5905652 -4.5644336 -1.9623171 231.81
16.629499 -21.139914 1.2543054 231.81
3.8575785 -4.9038687 -1.9469093 231.81
17.174442 -21.832663 1.9424387 231.81
4.1994681 -5.3384891 -1.9476535 231.81
15.611564 -19.845886 2.3557394 231.81
4.6150622 -5.8668046 -1.9540882 231.81
16.343298 -20.776089 3.0912347 231.81
5.0258827 -6.3890519 -1.926092 231.81
16.250452 -20.65806 3.6939325 231.81
5.067893 -6.4424567 -1.7422999 231.81
17.170431 -21.827564 4.5627198 231.81
4.9858117 -6.3381124 -1.519358 231.81
17.364672 -22.074488 5.291647 231.81
4.9765701 -6.3651385 -1.3274428 231.98
5.0308037 -6.434504 -1.1478997 231.98
5.4230132 -6.9361482 -0.61567062 231.98
2.7234001 -3.4832864 -1.9686054 231.98
7.7203808 -9.8745298 -0.58452886 231.98
2.9167683 -3.7306085 -1.9779906 231.98
37.522594 -47.992191 -1.4143729 231.98
3.1269126 -3.999387 -1.9823776 231.98
3.3292058 -4.2581244 -1.9672998 231.98
16.418907 -21.000128 0.61889261 231.98
3.5805075 -4.579545 -1.9642378 231.98
16.590082 -21.219065 1.2560755 231.98
3.8465393 -4.919805 -1.9486966 231.98
16.167044 -20.67799 1.8354323 231.98
4.1883469 -5.3569841 -1.9498587 231.98
16.879734 -21.589537 2.5567577 231.98
4.5964432 -5.8789477 -1.9535817 231.98
16.239983 -20.77128 3.0833364 231.98
5.0248842 -6.4269333 -1.9330088 231.98
16.134193 -20.635973 3.681407 231.98
5.0379109 -6.4435949 -1.7385576 231.98
17.154217 -21.940605 4.5756893 231.98
4.9790897 -6.368361 -1.5230612 231.98
17.309994 -22.139849 5.2949796 231.98
4.9722881 -6.4010029 -1.3316579 232.16
5.0275741 -6.4721742 -1.1517966 232.16
5.0621176 -6.5166435 -0.96498001 232.16
5.4109874 -6.9657559 -0.61678672 232.16
2.7158062 -3.4961538 -1.9710457 232.16
2.9129589 -3.7499552 -1.9833865 232.16
37.294365 -48.010357 -1.4114484 232.16
3.1131897 -4.0077195 -1.9816501 232.16
3.3227296 -4.2774677 -1.9714041 232.16
16.411728 -21.127399 0.62112087 232.16
3.566103 -4.5907707 -1.9642378 232.16
16.709627 -21.510897 1.2702368 232.16
3.8310642 -4.9318647 -1.9486966 232.16
16.908571 -21.767002 1.9273714 232.16
4.1726761 -5.371634 -1.9504099 232.16
17.372545 -22.364294 2.6420324 232.16
4.5826988 -5.8994708 -1.9556077 232.16
16.11128 -20.740622 3.0712569 232.16
5.0213828 -6.4642043 -1.9394644 232.16
16.096012 -20.720968 3.6875305 232.16
5.0212436 -6.464025 -1.739805 232.16
16.614246 -21.388107 4.4495597 232.16
4.973527 -6.4025979 -1.5275048 232.16
4.9688697 -6.4336061 -1.3355488 232.32001
5.0240078 -6.5049982 -1.1551367 232.32001
5.0633278 -6.5559087 -0.96869683 232.32001
5.4293194 -7.0297885 -0.62111163 232.32001
2.7049158 -3.5022781 -1.9702322 232.32001
37.046772 -47.967514 -2.8264029 232.32001
2.9036038 -3.7595358 -1.9841573 232.32001
37.102707 -48.03994 -1.4092666 232.32001
3.1042635 -4.0193467 -1.9831051 232.32001
3.3061767 -4.2807803 -1.968668 232.32001
16.298889 -21.103519 0.61907834 232.32001
3.5579019 -4.6067095 -1.9667988 232.32001
3.8196111 -4.9455662 -1.9498881 232.32001
15.639172 -20.249329 1.789114 232.32001
4.1600099 -5.3863082 -1.9515125 232.32001
16.668552 -21.582153 2.5441244 232.32001
4.5650239 -5.9107137 -1.9551011 232.32001
16.054512 -20.787104 3.0714891 232.32001
5.0152073 -6.4936037 -1.9440757 232.32001
16.091352 -20.834805 3.6997776 232.32001
5.0510044 -6.5399528 -1.756438 232.32001
16.868099 -21.840523 4.5338621 232.32001
4.9712458 -6.4366832 -1.5323187 232.32001
4.968986 -6.4733686 -1.3407366 232.49001
5.0239801 -6.545013 -1.1595902 232.49001
5.0632067 -6.5961151 -0.97241366 232.49001
5.427875 -7.0711889 -0.62334383 232.49001
2.6945124 -3.5102882 -1.9702322 232.49001
36.84346 -47.997986 -2.8217444 232.49001
2.8901887 -3.7652066 -1.9826157 232.49001
36.884521 -48.051479 -1.4063884 232.49001
3.0911899 -4.0270615 -1.9823776 232.49001
3.2934608 -4.2905707 -1.968668 232.49001
16.222811 -21.13434 0.61856765 232.49001
3.5419104 -4.6142397 -1.9655184 232.49001
16.367708 -21.323105 1.2535601 232.49001
3.8072455 -4.9599061 -1.9510796 232.49001
15.580236 -20.297224 1.7892536 232.49001
4.1463513 -5.4016776 -1.952615 232.49001
17.37319 -22.633003 2.6619112 232.49001
4.5510006 -5.9288368 -1.9566207 232.49001
16.039938 -20.896103 3.0805488 232.49001
5.0018435 -6.5161743 -1.9463813 232.49001
16.543198 -21.551725 3.8183532 232.49001
16.520826 -21.522581 4.4576659 232.49001
4.970077 -6.4747906 -1.5378733 232.49001
4.9653792 -6.5109172 -1.345276 232.67
5.0226097 -6.5859613 -1.1640438 232.67
5.0569143 -6.6309438 -0.97520125 232.67
5.4382997 -7.1310401 -0.62711072 232.67
2.6845791 -3.5201888 -1.9710457 232.67
36.631916 -48.034065 -2.8170862 232.67
2.8794649 -3.7757351 -1.9833865 232.67
36.64851 -48.055824 -1.403139 232.67
3.0762637 -4.0337901 -1.9809227 232.67
3.2879429 -4.311357 -1.9734563 232.67
16.292133 -21.363268 0.6237669 232.67
3.5285459 -4.6268506 -1.9661585 232.67
16.369694 -21.46497 1.2588705 232.67
3.7928026 -4.9733605 -1.9516753 232.67
15.478889 -20.29689 1.7849287 232.67
4.13519 -5.4223208 -1.9553714 232.67
17.676346 -23.178335 2.7195044 232.67
4.534699 -5.9461818 -1.9576337 232.67
16.566875 -21.723528 3.1948411 232.67
4.9848881 -6.5364981 -1.9477646 232.67
16.373323 -21.46973 3.7946937 232.67
16.19463 -21.235415 4.3876295 232.67
4.9723568 -6.5200663 -1.5449091 232.67
4.9651132 -6.550786 -1.3504639 232.84
5.0257773 -6.6308241 -1.1693324 232.84
5.0516167 -6.664916 -0.9779889 232.84
5.4219379 -7.1535044 -0.62766874 232.84
2.6785374 -3.533963 -1.9742997 232.84
2.874938 -3.7930865 -1.9880116 232.84
3.068783 -4.0488386 -1.9838326 232.84
3.2717309 -4.3166003 -1.9714041 232.84
16.314426 -21.524651 0.6270628 232.84
3.5159466 -4.6388097 -1.9667988 232.84
16.327656 -21.542105 1.2605475 232.84
3.7791827 -4.986114 -1.9522711 232.84
16.271839 -21.468464 1.8837038 232.84
4.1214061 -5.4376307 -1.9564739 232.84
4.5205421 -5.9642363 -1.9591532 232.84
16.213169 -21.391056 3.1388564 232.84
4.9654717 -6.55126 -1.9477646 232.84
16.405256 -21.644487 3.8169615 232.84
5.3991241 -7.1234045 -1.899897 232.84
16.118437 -21.266069 4.3840628 232.84
4.9719844 -6.5598521 -1.5508339 232.84
16.153013 -21.311687 5.0383587 232.84
4.962316 -6.5900006 -1.3553275 233.02
5.023983 -6.6718946 -1.1737859 233.02
5.0509672 -6.7077303 -0.981938 233.02
5.3904176 -7.1585236 -0.83602744 233.02
5.4402428 -7.2246919 -0.6324122 233.02
2.6685209 -3.5438199 -1.9751132 233.02
36.204414 -48.079788 -2.8067446 233.02
2.8618972 -3.8006256 -1.9872407 233.02
36.219563 -48.099907 -1.3979397 233.02
3.0549273 -4.0569715 -1.9831051 233.02
3.2558925 -4.3238549 -1.970036 233.02
16.250332 -21.580589 0.62720209 233.02
3.5059152 -4.6558871 -1.9693598 233.02
15.786403 -20.964487 1.2238398 233.02
3.7680936 -5.0040627 -1.9546541 233.02
15.765062 -20.936146 1.8326421 233.02
4.106616 -5.4536228 -1.9575765 233.02
15.659762 -20.796307 2.4287524 233.02
4.5041103 -5.9814997 -1.9601662 233.02
17.55949 -23.31916 3.4136691 233.02
4.9495487 -6.5730457 -1.9496092 233.02
16.582598 -22.021841 3.8743007 233.02
5.5661807 -7.3919387 -1.9668446 233.02
16.277109 -21.616148 4.4456687 233.02
4.9773617 -6.6099811 -1.5589806 233.02
16.114355 -21.400011 5.047246 233.02
4.9652081 -6.6347165 -1.3614881 233.19
5.0267115 -6.7168994 -1.1790745 233.19
5.0524669 -6.7513146 -0.98611945 233.19
5.3619952 -7.1649194 -0.83491272 233.19
5.4331279 -7.2599697 -0.63408637 233.19
2.6601839 -3.5546477 -1.9767401 233.19
36.016113 -48.126217 -2.8032043 233.19
2.8539252 -3.8135328 -1.9895532 233.19
36.011997 -48.120716 -1.3954329 233.19
3.0451093 -4.0690007 -1.98456 233.19
3.2486794 -4.3410196 -1.9734563 233.19
16.235348 -21.694344 0.62910539 233.19
3.4920855 -4.6662688 -1.9693598 233.19
15.700191 -20.979242 1.2219764 233.19
3.7578053 -5.0213346 -1.9570371 233.19
16.348394 -21.8454 1.907979 233.19
4.0973282 -5.475019 -1.9608841 233.19
15.63975 -20.898479 2.4352551 233.19
4.4863434 -5.9948373 -1.9601662 233.19
4.9323564 -6.5908184 -1.9505314 233.19
16.061506 -21.462048 3.7674158 233.19
5.5442238 -7.408421 -1.9668446 233.19
15.965764 -21.334112 4.3779025 233.19
4.9801021 -6.6546178 -1.5660164 233.19
16.141466 -21.568893 5.0757594 233.19
4.9879007 -6.7064276 -1.3731607 233.36
5.0292172 -6.7619791 -1.1843631 233.36
5.0573082 -6.7997484 -0.99099773 233.36
5.3276405 -7.1632209 -0.83286911 233.36
2.6507158 -3.5639911 -1.9775536 233.36
22.392111 -30.107067 -1.7497667 233.36
2.8448005 -3.8249454 -1.9910949 233.36
22.366257 -30.072306 -0.87012625 233.36
3.0352466 -4.0810075 -1.986015 233.36
3.2346635 -4.3491316 -1.9727722 233.36
3.4816172 -4.6811705 -1.9712805 233.36
15.655759 -21.04978 1.223374 233.36
3.7406116 -5.0293984 -1.9558456 233.36
4.0810652 -5.4871516 -1.9608841 233.36
15.627586 -21.011902 2.4430578 233.36
4.4708457 -6.0112271 -1.9611793 233.36
16.445143 -22.111137 3.2224851 233.36
4.9220705 -6.6179166 -1.9542203 233.36
16.007212 -21.522322 3.7696426 233.36
5.5245533 -7.427978 -1.9676763 233.36
16.141483 -21.702856 4.4437232 233.36
4.9826212 -6.6993289 -1.5730522 233.36
16.090302 -21.634039 5.079833 233.36
5.0338535 -6.8103175 -1.1902083 233.53
5.059545 -6.8450756 -0.99541146 233.53
5.3004451 -7.17099 -0.83194017 233.53
7.2743583 -9.8415031 -0.85577244 233.53
2.6433876 -3.5762479 -1.9799939 233.53
2.83673 -3.8378215 -1.9934075 233.53
3.0220172 -4.0884972 -1.9852875 233.53
3.2239795 -4.3617325 -1.9741403 233.53
15.948258 -21.576452 0.6229313 233.53
3.4688389 -4.6930037 -1.9719206 233.53
15.991051 -21.634346 1.2545849 233.53
3.7268074 -5.0420103 -1.9564413 233.53
16.16748 -21.873039 1.90198 233.53
4.0647669 -5.4992366 -1.9608841 233.53
15.44089 -20.890032 2.4235506 233.53
4.4575906 -6.0306892 -1.9632052 233.53
4.9035702 -6.6340566 -1.9546814 233.53
15.944461 -21.571314 3.7699211 233.53
5.5071411 -7.4506297 -1.9693395 233.53
15.938596 -21.563379 4.4054627 233.53
4.9825821 -6.740952 -1.5793474 233.53
16.066929 -21.737003 5.0927935 233.53
5.0099616 -6.8177419 -1.3900213 233.69
5.0382719 -6.8562675 -1.1957753 233.69
5.0662889 -6.8943939 -1.0005221 233.69
5.2969079 -7.2082291 -0.83454114 233.69
16.05908 -21.853792 -1.8963995 233.69
2.6312268 -3.5806711 -1.9783671 233.69
2.8292801 -3.8501894 -1.99572 233.69
3.0116913 -4.0984216 -1.986015 233.69
3.2140124 -4.3737473 -1.9755083 233.69
15.787304 -21.48395 0.61898547 233.69
3.4545982 -4.7011456 -1.9712805 233.69
15.697518 -21.361767 1.236231 233.69
3.7149742 -5.0554748 -1.9576328 233.69
16.688778 -22.710709 1.9707599 233.69
4.0505323 -5.512115 -1.9614354 233.69
15.404899 -20.963558 2.4270804 233.69
4.4430237 -6.0462322 -1.9642183 233.69
15.922286 -21.667639 3.1444316 233.69
4.8884826 -6.6524286 -1.9560648 233.69
16.250069 -22.113697 3.856765 233.69
5.4874721 -7.467556 -1.9697554 233.69
15.918051 -21.661875 4.4164872 233.69
4.995162 -6.7976022 -1.5893456 233.69
16.117893 -21.933828 5.1283426 233.69
5.0105925 -6.8662019 -1.3965061 233.88
5.0411925 -6.908134 -1.2018989 233.88
5.06916 -6.9464583 -1.0056328 233.88
5.2553673 -7.2016258 -0.83175439 233.88
15.865385 -21.740927 -1.8820297 233.88
2.6171842 -3.5864251 -1.9767401 233.88
2.8099697 -3.8506062 -1.9910949 233.88
2.9980841 -4.108386 -1.986015 233.88
3.2017066 -4.3874178 -1.9768764 233.88
16.173286 -22.162857 0.63699704 233.88
3.4401064 -4.7141061 -1.9719206 233.88
16.82547 -23.056568 1.3310748 233.88
3.7004399 -5.0708508 -1.9588243 233.88
15.499622 -21.23971 1.8386412 233.88
4.0344977 -5.5286231 -1.962538 233.88
15.229649 -20.869755 2.4103599 233.88
4.4229493 -6.0609322 -1.9642183 233.88
15.766035 -21.604786 3.1277061 233.88
4.8675423 -6.6701751 -1.9565259 233.88
16.254869 -22.274652 3.8754141 233.88
5.4661379 -7.4904528 -1.9710028 233.88
16.026451 -21.961643 4.4667444 233.88
4.9992399 -6.8506451 -1.5978626 233.88
5.021481 -6.9241748 -1.4052607 234.05
5.0462537 -6.9583335 -1.2080225 234.05
5.0718513 -6.9936304 -1.0102788 234.05
5.2456675 -7.2333078 -0.8336122 234.05
15.791438 -21.774984 -1.8809136 234.05
2.6097496 -3.5986118 -1.9791805 234.05
2.8006992 -3.8619144 -1.9926367 234.05
2.9880683 -4.1202798 -1.9874699 234.05
3.1886747 -4.3968983 -1.9768764 234.05
3.4261043 -4.7242923 -1.9719206 234.05
15.721329 -21.67831 1.2488085 234.05
3.6864991 -5.0833535 -1.9594201 234.05
15.709447 -21.661926 1.8711476 234.05
4.0214624 -5.545238 -1.9641918 234.05
15.020355 -20.711731 2.3869512 234.05
4.4072185 -6.0771613 -1.9652313 234.05
15.593406 -21.501917 3.106102 234.05
4.8500152 -6.6877384 -1.9574481 234.05
16.230566 -22.380503 3.8854346 234.05
5.4415927 -7.5034709 -1.9701712 234.05
5.0065842 -6.9036331 -1.6067499 234.05
5.0182228 -6.9630594 -1.4101243 234.22
5.0545349 -7.0134439 -1.2149812 234.22
5.0777912 -7.0457139 -1.0156217 234.22
15.702264 -21.787752 -1.8779838 234.22
2.6011972 -3.609304 -1.9808074 234.22
2.7892284 -3.8702073 -1.9926367 234.22
2.9769194 -4.1306391 -1.9881974 234.22
3.174516 -4.4048152 -1.9761924 234.22
3.4153955 -4.7390485 -1.9738413 234.22
15.658107 -21.726482 1.2489017 234.22
3.6758652 -5.1004648 -1.9618031 234.22
15.583282 -21.622658 1.8637534 234.22
4.0083637 -5.5618248 -1.9658456 234.22
16.014851 -22.221483 2.5554571 234.22
4.3891678 -6.0902109 -1.9652313 234.22
4.8347025 -6.7084146 -1.9592927 234.22
16.201145 -22.479977 3.8943417 234.22
5.4147301 -7.5132351 -1.9685079 234.22
5.0148072 -6.9583197 -1.6160074 234.22
5.0215974 -7.0140934 -1.4172575 234.39999
5.0647583 -7.0743794 -1.2227749 234.39999
5.0868535 -7.1052418 -1.0218939 234.39999
5.2396383 -7.3186493 -0.83974308 234.39999
15.624447 -21.823997 -1.8768677 234.39999
2.590909 -3.6189435 -1.9816209 234.39999
2.7813532 -3.884953 -1.99572 234.39999
2.963928 -4.1399708 -1.9881974 234.39999
34.637482 -48.381123 0 234.39999
3.1650383 -4.4208789 -1.9789286 234.39999
3.4026964 -4.7528362 -1.9751219 234.39999
15.397882 -21.507534 1.2335291 234.39999
3.6609349 -5.1135397 -1.9623988 234.39999
15.351516 -21.44277 1.8440821 234.39999
3.9886329 -5.5712633 -1.964743 234.39999
14.978178 -20.921297 2.4005134 234.39999
4.3778973 -6.1149821 -1.9687768 234.39999
4.8170023 -6.7283173 -1.960676 234.39999
16.130442 -22.530764 3.8943417 234.39999
5.3865447 -7.5238461 -1.9668446 234.39999
5.0650015 -7.074719 -1.6393367 234.39999
5.0316544 -7.0723801 -1.426012 234.57001
5.0724492 -7.1297202 -1.2297335 234.57001
5.0922356 -7.1575317 -1.0272368 234.57001
15.557312 -21.867008 -1.8765887 234.57001
2.5865152 -3.6355476 -1.9865018 234.57001
2.7708838 -3.8946922 -1.9964908 234.57001
2.9516313 -4.1487465 -1.9881974 234.57001
3.1508179 -4.428719 -1.9782445 234.57001
3.3874812 -4.7613673 -1.9744816 234.57001
15.32821 -21.544987 1.2330633 234.57001
3.6479602 -5.127491 -1.9635903 234.57001
15.164071 -21.314278 1.8291543 234.57001
