# .PCD v0.7 - Point Cloud Data file format
VERSION 0.7
FIELDS x y z intensity
SIZE 4 4 4 4
TYPE F F F F
COUNT 1 1 1 1
WIDTH 1176
HEIGHT 1
VIEWPOINT 0 0 0 1 0 0 0
POINTS 1176
DATA ascii
-24.295738 53.139992 9.5998039 65.43
-4.2495995 9.2947855 -1.9255818 65.43
-4.6958294 10.356703 -1.8682768 65.610001
-5.0477915 11.132959 -1.7179527 65.610001
-5.6321869 12.421849 -1.5949814 65.610001
-6.6056962 14.568935 -1.4924018 65.610001
-10.258943 22.626211 -1.7372153 65.610001
-1.8635876 4.1101627 -2.009279 65.610001
-12.470615 27.504076 -1.4083102 65.610001
-1.982939 4.3733935 -2.0057411 65.610001
-2.1110091 4.6558533 -1.9961997 65.610001
-16.164337 35.650623 0 65.610001
-2.2560751 4.9757981 -1.9885051 65.610001
-16.144295 35.606419 0.90768135 65.610001
-2.4310129 5.3616257 -1.9892069 65.610001
-2.6182752 5.7746344 -1.978484 65.610001
-28.141239 62.065811 4.7653437 65.610001
-2.8365953 6.2561417 -1.9697045 65.610001
-3.1047869 6.8476415 -1.9682703 65.610001
-24.191496 53.35461 6.8508005 65.610001
-3.4235065 7.550581 -1.9643649 65.610001
-24.192104 53.355949 8.2334805 65.610001
-3.7920163 8.3633327 -1.951875 65.610001
-24.102596 53.158539 9.5894289 65.610001
-4.2220016 9.3116703 -1.9263223 65.610001
-4.6586032 10.356192 -1.8656828 65.779999
-5.0090494 11.135243 -1.7160044 65.779999
-5.590416 12.427635 -1.5935876 65.779999
-6.5510035 14.563046 -1.4898008 65.779999
-10.202405 22.680202 -1.7390289 65.779999
-1.852134 4.1173406 -2.0100925 65.779999
-12.400428 27.566465 -1.4096144 65.779999
-1.9699543 4.3792577 -2.0057411 65.779999
-2.09795 4.6637955 -1.9969271 65.779999
-16.04208 35.661949 0 65.779999
-2.2413018 4.98247 -1.9885051 65.779999
-16.011509 35.59399 0.90614939 65.779999
-2.4158714 5.370543 -1.9898472 65.779999
-2.597997 5.7754126 -1.976101 65.779999
-2.8235414 6.2768035 -1.9735634 65.779999
-3.084456 6.8568234 -1.9682703 65.779999
-24.024935 53.408035 6.8484774 65.779999
-3.4010885 7.5607057 -1.9643649 65.779999
-24.016626 53.389565 8.2276354 65.779999
-3.7671852 8.374547 -1.951875 65.779999
-23.928574 53.193821 9.5829439 65.779999
-4.1967735 9.3295336 -1.9274333 65.779999
-4.6188092 10.354555 -1.8627647 65.959999
-4.9692016 11.140073 -1.7143342 65.959999
-5.5456815 12.432438 -1.5919615 65.959999
-6.4865618 14.541726 -1.4855279 65.959999
-10.125413 22.699389 -1.7380522 65.959999
-1.8347239 4.1131272 -2.0052116 65.959999
-12.295859 27.565145 -1.4075649 65.959999
-1.9554349 4.3837395 -2.0049701 65.959999
-2.0832877 4.6703634 -1.9969271 65.959999
-15.901449 35.648239 0 65.959999
-2.227169 4.9929194 -1.9898732 65.959999
-15.901237 35.647766 0.90624225 65.959999
-2.3974435 5.3746452 -1.9885668 65.959999
-2.5798402 5.783546 -1.976101 65.959999
-27.692493 62.08168 4.7534852 65.959999
-2.8022418 6.2821312 -1.9724609 65.959999
-3.0613232 6.8629456 -1.9672573 65.959999
-23.820616 53.401611 6.8380241 65.959999
-3.3757336 7.5677981 -1.9634427 65.959999
-23.831837 53.426769 8.2217903 65.959999
-3.7408571 8.3863411 -1.951875 65.959999
-23.734812 53.209255 9.5722437 65.959999
-4.1682439 9.3444672 -1.9278036 65.959999
-4.5868897 10.355784 -1.8608192 66.110001
-4.939218 11.151233 -1.7140559 66.110001
-5.5058737 12.430568 -1.5898708 66.110001
-6.4404049 14.54045 -1.48367 66.110001
-10.075647 22.747709 -1.7397264 66.110001
-1.8254294 4.1212573 -2.0068386 66.110001
-12.23417 27.620989 -1.408776 66.110001
-1.9432042 4.3871565 -2.0041993 66.110001
-2.0710537 4.6758013 -1.9969271 66.110001
-15.794298 35.658661 0 66.110001
-2.2133288 4.997015 -1.9891891 66.110001
-15.790044 35.649055 0.90522099 66.110001
-2.3810625 5.3757057 -1.9866461 66.110001
-2.5670097 5.795517 -1.9778883 66.110001
-2.7857857 6.2894459 -1.9724609 66.110001
-3.0449126 6.874475 -1.9682703 66.110001
-23.648548 53.39114 6.828732 66.110001
-3.358274 7.5819483 -1.964826 66.110001
-3.7173045 8.3925285 -1.9510432 66.110001
-23.573849 53.222488 9.563489 66.110001
-4.1421742 9.3517532 -1.927063 66.110001
-4.5517306 10.369131 -1.8604951 66.300003
-4.90062 11.163923 -1.7134992 66.300003
-5.4678164 12.456033 -1.5907999 66.300003
-6.3633366 14.496085 -1.4769818 66.300003
-9.9937429 22.766382 -1.7386104 66.300003
-1.813956 4.1323071 -2.009279 66.300003
-12.127251 27.62665 -1.4070058 66.300003
-1.929387 4.3952661 -2.0049701 66.300003
-2.0547879 4.6809378 -1.9961997 66.300003
-2.1975014 5.0060477 -1.9898732 66.300003
-2.3655078 5.3887773 -1.9885668 66.300003
-23.477177 53.482498 2.7238262 66.300003
-2.5447073 5.7970052 -1.9755054 66.300003
-23.472706 53.472313 4.0835438 66.300003
-2.7656865 6.3004098 -1.9730122 66.300003
-23.464302 53.453175 5.4462543 66.300003
-3.0205438 6.880991 -1.9672573 66.300003
-23.463383 53.45108 6.8264089 66.300003
-3.3331127 7.5930429 -1.964826 66.300003
-23.468204 53.462063 8.2056456 66.300003
-3.6894534 8.404809 -1.9510432 66.300003
-23.371843 53.242542 9.5531139 66.300003
-4.1119299 9.3672371 -1.9274333 66.300003
-4.5138535 10.366306 -1.8575768 66.470001
-4.8643117 11.171151 -1.7123859 66.470001
-5.422111 12.452168 -1.5882447 66.470001
-6.3195028 14.513076 -1.476796 66.470001
-9.9229631 22.788616 -1.7380522 66.470001
-1.8024167 4.1393461 -2.0100925 66.470001
-12.036454 27.642361 -1.4059809 66.470001
-1.917811 4.4043555 -2.0065119 66.470001
-2.0416341 4.6887217 -1.9969271 66.470001
-15.547582 35.705853 0 66.470001
-2.1826384 5.0125461 -1.9898732 66.470001
-15.530621 35.666901 0.90317845 66.470001
-2.3517778 5.4009838 -1.9904875 66.470001
-23.300043 53.509792 2.7216833 66.470001
-2.5297828 5.8097811 -1.9772925 66.470001
-23.294033 53.495995 4.0800562 66.470001
-2.7439106 6.3015375 -1.9708071 66.470001
-23.296061 53.500648 5.4440246 66.470001
-3.0001142 6.8899231 -1.9672573 66.470001
-23.265036 53.429398 6.8147936 66.470001
-3.3121231 7.6064677 -1.9657483 66.470001
-23.292873 53.493328 8.1998005 66.470001
-3.6644995 8.415719 -1.9510432 66.470001
-23.184614 53.244705 9.5411167 66.470001
-4.083334 9.377594 -1.927063 66.470001
-4.4838586 10.381465 -1.8579011 66.639999
-4.8287888 11.18008 -1.7115508 66.639999
-5.3788395 12.453611 -1.5863862 66.639999
-6.2693076 14.515309 -1.4751239 66.639999
-9.8616333 22.832611 -1.7391684 66.639999
-1.7886782 4.1413212 -2.0084655 66.639999
-11.94488 27.655943 -1.404863 66.639999
-1.9040028 4.4083323 -2.0057411 66.639999
-2.0262361 4.6913381 -1.9954722 66.639999
-2.1670113 5.0172749 -1.9891891 66.639999
-15.391429 35.635731 0.90122873 66.639999
-2.33424 5.404459 -1.9892069 66.639999
-23.12533 53.542007 2.71982 66.639999
-2.5110197 5.813756 -1.976101 66.639999
-23.113846 53.515419 4.0762892 66.639999
-2.7274885 6.3149457 -1.9724609 66.639999
-23.108793 53.503719 5.4373364 66.639999
-2.9781239 6.8952417 -1.9662442 66.639999
-23.090651 53.461716 6.8101478 66.639999
-3.2895396 7.6162615 -1.9657483 66.639999
-23.111279 53.509476 8.1917286 66.639999
-3.6364107 8.4193707 -1.94938 66.639999
-23.013229 53.282459 9.5356045 66.639999
-4.0554919 9.3896685 -1.927063 66.639999
-4.4465613 10.384615 -1.8559556 66.82
-4.7913032 11.189734 -1.7107158 66.82
-5.3381252 12.466796 -1.5859216 66.82
-6.2064309 14.494659 -1.4710367 66.82
-9.7961369 22.878151 -1.7402846 66.82
-1.7749398 4.1452403 -2.007652 66.82
-11.861869 27.702515 -1.4053289 66.82
-1.8894179 4.4125953 -2.0049701 66.82
-2.0114877 4.6976805 -1.9954722 66.82
-15.300838 35.733971 0 66.82
-2.151978 5.0257854 -1.9898732 66.82
-22.918314 53.524025 1.3517966 66.82
-2.3194873 5.4169908 -1.9911276 66.82
-22.938135 53.570316 2.7175839 66.82
-2.4927428 5.8216162 -1.976101 66.82
-22.907127 53.497898 4.0694532 66.82
-2.7046089 6.3164139 -1.9702559 66.82
-22.924133 53.537613 5.433435 66.82
-2.9564474 6.9045634 -1.9662442 66.82
-22.895216 53.470081 6.8020172 66.82
-3.2648304 7.6247692 -1.9652871 66.82
-22.882254 53.439808 8.1700172 66.82
-3.6099427 8.4307537 -1.94938 66.82
-22.821642 53.298256 9.5255527 66.82
-4.0275207 9.4059763 -1.9278036 66.82
-4.4136858 10.38791 -1.8543345 66.980003
-4.7592621 11.201246 -1.7104374 66.980003
-5.3009601 12.476169 -1.5852247 66.980003
-6.1441259 14.460617 -1.4658347 66.980003
-9.7244091 22.887056 -1.7388893 66.980003
-1.7647861 4.1535439 -2.009279 66.980003
-11.757899 27.673016 -1.4021611 66.980003
-1.8778099 4.4195528 -2.0057411 66.980003
-2.0005472 4.7084236 -1.9976547 66.980003
-15.179873 35.72686 0 66.980003
-2.13867 5.033505 -1.9905572 66.980003
-15.179693 35.726437 0.90122873 66.980003
-2.2984235 5.4094958 -1.9860058 66.980003
-22.765013 53.579002 2.7147889 66.980003
-2.4757295 5.8267975 -1.9755054 66.980003
-22.731897 53.501064 4.0648494 66.980003
-2.6869597 6.3239422 -1.9702559 66.980003
-22.757406 53.5611 5.429348 66.980003
-2.9341283 6.9056697 -1.9642183 66.980003
-22.734158 53.506382 6.7985325 66.980003
-3.2427642 7.6320653 -1.964826 66.980003
-3.5871506 8.4426022 -1.9497958 66.980003
-22.641075 53.287304 9.5122595 66.980003
-4.0004702 9.4153776 -1.9274333 66.980003
-4.3846602 10.400194 -1.8543345 67.139999
-4.7241168 11.205368 -1.7090456 67.139999
-5.2591538 12.474449 -1.5831341 67.139999
-6.0890217 14.442854 -1.4623048 67.139999
-9.6720839 22.941698 -1.7409821 67.139999
-1.7524706 4.1567726 -2.0084655 67.139999
-11.662725 27.663401 -1.4000183 67.139999
-1.8625932 4.4179773 -2.0026577 67.139999
-1.9895622 4.7191415 -1.999837 67.139999
-2.1246054 5.0394578 -1.9905572 67.139999
-22.580963 53.560909 1.349522 67.139999
-2.2862527 5.4228768 -1.9885668 67.139999
-22.5959 53.59634 2.7124598 67.139999
-2.4609318 5.8372064 -1.9766968 67.139999
-22.569229 53.533081 4.0624776 67.139999
-2.6700363 6.3331923 -1.9708071 67.139999
-22.579897 53.558384 5.4226594 67.139999
-2.9163358 6.9174023 -1.9652313 67.139999
-22.563044 53.51841 6.7920284 67.139999
-3.2221949 7.6428843 -1.9652871 67.139999
-3.5635605 8.4525862 -1.9497958 67.139999
-22.473013 53.304859 9.5041533 67.139999
-3.9756889 9.4301348 -1.9281739 67.139999
-4.3463445 10.405572 -1.8527132 67.330002
-4.687696 11.2228 -1.709324 67.330002
-5.2108674 12.475324 -1.5810434 67.330002
-6.0303488 14.437242 -1.4597039 67.330002
-9.5905704 22.96076 -1.7400055 67.330002
-1.7414935 4.1693048 -2.0117195 67.330002
-11.541666 27.63187 -1.3964779 67.330002
-1.849355 4.4275355 -2.0041993 67.330002
-1.973902 4.7257133 -1.999837 67.330002
-5.7651563 13.802345 0 67.330002
-2.1057093 5.0412726 -1.9885051 67.330002
-14.914162 35.705952 0.89839703 67.330002
-2.2667968 5.4269319 -1.9872862 67.330002
-22.393404 53.611988 2.7094784 67.330002
-2.443769 5.8506203 -1.978484 67.330002
-22.37159 53.559765 4.0588503 67.330002
-2.652725 6.3508816 -1.9735634 67.330002
-22.383747 53.588867 5.418201 67.330002
-2.8918893 6.9234643 -1.9642183 67.330002
-22.364008 53.541611 6.7855239 67.330002
-3.1968324 7.6535277 -1.9652871 67.330002
-22.343081 53.491508 8.147193 67.330002
-3.5347569 8.4625521 -1.94938 67.330002
-22.271784 53.320816 9.4937773 67.330002
-3.9428806 9.4396391 -1.9274333 67.330002
-4.3116755 10.409306 -1.8510921 67.5
-4.6536188 11.23483 -1.7090456 67.5
-5.1738296 12.49073 -1.5810434 67.5
-5.9669108 14.405396 -1.4546877 67.5
-9.528511 23.00386 -1.7411215 67.5
-1.7291152 4.1744533 -2.0117195 67.5
-11.446632 27.634617 -1.3948941 67.5
-1.8347976 4.4295931 -2.0026577 67.5
-12.196661 29.445345 -0.73996013 67.5
-1.9605848 4.7332702 -2.0005646 67.5
-2.0921807 5.050971 -1.9898732 67.5
-14.792086 35.711254 0.89742213 67.5
-2.2514098 5.4353843 -1.9879265 67.5
-22.213593 53.628357 2.7069628 67.5
-2.4256685 5.8560815 -1.9778883 67.5
-22.186619 53.563236 4.0541067 67.5
-2.6346056 6.3605008 -1.9741148 67.5
-22.198736 53.592491 5.4118843 67.5
-2.8720748 6.9338017 -1.9647248 67.5
-22.190605 53.572861 6.7811103 67.5
-3.1748545 7.6647773 -1.9657483 67.5
-3.5096326 8.4730024 -1.94938 67.5
-22.099131 53.35202 9.4876165 67.5
-3.9125988 9.4458494 -1.9263223 67.5
-4.278522 10.416575 -1.8501194 67.669998
-4.6187592 11.244924 -1.7084889 67.669998
-5.1337271 12.498676 -1.5801141 67.669998
-5.9052281 14.376987 -1.4500431 67.669998
-9.4624891 23.037567 -1.7415401 67.669998
-1.7160276 4.1778755 -2.010906 67.669998
-11.368384 27.677698 -1.39536 67.669998
-1.8223479 4.4367247 -2.0034285 67.669998
-1.947948 4.7425132 -2.0020196 67.669998
-5.732543 13.956565 0 67.669998
-2.078613 5.0606332 -1.9912412 67.669998
-14.69442 35.77533 0.89793277 67.669998
-2.2352729 5.4420404 -1.9879265 67.669998
-22.0354 53.647831 2.7046337 67.669998
-2.4068315 5.8597207 -1.9766968 67.669998
-22.002581 53.567924 4.0495028 67.669998
-2.6164525 6.3700681 -1.974666 67.669998
-22.016172 53.601017 5.4061251 67.669998
-2.850019 6.9387136 -1.9637117 67.669998
-22.002119 53.566803 6.7720504 67.669998
-3.1513593 7.6723633 -1.9652871 67.669998
-21.983126 53.520561 8.1316061 67.669998
-3.4844773 8.4833784 -1.94938 67.669998
-21.934736 53.402752 9.4850225 67.669998
-3.8897824 9.4701424 -1.9289145 67.669998
-4.2405677 10.417171 -1.8478496 67.849998
-4.584156 11.261212 -1.7087673 67.849998
-5.0914402 12.507382 -1.5791849 67.849998
-5.7011395 14.00514 -1.0573686 67.849998
-1.702894 4.1832457 -2.010906 67.849998
-5.6892724 13.975987 -0.70368922 67.849998
-1.8084005 4.4424281 -2.0034285 67.849998
-5.7037215 14.011482 -0.35122573 67.849998
-1.9295273 4.7399821 -1.9983821 67.849998
-5.6977177 13.996734 0 67.849998
-2.0627043 5.0671387 -1.9912412 67.849998
-21.850695 53.677345 1.3455298 67.849998
-2.216022 5.4437709 -1.9860058 67.849998
-21.844154 53.661282 2.7018387 67.849998
-2.3884108 5.8672533 -1.9766968 67.849998
-21.859007 53.697765 4.0541067 67.849998
-2.5957026 6.3764758 -1.9741148 67.849998
-21.836411 53.642254 5.403338 67.849998
-2.8296652 6.9512167 -1.9647248 67.849998
-21.825487 53.615421 6.769495 67.849998
-3.1279743 7.6840281 -1.9657483 67.849998
-21.806664 53.56918 8.1285439 67.849998
-3.4570713 8.4924717 -1.9489642 67.849998
-21.739326 53.403763 9.4730263 67.849998
-3.85853 9.4786758 -1.9281739 67.849998
-4.206686 10.422386 -1.8465527 68.019997
-4.5507231 11.274765 -1.7087673 68.019997
-5.0535645 12.520593 -1.5789526 68.019997
-5.6689739 14.045316 -1.4130721 68.019997
-5.6625476 14.029394 -1.0579267 68.019997
-1.6870553 4.1798086 -2.0068386 68.019997
-5.6649785 14.035417 -0.70583206 68.019997
-1.7945209 4.4460626 -2.0026577 68.019997
-5.6591301 14.020927 -0.35104007 68.019997
-1.9161522 4.7474136 -1.9991096 68.019997
-5.6733804 14.056234 0 68.019997
-2.0483644 5.0749793 -1.9919254 68.019997
-14.432203 35.756886 0.89524037 68.019997
-2.2041154 5.4608645 -1.9898472 68.019997
-21.66914 53.686951 2.6998823 68.019997
-2.3709919 5.8743138 -1.9766968 68.019997
-2.5760522 6.3823667 -1.9735634 68.019997
-21.653303 53.647717 5.3973932 68.019997
-2.8097522 6.9613762 -1.9652313 68.019997
-21.641777 53.619156 6.7618289 68.019997
-3.1051614 7.693275 -1.9657483 68.019997
-21.614267 53.550999 8.1160183 68.019997
-3.4340551 8.5081339 -1.9502116 68.019997
-21.568222 53.43692 9.467514 68.019997
-3.8303893 9.4900818 -1.9281739 68.019997
-4.1801429 10.445815 -1.8484981 68.190002
-4.5187221 11.291895 -1.709324 68.190002
-5.0090127 12.517089 -1.5766295 68.190002
-5.736773 14.335699 -1.4405681 68.190002
-9.2589502 23.137314 -1.7426562 68.190002
-1.6760038 4.1881886 -2.0084655 68.190002
-11.109303 27.761185 -1.3944283 68.190002
-1.7840638 4.458221 -2.0057411 68.190002
-11.420723 28.539398 -0.71368551 68.190002
-1.9013659 4.7513485 -1.9983821 68.190002
-5.7304769 14.319965 0 68.190002
-2.0325992 5.0792894 -1.9912412 68.190002
-14.323818 35.793983 0.89510107 68.190002
-2.185791 5.4621029 -1.9879265 68.190002
-21.490454 53.702782 2.6974599 68.190002
-2.3521335 5.8777776 -1.9755054 68.190002
-2.559247 6.3953366 -1.9752173 68.190002
-21.474796 53.663658 5.3925624 68.190002
-2.7869287 6.9642935 -1.9637117 68.190002
-21.450855 53.603828 6.7518401 68.190002
-3.0779831 7.6916137 -1.9629816 68.190002
-21.444983 53.589153 8.1121216 68.190002
-3.4080689 8.516469 -1.9497958 68.190002
-21.388313 53.447544 9.4581108 68.190002
-3.8014846 9.4995804 -1.9278036 68.190002
-4.1444035 10.440939 -1.84558 68.349998
-4.4805951 11.287902 -1.7068189 68.349998
-4.9747715 12.532874 -1.5768619 68.349998
-5.6827588 14.316497 -1.4370382 68.349998
-9.1832609 23.135263 -1.7405635 68.349998
-1.6649758 4.1945505 -2.009279 68.349998
-11.002253 27.717823 -1.3907017 68.349998
-1.7729689 4.4666162 -2.0072827 68.349998
-1.8887775 4.7583714 -1.9991096 68.349998
-14.207718 35.793308 0 68.349998
-2.0184073 5.0849457 -1.9912412 68.349998
-14.19725 35.766937 0.89342988 68.349998
-2.1712286 5.4699464 -1.9885668 68.349998
-21.31608 53.701309 2.6943853 68.349998
-2.3385279 5.8914213 -1.9778883 68.349998
-2.5378313 6.3935237 -1.9724609 68.349998
-21.308693 53.682697 5.3884754 68.349998
-2.7688975 6.9756455 -1.9647248 68.349998
-21.302547 53.667213 6.7523046 68.349998
-3.0608001 7.7110319 -1.9657483 68.349998
-21.279173 53.60833 8.105998 68.349998
-3.3828297 8.522316 -1.9489642 68.349998
-21.239704 53.508896 9.4584351 68.349998
-3.7749419 9.5101595 -1.9278036 68.349998
-4.1133676 10.463809 -1.8472011 68.540001
-4.4424138 11.300855 -1.7065406 68.540001
-4.9288235 12.53821 -1.5754681 68.540001
-5.6308813 14.324142 -1.4359236 68.540001
-9.1013823 23.152592 -1.7395869 68.540001
-1.6523938 4.2034497 -2.010906 68.540001
-10.904428 27.739281 -1.3899562 68.540001
-1.7574722 4.4707537 -2.0065119 68.540001
-1.8743509 4.7680759 -2.0005646 68.540001
-14.084555 35.829056 0 68.540001
-2.0029092 5.0951095 -1.9926094 68.540001
-14.080029 35.817543 0.89352274 68.540001
-2.1516912 5.4735894 -1.9872862 68.540001
-21.126921 53.743809 2.6929879 68.540001
-2.3217723 5.906251 -1.9802713 68.540001
-2.5208359 6.4126396 -1.9757686 68.540001
-21.118172 53.721558 5.3853168 68.540001
-2.7443345 6.9811878 -1.9637117 68.540001
-21.096846 53.667309 6.7434773 68.540001
-3.0330768 7.7157059 -1.9643649 68.540001
-21.06868 53.595654 8.0934725 68.540001
-3.3552659 8.5353079 -1.94938 68.540001
-21.04265 53.529442 9.4496803 68.540001
-3.7441034 9.5244541 -1.9281739 68.540001
-4.0844526 10.481483 -1.8481739 68.709999
-4.4038305 11.301068 -1.7045921 68.709999
-4.8908787 12.550927 -1.5752357 68.709999
-5.585464 14.333365 -1.4351804 68.709999
-9.0275764 23.166481 -1.7386104 68.709999
-1.6379246 4.2032266 -2.0084655 68.709999
-10.828606 27.788265 -1.3907948 68.709999
-1.7441995 4.4759483 -2.0065119 68.709999
-13.941751 35.777191 -0.89148021 68.709999
-1.8581662 4.7684088 -1.9983821 68.709999
-13.9564 35.814785 0 68.709999
-1.9871004 5.0992785 -1.9919254 68.709999
-20.932228 53.716087 1.3384737 68.709999
-2.1361294 5.4817152 -1.9879265 68.709999
-20.945604 53.750416 2.6901929 68.709999
-2.3000786 5.9024405 -1.9766968 68.709999
-20.91584 53.674034 4.0281572 68.709999
-2.5011001 6.4182997 -1.9752173 68.709999
-20.931932 53.715328 5.3784432 68.709999
-2.7264187 6.9965105 -1.9657377 68.709999
-20.912275 53.664886 6.7353468 68.709999
-3.0101705 7.7246714 -1.9643649 68.709999
-20.912441 53.665314 8.0945864 68.709999
-3.329216 8.5434027 -1.9489642 68.709999
-20.871552 53.560383 9.4441681 68.709999
-3.7136865 9.5300274 -1.927063 68.709999
-4.0504909 10.486193 -1.8468769 68.879997
-4.3695664 11.312238 -1.7043138 68.879997
-4.8550496 12.56909 -1.5757004 68.879997
-5.5371709 14.335013 -1.4336941 68.879997
-8.9602385 23.196888 -1.7388893 68.879997
-1.6261045 4.2097721 -2.009279 68.879997
-10.751147 27.833319 -1.3914469 68.879997
-1.7315763 4.4828253 -2.0072827 68.879997
-13.840579 35.831455 -0.89180517 68.879997
-1.8413248 4.7669497 -1.9954722 68.879997
-13.858722 35.878422 0 68.879997
-1.972639 5.106905 -1.9926094 68.879997
-20.767714 53.7649 1.3381487 68.879997
-2.11849 5.4844942 -1.9866461 68.879997
-20.775953 53.786232 2.6888885 68.879997
-2.2859952 5.9181437 -1.9796755 68.879997
-20.737085 53.685608 4.0243907 68.879997
-2.4813528 6.4238992 -1.974666 68.879997
-20.753807 53.728901 5.3736129 68.879997
-2.7063448 7.0063739 -1.9662442 68.879997
-20.74222 53.698902 6.7318621 68.879997
-2.9872377 7.7335687 -1.9643649 68.879997
-20.723148 53.649529 8.0828953 68.879997
-3.3038526 8.5532436 -1.9489642 68.879997
-20.701878 53.59446 9.4393053 68.879997
-3.6832695 9.5355043 -1.9259521 68.879997
-4.0154119 10.493336 -1.8459042 69.059998
-4.3332987 11.324059 -1.7040354 69.059998
-4.8155384 12.58428 -1.5757004 69.059998
-5.4878387 14.341179 -1.4325794 69.059998
-8.8894577 23.230513 -1.7393079 69.059998
-1.613524 4.2165666 -2.0100925 69.059998
-10.669366 27.881884 -1.3921922 69.059998
-1.7174846 4.4882431 -2.0072827 69.059998
-10.66522 27.871052 -0.69284219 69.059998
-1.8283374 4.7779307 -1.9976547 69.059998
-13.731643 35.884426 0 69.059998
-1.9572572 5.1148324 -1.9932934 69.059998
-13.712222 35.833675 0.89078385 69.059998
-2.103281 5.4964314 -1.9885668 69.059998
-20.582602 53.787796 2.6857209 69.059998
-2.266027 5.92173 -1.978484 69.059998
-20.55549 53.716949 4.0218792 69.059998
-2.4597852 6.4280715 -1.9735634 69.059998
-20.569965 53.75478 5.3697114 69.059998
-2.683629 7.0130348 -1.9657377 69.059998
-20.560638 53.730408 6.7276807 69.059998
-2.9573631 7.7283745 -1.960676 69.059998
-20.546717 53.694019 8.079834 69.059998
-3.2776647 8.5654078 -1.94938 69.059998
-20.524233 53.635269 9.4350901 69.059998
-3.6561043 9.5543709 -1.9274333 69.059998
-3.9902942 10.515579 -1.8478496 69.220001
-4.302362 11.337968 -1.7043138 69.220001
-4.7796731 12.595821 -1.5754681 69.220001
-5.4456501 14.350863 -1.4320221 69.220001
-8.833045 23.27763 -1.7409821 69.220001
-1.6030393 4.224472 -2.0117195 69.220001
-10.583667 27.891024 -1.3911674 69.220001
-1.7016708 4.4843946 -2.0034285 69.220001
-13.59224 35.819485 -0.88948405 69.220001
-1.8143268 4.7812757 -1.9969271 69.220001
-13.616481 35.883366 0 69.220001
-1.9429662 5.1202779 -1.9932934 69.220001
-20.427021 53.831108 1.3367561 69.220001
-2.0906126 5.5093694 -1.9911276 69.220001
-20.414597 53.79837 2.6833918 69.220001
-2.2508364 5.9316049 -1.9796755 69.220001
-20.389124 53.731239 4.0186706 69.220001
-2.4431891 6.4385104 -1.974666 69.220001
-20.395046 53.746849 5.3632088 69.220001
-2.6647208 7.0223103 -1.9662442 69.220001
-20.392191 53.739323 6.7216411 69.220001
-2.9364603 7.7384224 -1.9611371 69.220001
-20.384047 53.717857 8.0748234 69.220001
-3.254427 8.5763559 -1.9497958 69.220001
-20.368774 53.677612 9.4324961 69.220001
-3.6273174 9.5590305 -1.9263223 69.220001
-3.9572389 10.528063 -1.8478496 69.400002
-4.263237 11.342158 -1.7029221 69.400002
-4.7407775 12.612635 -1.5757004 69.400002
-5.3949332 14.352988 -1.4305358 69.400002
-8.7619791 23.310867 -1.7414006 69.400002
-1.5865456 4.2209363 -2.007652 69.400002
-10.483339 27.890472 -1.3894905 69.400002
-1.6895221 4.4949007 -2.0057411 69.400002
-13.467684 35.830193 -0.88869488 69.400002
-1.800608 4.7904401 -1.9983821 69.400002
-13.473424 35.845463 0 69.400002
-1.9262096 5.1245975 -1.9926094 69.400002
-13.472609 35.843292 0.88901985 69.400002
-2.0712943 5.5105891 -1.9892069 69.400002
-20.233534 53.830444 2.681808 69.400002
-2.2281601 5.9279242 -1.976101 69.400002
-20.201971 53.746471 4.0150433 69.400002
-2.4236264 6.4479537 -1.9752173 69.400002
-20.20858 53.764057 5.3585644 69.400002
-2.6419659 7.0288363 -1.9657377 69.400002
-20.199501 53.739902 6.7137427 69.400002
-2.9135044 7.7512527 -1.9620593 69.400002
-20.187313 53.707474 8.0636892 69.400002
-3.2260909 8.5828753 -1.9489642 69.400002
-20.188931 53.711781 9.4273081 69.400002
-3.595886 9.566699 -1.9255818 69.400002
-3.9211619 10.526813 -1.84558 69.57
-4.2288742 11.352902 -1.7026438 69.57
-4.7012544 12.62106 -1.5750035 69.57
-5.353714 14.372663 -1.4309074 69.57
-8.6920795 23.334892 -1.7412611 69.57
-1.5740149 4.225625 -2.007652 69.57
-10.400541 27.921455 -1.3894905 69.57
-1.6774665 4.5033526 -2.0072827 69.57
-13.350845 35.841888 -0.88799858 69.57
-1.7863866 4.7957616 -1.9983821 69.57
-13.38167 35.924641 0 69.57
-1.9109962 5.13029 -1.9926094 69.57
-20.07338 53.889305 1.3351313 69.57
-2.0536122 5.5131593 -1.9879265 69.57
-20.052109 53.832207 2.6789198 69.57
-2.2138941 5.9434547 -1.9790798 69.57
-20.01943 53.744476 4.0104394 69.57
-2.4051554 6.4569178 -1.9757686 69.57
-20.034372 53.784592 5.3546629 69.57
-2.6217747 7.0384569 -1.9662442 69.57
-20.018467 53.74189 6.7065415 69.57
-2.8884552 7.7543917 -1.960676 69.57
-20.00091 53.694752 8.0528336 69.57
-3.2012937 8.594243 -1.94938 69.57
-20.013632 53.728909 9.4198503 69.57
-3.5695434 9.5828524 -1.9266927 69.57
-3.893328 10.547658 -1.8472011 69.739998
-4.1937995 11.361683 -1.702087 69.739998
-4.6630983 12.63309 -1.5747712 69.739998
-5.3096666 14.384749 -1.4305358 69.739998
-8.6352406 23.39427 -1.7437724 69.739998
-1.5633683 4.2354188 -2.0100925 69.739998
-10.30589 27.92033 -1.3879067 69.739998
-1.6634583 4.5065789 -2.0065119 69.739998
-13.234056 35.853207 -0.88730228 69.739998
-1.7734396 4.8045363 -1.999837 69.739998
-13.255629 35.911652 0 69.739998
-1.8957659 5.1359377 -1.9926094 69.739998
-13.254827 35.909481 0.88869488 69.739998
-2.0365891 5.5174508 -1.9872862 69.739998
-19.882612 53.865227 2.6776154 69.739998
-2.1962497 5.9499969 -1.9790798 69.739998
-19.866789 53.822357 4.0118341 69.739998
-2.3819923 6.4532042 -1.9724609 69.739998
-19.865738 53.819511 5.3522477 69.739998
-2.5995395 7.0425749 -1.9652313 69.739998
-19.848606 53.773098 6.7030568 69.739998
-2.8681302 7.7702308 -1.9625205 69.739998
-19.845621 53.765007 8.0545044 69.739998
-3.1764574 8.6055384 -1.9497958 69.739998
-19.849344 53.775093 9.4175806 69.739998
-3.5397336 9.5897131 -1.9259521 69.739998
-3.8645365 10.560342 -1.8475254 69.900002
-4.1634164 11.37707 -1.7026438 69.900002
-4.6284847 12.647928 -1.5750035 69.900002
-5.2701607 14.40139 -1.4307216 69.900002
-8.5739918 23.429535 -1.7446094 69.900002
-1.5515348 4.239768 -2.0100925 69.900002
-10.211404 27.903973 -1.3856707 69.900002
-1.6527698 4.5164056 -2.0088243 69.900002
-13.123576 35.861858 -0.88660592 69.900002
-1.757455 4.8024716 -1.9969271 69.900002
-13.142921 35.914722 0 69.900002
-1.8788328 5.1341519 -1.9898732 69.900002
-13.127699 35.873123 0.88688445 69.900002
-2.0237782 5.5302339 -1.9898472 69.900002
-19.716324 53.877388 2.6754725 69.900002
-2.1789696 5.9543142 -1.978484 69.900002
-19.706125 53.849522 4.0097418 69.900002
-2.3679266 6.4706635 -1.9757686 69.900002
-19.700314 53.833637 5.3481603 69.900002
-2.5825226 7.0570745 -1.9672573 69.900002
-19.696318 53.82272 6.7023597 69.900002
-2.845083 7.7745547 -1.9615982 69.900002
-19.691319 53.809059 8.0528336 69.900002
-3.1497247 8.6070271 -1.9481325 69.900002
-19.683498 53.787689 9.4101229 69.900002
-3.5142913 9.6032524 -1.9266927 69.900002
-3.8288238 10.571243 -1.8472011 70.089996
-4.1229682 11.383366 -1.7015303 70.089996
-4.5851641 12.659472 -1.5745388 70.089996
-5.2203403 14.413171 -1.4301642 70.089996
-8.5016851 23.472845 -1.7457255 70.089996
-1.5368444 4.2431717 -2.009279 70.089996
-10.11065 27.91514 -1.3845526 70.089996
-1.6396692 4.5270672 -2.011137 70.089996
-12.99573 35.880741 -0.88600242 70.089996
-1.7434231 4.8135281 -1.9991096 70.089996
-13.021708 35.952465 0 70.089996
-1.8643571 5.1474223 -1.9926094 70.089996
-13.013433 35.929619 0.88720942 70.089996
-2.0028472 5.5297885 -1.9872862 70.089996
-19.51646 53.884243 2.6725843 70.089996
-2.1605127 5.9650974 -1.9796755 70.089996
-19.509781 53.865799 4.0061145 70.089996
-2.3471107 6.480288 -1.9763198 70.089996
-19.50948 53.864967 5.3448162 70.089996
-2.5577884 7.0619612 -1.9662442 70.089996
-19.485256 53.798088 6.6912093 70.089996
-2.8186233 7.7821169 -1.9611371 70.089996
-19.49861 53.834957 8.0469885 70.089996
-3.1244965 8.6266212 -1.9502116 70.089996
-19.488222 53.806274 9.4020176 70.089996
-3.4810877 9.6111574 -1.9259521 70.089996
-3.7982593 10.590651 -1.8484981 70.269997
-4.0831742 11.385077 -1.6998602 70.269997
-4.5473824 12.679424 -1.5752357 70.269997
-5.1730175 14.423877 -1.4296069 70.269997
-8.4332895 23.514462 -1.7468417 70.269997
-1.5228897 4.2462592 -2.0084655 70.269997
-10.010088 27.911036 -1.3827825 70.269997
-1.6223239 4.5235105 -2.0072827 70.269997
-12.872819 35.893162 -0.88530612 70.269997
-1.7276635 4.8172278 -1.9983821 70.269997
-1.8475423 5.151485 -1.9919254 70.269997
-19.36154 53.9856 1.3315568 70.269997
-1.9861046 5.537837 -1.9879265 70.269997
-19.332918 53.905796 2.6706278 70.269997
-2.1404731 5.9682612 -1.978484 70.269997
-19.332378 53.904289 4.0044403 70.269997
-2.3273897 6.489439 -1.9768711 70.269997
-19.324699 53.882877 5.3405433 70.269997
-2.5362432 7.0717831 -1.9667507 70.269997
-19.312796 53.849686 6.6900477 70.269997
-2.7961321 7.7964287 -1.9625205 70.269997
-19.307323 53.834427 8.0378036 70.269997
-3.094738 8.6290293 -1.9485483 70.269997
-19.307096 53.833797 9.3961811 70.269997
-3.4482222 9.614646 -1.9244709 70.269997
-3.7680087 10.599357 -1.8481739 70.43
-4.0546823 11.405765 -1.701252 70.43
-4.513288 12.695816 -1.5757004 70.43
-5.1327186 14.438266 -1.4296069 70.43
-8.3622456 23.522882 -1.7457255 70.43
-1.511638 4.2522168 -2.009279 70.43
-9.9247456 27.918173 -1.3817576 70.43
-1.6109219 4.5315008 -2.0088243 70.43
-12.756462 35.883751 -0.88419199 70.43
-1.7179487 4.8325658 -2.0027471 70.43
-12.775978 35.938648 0 70.43
-1.8318905 5.1530824 -1.9905572 70.43
-12.779234 35.947807 0.88577032 70.43
-1.9719017 5.5469322 -1.9892069 70.43
-19.170265 53.92569 2.6689508 70.43
-2.1257167 5.9796119 -1.9802713 70.43
-19.162394 53.903549 4.0003943 70.43
-2.3066831 6.4886675 -1.974666 70.43
-19.159481 53.895355 5.3364558 70.43
-2.5171332 7.0806613 -1.9672573 70.43
-19.143713 53.851002 6.6835437 70.43
-2.7743495 7.8042068 -1.9625205 70.43
-19.146299 53.858276 8.03335 70.43
-3.0699739 8.6357937 -1.9481325 70.43
-19.140163 53.841015 9.3880749 70.43
-3.4226763 9.6279411 -1.9252114 70.43
-3.7340362 10.609281 -1.8478496 70.610001
-4.0148849 11.407237 -1.6995819 70.610001
-4.4720616 12.706185 -1.5752357 70.610001
-5.0879951 14.456198 -1.4297926 70.610001
-8.2902927 23.554682 -1.7461441 70.610001
-1.4970586 4.2534981 -2.007652 70.610001
-9.8111219 27.875719 -1.3781241 70.610001
-1.5972904 4.53828 -2.0095952 70.610001
-12.636366 35.902905 -0.88368136 70.610001
-1.7002842 4.8309097 -1.999837 70.610001
-19.020744 54.042435 0 70.610001
-1.8169404 5.1623578 -1.9919254 70.610001
-12.63703 35.904789 0.88372779 70.610001
-1.9544657 5.5530996 -1.9892069 70.610001
-18.98683 53.946075 2.6669943 70.610001
-2.1050193 5.9808578 -1.978484 70.610001
-18.978384 53.922081 3.9973249 70.610001
-2.2882018 6.5013223 -1.9763198 70.610001
-18.97883 53.923347 5.3332977 70.610001
-2.4935918 7.0848837 -1.9662442 70.610001
-18.958612 53.865906 6.677968 70.610001
-2.7485261 7.8092127 -1.9615982 70.610001
-18.962538 53.87706 8.0272264 70.610001
-3.043478 8.6472416 -1.9485483 70.610001
-18.952576 53.848751 9.3789959 70.610001
-3.393065 9.6405001 -1.9255818 70.610001
-3.6999428 10.612859 -1.8465527 70.779999
-3.983629 11.42658 -1.7006953 70.779999
-4.4356499 12.723149 -1.5757004 70.779999
-5.0477028 14.478752 -1.4305358 70.779999
-8.2321901 23.613087 -1.7486553 70.779999
-1.4862361 4.2630968 -2.0100925 70.779999
-9.7171898 27.872637 -1.3765403 70.779999
-1.5832106 4.5412569 -2.0088243 70.779999
-12.526493 35.930798 -0.88344926 70.779999
-1.6902362 4.8482475 -2.0049295 70.779999
-12.546987 35.989582 0 70.779999
-1.8022342 5.1695004 -1.9926094 70.779999
-12.515304 35.898705 0.88266009 70.779999
-1.9392283 5.5624523 -1.9904875 70.779999
-18.808928 53.951237 2.6644788 70.779999
-2.0866358 5.9852743 -1.9778883 70.779999
-18.800577 53.927288 3.9935582 70.779999
-2.2682691 6.5062675 -1.9757686 70.779999
-18.801054 53.92865 5.3282814 70.779999
-2.4725595 7.0922513 -1.9662442 70.779999
-18.790205 53.897533 6.6749482 70.779999
-2.7279062 7.8246837 -1.9634427 70.779999
-18.786299 53.88633 8.0202675 70.779999
-3.0197399 8.6617756 -1.9497958 70.779999
-18.779726 53.867477 9.3725109 70.779999
-3.365093 9.6523809 -1.9259521 70.779999
-3.6684375 10.62379 -1.8465527 70.949997
-3.9497082 11.43835 -1.7006953 70.949997
-4.3985286 12.738132 -1.5759326 70.949997
-5.006671 14.499312 -1.4310931 70.949997
-8.1646976 23.644953 -1.7492133 70.949997
-1.4741771 4.2692146 -2.010906 70.949997
-9.6174927 27.852247 -1.374118 70.949997
-1.5703318 4.5476785 -2.0095952 70.949997
-12.405472 35.926228 -0.88242799 70.949997
-1.6734115 4.8461971 -2.0020196 70.949997
-12.419912 35.968048 0 70.949997
-1.786888 5.1748252 -1.9926094 70.949997
-12.415261 35.954578 0.88312429 70.949997
-1.9227157 5.568182 -1.9904875 70.949997
-18.63377 53.963375 2.6623361 70.949997
-2.0701144 5.9950485 -1.9790798 70.949997
-18.630722 53.954544 3.9914653 70.949997
-2.2489545 6.512969 -1.9757686 70.949997
-18.629261 53.950317 5.3249373 70.949997
-2.4508739 7.0977273 -1.9657377 70.949997
-18.615942 53.911739 6.6698375 70.949997
-2.7040427 7.8309035 -1.9629816 70.949997
-18.609526 53.893158 8.0130301 70.949997
-2.9927497 8.6669989 -1.9489642 70.949997
-18.600492 53.866997 9.3627844 70.949997
-3.3351562 9.6586075 -1.9252114 70.949997
-3.6368999 10.634627 -1.8465527 71.120003
-3.9144709 11.44627 -1.7001386 71.120003
-4.3600717 12.749247 -1.5757004 71.120003
-4.9681392 14.527293 -1.4323937 71.120003
-8.0945053 23.669073 -1.7492133 71.120003
-1.4603212 4.2701125 -2.009279 71.120003
-9.538044 27.890112 -1.3745837 71.120003
-1.5574288 4.5540643 -2.0103662 71.120003
-12.291059 35.940174 -0.88187093 71.120003
-1.6608337 4.8564291 -2.0042019 71.120003
-12.299547 35.965 0 71.120003
-1.7715261 5.1801043 -1.9926094 71.120003
-12.299469 35.964771 0.88247442 71.120003
-1.905573 5.5720692 -1.9898472 71.120003
-18.463879 53.990067 2.6609385 71.120003
-2.0547888 6.0083899 -1.9814628 71.120003
-18.453768 53.960503 3.987838 71.120003
-2.2283762 6.515975 -1.974666 71.120003
-18.457508 53.971436 5.3215933 71.120003
-2.431056 7.1086297 -1.9667507 71.120003
-18.441759 53.925388 6.6647272 71.120003
-2.6789069 7.8333678 -1.9615982 71.120003
-18.438004 53.914406 8.0080204 71.120003
-2.9644887 8.6684361 -1.9473009 71.120003
-18.429728 53.890205 9.3572721 71.120003
-3.3102996 9.6796188 -1.9274333 71.120003
-3.6065965 10.64911 -1.8472011 71.290001
-3.8823979 11.463462 -1.7009736 71.290001
-4.3241363 12.767772 -1.5763973 71.290001
-4.9288468 14.553287 -1.4335084 71.290001
-8.0255222 23.696764 -1.7494924 71.290001
-1.4482312 4.2761569 -2.0100925 71.290001
-9.4616594 27.93721 -1.3755155 71.290001
-1.5421338 4.553421 -2.0080535 71.290001
-12.172823 35.942398 -0.88103533 71.290001
-1.6458194 4.859571 -2.0034745 71.290001
-12.204331 36.035431 0 71.290001
-1.754943 5.1817775 -1.9912412 71.290001
-12.19463 36.006786 0.88261366 71.290001
-1.8914632 5.584877 -1.9924082 71.290001
-18.29207 54.010551 2.6592615 71.290001
-2.0357277 6.0108438 -1.9802713 71.290001
-18.283983 53.986671 3.9857454 71.290001
-2.2096498 6.5243788 -1.9752173 71.290001
-18.27685 53.965607 5.3156481 71.290001
-2.4099536 7.1158113 -1.9667507 71.290001
-18.262562 53.923424 6.6577582 71.290001
-2.65815 7.8486552 -1.9634427 71.290001
-18.260166 53.916351 8.000227 71.290001
-2.9393835 8.6790466 -1.9477167 71.290001
-18.250759 53.888573 9.3475447 71.290001
-3.2790434 9.6819515 -1.9259521 71.290001
-3.574378 10.66413 -1.8478496 71.470001
-3.8457358 11.473724 -1.7006953 71.470001
-4.2827411 12.777527 -1.5759326 71.470001
-4.8850007 14.574364 -1.4340657 71.470001
-7.9561095 23.736994 -1.7506084 71.470001
-1.4342095 4.2789531 -2.009279 71.470001
-9.3636866 27.936489 -1.3740247 71.470001
-1.5284078 4.5599933 -2.0088243 71.470001
-12.053492 35.961506 -0.88057113 71.470001
-1.6323208 4.8700171 -2.005657 71.470001
-18.133734 54.10186 0 71.470001
-1.7386553 5.1872654 -1.9912412 71.470001
-12.063024 35.989941 0.88126743 71.470001
-1.8714998 5.5836058 -1.9898472 71.470001
-18.107063 54.022289 2.6570256 71.470001
-2.0156205 6.0135889 -1.9790798 71.470001
-18.104145 54.01358 3.9835131 71.470001
-2.1897528 6.5331116 -1.9757686 71.470001
-18.101526 54.005768 5.3139758 71.470001
-2.3875868 7.1233473 -1.9667507 71.470001
-18.084229 53.954163 6.6545057 71.470001
-2.6334798 7.856967 -1.9634427 71.470001
-18.074959 53.926506 7.993268 71.470001
-2.9114814 8.6863832 -1.9473009 71.470001
-18.07761 53.934414 9.3455992 71.470001
-3.2486105 9.6922054 -1.9259521 71.470001
-3.5420997 10.672815 -1.8475254 71.639999
-3.8116758 11.485085 -1.7006953 71.639999
-4.2435594 12.786407 -1.5754681 71.639999
-4.8467541 14.603913 -1.435552 71.639999
-7.881875 23.749134 -1.7497714 71.639999
-1.4215072 4.2831898 -2.009279 71.639999
-9.285161 27.977423 -1.3746769 71.639999
-1.5154526 4.5662594 -2.0095952 71.639999
-11.941071 35.98003 -0.8801533 71.639999
-1.6161035 4.869534 -2.0034745 71.639999
-17.933443 54.035839 0 71.639999
-1.7262167 5.2013197 -1.9946615 71.639999
-17.926722 54.015591 1.3213441 71.639999
-1.8602961 5.6053185 -1.9956093 71.639999
-17.93474 54.039753 2.6552553 71.639999
-2.0001745 6.0267911 -1.9814628 71.639999
-17.926207 54.014038 3.9796069 71.639999
-2.1697536 6.537755 -1.9752173 71.639999
-17.926781 54.015766 5.3097029 71.639999
-2.3670504 7.1322365 -1.9672573 71.639999
-17.911551 53.969875 6.6498599 71.639999
-2.6095431 7.8628993 -1.9629816 71.639999
-17.899904 53.934784 7.9865875 71.639999
-2.8856957 8.6949835 -1.9473009 71.639999
-17.897612 53.927876 9.3352232 71.639999
-3.221077 9.7055321 -1.9266927 71.639999
-3.5110333 10.685153 -1.8478496 71.809998
-3.7782004 11.498225 -1.7009736 71.809998
-4.208703 12.808377 -1.5766295 71.809998
-4.8065104 14.627688 -1.4364809 71.809998
-7.8144894 23.781893 -1.750469 71.809998
-1.4082222 4.2856526 -2.0084655 71.809998
-9.1634426 27.887173 -1.3689005 71.809998
-1.5007454 4.5672293 -2.0080535 71.809998
-11.824277 35.984909 -0.87941056 71.809998
-1.5987403 4.8654585 -1.999837 71.809998
-17.769291 54.077412 0 71.809998
-1.7137098 5.2153459 -1.9980817 71.809998
-11.826149 35.990608 0.87954986 71.809998
-1.8395162 5.5982132 -1.9911276 71.809998
-17.760603 54.050972 2.6532056 71.809998
-1.981092 6.0290718 -1.9802713 71.809998
-17.755278 54.034767 3.9772351 71.809998
-2.1521466 6.5496435 -1.9768711 71.809998
-17.754623 54.032776 5.3061733 71.809998
-2.3458781 7.1392283 -1.9672573 71.809998
-17.740177 53.988811 6.6456785 71.809998
-2.5862019 7.8706074 -1.9629816 71.809998
-17.736088 53.976368 7.9849176 71.809998
-2.8611057 8.7072239 -1.9481325 71.809998
-17.728285 53.952618 9.3303595 71.809998
-3.1904254 9.709445 -1.9255818 71.809998
-3.478668 10.699884 -1.8484981 71.989998
-3.743896 11.515688 -1.7018087 71.989998
-4.1684437 12.821536 -1.5766295 71.989998
-4.7611485 14.64461 -1.4366666 71.989998
-7.7533088 23.848068 -1.7535383 71.989998
-1.3964462 4.2952685 -2.010906 71.989998
-9.0547857 27.851225 -1.3657329 71.989998
-1.4881014 4.5771866 -2.0103662 71.989998
-11.70066 35.989552 -0.8786214 71.989998
-1.5840232 4.8722286 -2.0005646 71.989998
-11.721745 36.054409 0 71.989998
-1.6967359 5.2189164 -1.9973977 71.989998
-11.71055 36.019978 0.87936413 71.989998
-1.8219198 5.6039643 -1.9911276 71.989998
-17.582062 54.079903 2.6519012 71.989998
-1.961551 6.0334501 -1.9796755 71.989998
-17.571247 54.046638 3.9740262 71.989998
-2.1327486 6.560029 -1.9779737 71.989998
-17.570011 54.042835 5.3017144 71.989998
-2.3252327 7.1520829 -1.9687768 71.989998
-17.560038 54.012161 6.6417294 71.989998
-2.5602596 7.8749919 -1.9620593 71.989998
-17.546221 53.969666 7.9757318 71.989998
-2.8325274 8.7124491 -1.9473009 71.989998
-17.559311 54.009922 9.3306837 71.989998
-3.1586912 9.715682 -1.9248412 71.989998
-3.4493797 10.711435 -1.8488224 72.150002
-3.7123308 11.527984 -1.702087 72.150002
-4.1326232 12.833127 -1.5766295 72.150002
-4.7245073 14.671117 -1.4379672 72.150002
-7.6891289 23.877222 -1.7540963 72.150002
-1.3850062 4.3008904 -2.0117195 72.150002
-8.9720764 27.861189 -1.3649876 72.150002
-1.474748 4.5795679 -2.0095952 72.150002
-9.5837135 29.760521 -0.72589439 72.150002
-1.5704112 4.8766332 -2.0005646 72.150002
-17.421717 54.100044 0 72.150002
-1.6821554 5.2236342 -1.9973977 72.150002
-11.603177 36.031605 0.8788535 72.150002
-1.8068444 5.6108341 -1.9917679 72.150002
-17.41995 54.094559 2.6502242 72.150002
-1.9441096 6.037087 -1.9790798 72.150002
-17.409855 54.063213 3.9716547 72.150002
-2.1138318 6.5641294 -1.9774224 72.150002
-17.40926 54.061359 5.2987418 72.150002
-2.303472 7.1530232 -1.9672573 72.150002
-17.39757 54.025063 6.6373153 72.150002
-2.5388551 7.8839631 -1.9625205 72.150002
-17.389978 54.001484 7.973227 72.150002
-2.8075871 8.7184629 -1.9468851 72.150002
-17.393295 54.011784 9.3225784 72.150002
-3.1303427 9.7207232 -1.9241005 72.150002
-3.4194543 10.721026 -1.8488224 72.309998
-3.6831331 11.54774 -1.7034788 72.309998
-4.0991845 12.852187 -1.5775588 72.309998
-4.6974368 14.727889 -1.4422402 72.309998
-7.6212087 23.8948 -1.7538173 72.309998
-1.3718801 4.30126 -2.0100925 72.309998
-8.8814898 27.846165 -1.363031 72.309998
-1.4619536 4.5836682 -2.0095952 72.309998
-9.4896336 29.752878 -0.72505879 72.309998
-1.556787 4.8809996 -2.0005646 72.309998
-11.510474 36.088825 0 72.309998
-1.6687038 5.2318926 -1.9987657 72.309998
-17.250731 54.086273 1.3180481 72.309998
-1.7928962 5.621273 -1.9936886 72.309998
-17.254251 54.097313 2.6479883 72.309998
-1.9313043 6.0552249 -1.98325 72.309998
-17.250935 54.08691 3.969841 72.309998
-2.0943248 6.5663433 -1.9763198 72.309998
-17.245516 54.069923 5.2948403 72.309998
-2.284076 7.1612711 -1.9677638 72.309998
-17.236374 54.04126 6.6333666 72.309998
-2.5150549 7.8854599 -1.9611371 72.309998
-17.226471 54.010212 7.9673815 72.309998
-2.7844186 8.7299967 -1.9477167 72.309998
-17.2376 54.045105 9.3199844 72.309998
-3.1049769 9.7350445 -1.9252114 72.309998
-3.3826964 10.728542 -1.8481739 72.5
-3.6448193 11.55989 -1.7034788 72.5
-4.0565429 12.86571 -1.5775588 72.5
-4.6527634 14.75668 -1.4435407 72.5
-7.5455284 23.931358 -1.7546543 72.5
-1.357609 4.3057857 -2.0100925 72.5
-8.7824917 27.854504 -1.3620062 72.5
-1.4467456 4.588491 -2.0095952 72.5
-9.355443 29.671675 -0.7223199 72.5
-1.5405924 4.8861351 -2.0005646 72.5
-17.074076 54.15205 0 72.5
-1.6502148 5.2338123 -1.9973977 72.5
-17.065268 54.124111 1.3175839 72.5
-1.7725362 5.6217666 -1.9917679 72.5
-17.062147 54.11422 2.6460319 72.5
-1.9094915 6.0561333 -1.9814628 72.5
-17.056482 54.096249 3.9663532 72.5
-2.0736947 6.5769191 -1.9774224 72.5
-17.054144 54.088833 5.2911248 72.5
-2.2603159 7.1688061 -1.9677638 72.5
-17.043333 54.054546 6.6280236 72.5
-2.4888918 7.8937569 -1.9611371 72.5
-17.026428 54.000931 7.9576397 72.5
-2.7548652 8.7373161 -1.9473009 72.5
-17.04879 54.071854 9.3147964 72.5
-3.0703132 9.7377892 -1.9237303 72.5
-3.3533118 10.739831 -1.8484981 72.660004
-3.6137044 11.573804 -1.7040354 72.660004
-4.0194149 12.873196 -1.5770942 72.660004
-4.6186585 14.792425 -1.44577 72.660004
-7.480454 23.95805 -1.7550728 72.660004
-1.3466688 4.3130479 -2.0117195 72.660004
-8.7100315 27.896084 -1.3628447 72.660004
-1.4333766 4.5907516 -2.0088243 72.660004
-9.2588415 29.653788 -0.7212522 72.660004
-1.5280523 4.8939748 -2.0020196 72.660004
-16.918615 54.186153 0 72.660004
-1.6361529 5.2401943 -1.9980817 72.660004
-16.915249 54.175373 1.3176768 72.660004
-1.7607834 5.6393552 -1.9962496 72.660004
-16.899652 54.125423 2.6442616 72.660004
-1.8925722 6.0614419 -1.9814628 72.660004
-16.914864 54.174141 3.9685853 72.660004
-2.0581853 6.5918603 -1.9801787 72.660004
-16.886414 54.083023 5.2859225 72.660004
-2.2391346 7.1713963 -1.9667507 72.660004
-16.885805 54.081074 6.6254683 72.660004
-2.4691589 7.9081068 -1.9629816 72.660004
-16.867298 54.021797 7.9537425 72.660004
-2.7316215 8.7487097 -1.9481325 72.660004
-16.886551 54.083458 9.3086357 72.660004
-3.0442798 9.7500772 -1.9244709 72.660004
-3.3182607 10.752777 -1.8488224 72.849998
-3.5776403 11.593294 -1.7051488 72.849998
-3.9802184 12.897842 -1.578488 72.849998
-4.5789752 14.838104 -1.4487426 72.849998
-7.3944936 23.961754 -1.7535383 72.849998
-1.3307425 4.3122525 -2.009279 72.849998
-8.6233683 27.943905 -1.3637764 72.849998
-1.4186894 4.5972428 -2.0095952 72.849998
-9.1522017 29.657579 -0.72060233 72.849998
-1.5112655 4.8972349 -2.001292 72.849998
-16.744143 54.259159 0 72.849998
-1.6198752 5.2491827 -1.9994497 72.849998
-16.730787 54.215881 1.3173054 72.849998
-1.7403967 5.6397314 -1.9943289 72.849998
-16.711237 54.152531 2.6428642 72.849998
-1.8730242 6.069509 -1.9820585 72.849998
-2.0323462 6.5857897 -1.9763198 72.849998
-16.700516 54.11779 5.2838793 72.849998
-2.2170527 7.1843286 -1.9682703 72.849998
-16.690559 54.085522 6.6191959 72.849998
-2.4411995 7.9106727 -1.9615982 72.849998
-16.674631 54.033909 7.947341 72.849998
-2.7008641 8.7521124 -1.9468851 72.849998
-16.691399 54.088242 9.299881 72.849998
-3.0130897 9.763875 -1.9252114 72.849998
-3.2857656 10.760688 -1.8484981 73.019997
-3.5443835 11.607646 -1.7057055 73.019997
-3.9430926 12.913395 -1.5789526 73.019997
-4.5401635 14.868766 -1.4504147 73.019997
-7.3315225 24.010302 -1.7554914 73.019997
-1.317942 4.3161821 -2.009279 73.019997
-8.5579224 28.02669 -1.3665714 73.019997
-1.4039649 4.5979023 -2.0080535 73.019997
-9.0565739 29.659744 -0.71999884 73.019997
-1.4978167 4.905261 -2.0027471 73.019997
-11.016253 36.077576 0 73.019997
-1.6042935 5.2539659 -1.9994497 73.019997
-11.020292 36.090805 0.87611467 73.019997
-1.7280824 5.6593676 -1.9994507 73.019997
-16.545238 54.184677 2.6420257 73.019997
-1.8561226 6.0786915 -1.98325 73.019997
-2.0127969 6.5917912 -1.9763198 73.019997
-16.524752 54.117584 5.2790484 73.019997
-2.1968567 7.1945758 -1.9692832 73.019997
-16.520729 54.104408 6.615479 73.019997
-2.4182856 7.9197421 -1.9620593 73.019997
-16.506138 54.056625 7.9434438 73.019997
-2.6771693 8.7675714 -1.9485483 73.019997
-16.511246 54.073353 9.2888575 73.019997
-2.9818106 9.7652531 -1.9237303 73.019997
-3.2572479 10.781725 -1.8504436 73.190002
-3.5116456 11.623799 -1.7065406 73.190002
-3.9070585 12.932644 -1.5798818 73.190002
-4.5023618 14.903141 -1.4524583 73.190002
-1.3051298 4.3200736 -2.009279 73.190002
-1.3903165 4.6020474 -2.0080535 73.190002
-1.4816396 4.9043331 -2.0005646 73.190002
-1.5881541 5.2569036 -1.9987657 73.190002
-16.389111 54.249134 1.3157271 73.190002
-1.7079954 5.6535873 -1.9956093 73.190002
-16.371109 54.189545 2.6398828 73.190002
-1.8386308 6.086 -1.9838458 73.190002
-1.9937859 6.5995746 -1.9768711 73.190002
-16.361231 54.156845 5.2781196 73.190002
-2.17606 7.2029142 -1.9697897 73.190002
-16.350933 54.122761 6.6117625 73.190002
-2.3959024 7.9306087 -1.9629816 73.190002
-16.334795 54.06934 7.9381552 73.190002
-2.6488807 8.7679853 -1.9468851 73.190002
-16.347881 54.112659 9.2872362 73.190002
-2.9545286 9.7797012 -1.9248412 73.190002
-3.2239251 10.793796 -1.8507679 73.370003
-3.475678 11.636672 -1.7068189 73.370003
-3.8720951 12.963888 -1.5822048 73.370003
-4.4595094 14.930568 -1.4537588 73.370003
-7.1898546 24.071844 -1.756747 73.370003
-1.2925973 4.3276534 -2.010906 73.370003
-8.397994 28.11673 -1.3684348 73.370003
-1.3758519 4.6063924 -2.0080535 73.370003
-8.8660698 29.683861 -0.7192561 73.370003
-1.4678243 4.914319 -2.0027471 73.370003
-1.5700176 5.256465 -1.9967136 73.370003
-10.785316 36.109554 0.8749541 73.370003
-1.6951061 5.6752648 -2.0013714 73.370003
-16.195068 54.221565 2.6389511 73.370003
-1.8216876 6.0990634 -1.9862288 73.370003
-1.9746935 6.6113319 -1.9785249 73.370003
-16.180183 54.171726 5.27459 73.370003
-2.1506519 7.2004457 -1.9672573 73.370003
-16.173429 54.14912 6.6087422 73.370003
-2.3732035 7.9455552 -1.964826 73.370003
-16.152946 54.08054 7.9323101 73.370003
-2.6218822 8.7781382 -1.9473009 73.370003
-16.167068 54.127823 9.2810755 73.370003
-2.9221027 9.7832851 -1.9237303 73.370003
-3.1946809 10.812777 -1.852389 73.540001
-3.4422584 11.650732 -1.7073756 73.540001
-3.8336134 12.97532 -1.5822048 73.540001
-4.4264746 14.981929 -1.4574745 73.540001
-7.1184006 24.093071 -1.756747 73.540001
-1.2792335 4.3297176 -2.0100925 73.540001
-8.3117027 28.131943 -1.3679689 73.540001
-1.3637471 4.6157641 -2.0103662 73.540001
-8.7694588 29.681274 -0.7185598 73.540001
-1.4521811 4.9150791 -2.001292 73.540001
-1.5576096 5.2719145 -2.0008178 73.540001
-16.039289 54.286877 1.3142416 73.540001
-1.6787966 5.6820865 -2.0020115 73.540001
-16.025063 54.238724 2.6374605 73.540001
-1.8008784 6.0952868 -1.98325 73.540001
-15.995484 54.138615 3.9475188 73.540001
-1.9567028 6.6226931 -1.9801787 73.540001
-16.006403 54.175571 5.2703166 73.540001
-2.1320195 7.2160726 -1.9697897 73.540001
-16.008757 54.183533 6.6071162 73.540001
-2.3490667 7.9506955 -1.9643649 73.540001
-15.976142 54.073147 7.9242382 73.540001
-2.5963798 8.787755 -1.9477167 73.540001
-15.99801 54.147163 9.2762117 73.540001
-2.8930624 9.791913 -1.9237303 73.540001
-3.1639197 10.819761 -1.8520647 73.699997
