# .PCD v0.7 - Point Cloud Data file format
VERSION 0.7
FIELDS x y z intensity
SIZE 4 4 4 4
TYPE F F F F
COUNT 1 1 1 1
WIDTH 1159
HEIGHT 1
VIEWPOINT 0 0 0 1 0 0 0
POINTS 1159
DATA ascii
-6.0873303 -3.6735616 -2.2185712 328.89001
-6.7536206 -4.0756521 -2.2618802 328.89001
-7.5421901 -4.5515356 -2.3061078 328.89001
-8.5760345 -5.1754365 -2.3733771 328.89001
-9.8017187 -5.9151082 -2.4333985 328.89001
-11.043869 -6.6647167 -2.4303064 328.89001
-12.33952 -7.3938284 -2.3633928 329.07001
-14.389647 -8.622263 -2.3575923 329.07001
-16.438295 -9.8498106 -2.2410116 329.07001
-25.861753 -15.496337 -2.8127677 329.07001
-4.0968466 -2.4548266 -2.1264191 329.07001
-4.3834524 -2.6265602 -2.1344724 329.07001
-4.7207146 -2.8286474 -2.1489701 329.07001
-5.1072245 -3.0602438 -2.1670396 329.07001
-5.5780773 -3.3423786 -2.197283 329.07001
-36.579552 -21.918432 1.9886465 329.07001
-6.1004786 -3.655401 -2.2191668 329.07001
-6.7680407 -4.0554032 -2.2624314 329.07001
-7.5614309 -4.5308018 -2.3076272 329.07001
-8.5922518 -5.148469 -2.3733771 329.07001
-9.8252869 -5.8873024 -2.4346459 329.07001
-11.047893 -6.6198864 -2.4266033 329.07001
-12.353336 -7.3553028 -2.3620958 329.23001
-14.337091 -8.5364504 -2.3450668 329.23001
-15.484313 -9.2195177 -2.1074383 329.23001
-25.738956 -15.325237 -2.7947466 329.23001
-4.1052556 -2.4443111 -2.1272326 329.23001
-4.3971124 -2.6180856 -2.1375556 329.23001
-4.7317967 -2.8173599 -2.150425 329.23001
-26.342209 -15.68442 0 329.23001
-5.1173654 -3.0469315 -2.1677237 329.23001
-46.054234 -27.42116 1.2444235 329.23001
-5.5873895 -3.3267887 -2.197283 329.23001
-36.6698 -21.833572 1.9902303 329.23001
-6.1090226 -3.6373742 -2.2185712 329.23001
-6.7793388 -4.0364876 -2.2624314 329.23001
-7.5773783 -4.5116487 -2.3086402 329.23001
-8.6082678 -5.1254501 -2.3738382 329.23001
-9.8467321 -5.8628445 -2.4358933 329.23001
-11.042693 -6.5749321 -2.4214191 329.23001
-12.378082 -7.3174615 -2.3624201 329.41
-14.368953 -8.4943905 -2.3459017 329.41
-14.519685 -8.583498 -1.9724711 329.41
-26.109247 -15.434816 -2.829674 329.41
-4.1144872 -2.4323318 -2.128046 329.41
-4.4116702 -2.6080155 -2.1406391 329.41
-4.7406244 -2.8024807 -2.150425 329.41
-5.12853 -3.0317962 -2.1684077 329.41
-23.690567 -14.004982 0.63894677 329.41
-5.5978131 -3.3092189 -2.197283 329.41
-6.1269937 -3.6220505 -2.2209542 329.41
-6.7870216 -4.0122347 -2.2607775 329.41
-7.5898495 -4.4868364 -2.3081336 329.41
-8.6310282 -5.1023426 -2.3756826 329.41
-9.8634176 -5.8308859 -2.4354775 329.41
-11.051452 -6.5332069 -2.4188271 329.41
-12.403142 -7.2827015 -2.3630686 329.57999
-14.41288 -8.4627504 -2.3489635 329.57999
-16.509901 -9.6940498 -2.2389209 329.57999
-19.36162 -11.368482 -2.0947132 329.57999
-4.118535 -2.418263 -2.1264191 329.57999
-4.4146147 -2.5921111 -2.1383264 329.57999
-4.750525 -2.789346 -2.1511526 329.57999
-26.718649 -15.688277 0 329.57999
-5.1375031 -3.0165663 -2.1684077 329.57999
-23.557873 -13.832377 0.63425815 329.57999
-5.6076074 -3.2925954 -2.197283 329.57999
-6.1393595 -3.6048222 -2.2215497 329.57999
-6.7988963 -3.9920795 -2.2607775 329.57999
-7.6064653 -4.4662566 -2.3091466 329.57999
-8.6444511 -5.075726 -2.3752215 329.57999
-9.8857365 -5.8045664 -2.4367249 329.57999
-11.050449 -6.4884462 -2.4143834 329.57999
-12.425961 -7.2437 -2.3630686 329.76001
-14.423996 -8.408452 -2.3464584 329.76001
-26.182402 -15.263002 -2.8274448 329.76001
-4.1292686 -2.4071527 -2.128046 329.76001
-4.4243307 -2.5791588 -2.1390975 329.76001
-4.7608743 -2.7753463 -2.15188 329.76001
-46.924866 -27.354797 0 329.76001
-5.1453309 -2.999465 -2.1677237 329.76001
-26.289017 -15.325153 0.70649016 329.76001
-5.6162868 -3.274008 -2.1966429 329.76001
-6.1506543 -3.5855172 -2.2215497 329.76001
-26.762926 -15.601418 2.1662176 329.76001
-6.8246913 -3.9784462 -2.2651877 329.76001
-7.6187878 -4.4413638 -2.3086402 329.76001
-8.6586723 -5.0475636 -2.3747604 329.76001
-9.9056129 -5.774466 -2.4371409 329.76001
-11.058892 -6.4467692 -2.4117911 329.76001
-12.446589 -7.2121334 -2.3633928 329.91
-14.363706 -8.323 -2.3330979 329.91
-14.68685 -8.5102444 -1.9850154 329.91
-26.365278 -15.27727 -2.8428648 329.91
-4.1371374 -2.3972499 -2.1288595 329.91
-4.4326644 -2.5684922 -2.1398683 329.91
-4.7697353 -2.7638068 -2.1526074 329.91
-26.61821 -15.423831 0 329.91
-5.1580439 -2.988811 -2.1697757 329.91
-26.901682 -15.588087 0.7218557 329.91
-5.634675 -3.2649932 -2.2004843 329.91
-26.770817 -15.512258 1.442875 329.91
-6.1600199 -3.5694025 -2.2215497 329.91
-26.824392 -15.543303 2.1678917 329.91
-6.8317566 -3.958638 -2.2640853 329.91
-7.6354113 -4.4243126 -2.3101597 329.91
-8.6735411 -5.0258536 -2.3752215 329.91
-9.922389 -5.7494946 -2.4375567 329.91
-11.046823 -6.4010434 -2.4054961 329.91
-12.470437 -7.1708193 -2.3633928 330.10001
-14.279627 -8.2111492 -2.3150053 330.10001
-14.515231 -8.3466282 -1.9580685 330.10001
-19.310358 -11.103948 -2.0781784 330.10001
-4.1418962 -2.381696 -2.1272326 330.10001
-4.4379578 -2.551939 -2.1383264 330.10001
-4.7804894 -2.7489033 -2.1533349 330.10001
-26.546112 -15.264691 0 330.10001
-5.1695561 -2.9726267 -2.1704597 330.10001
-26.769493 -15.393141 0.71693504 330.10001
-5.6372585 -3.2415674 -2.197283 330.10001
-27.301849 -15.69926 1.4686823 330.10001
-6.1751328 -3.550859 -2.2227414 330.10001
-36.058075 -20.734314 2.908566 330.10001
-6.8465133 -3.9369197 -2.2646365 330.10001
-7.6584272 -4.403791 -2.3126922 330.10001
-8.7002821 -5.0028844 -2.3779881 330.10001
-9.948184 -5.7204595 -2.43922 330.10001
-11.059469 -6.359477 -2.4036446 330.10001
-12.489944 -7.1328087 -2.3630686 330.26999
-14.281569 -8.1559763 -2.3113868 330.26999
-14.488182 -8.2739706 -1.9510994 330.26999
-19.45216 -11.108819 -2.0898829 330.26999
-26.88341 -15.352687 -2.1648223 330.26999
-4.1552911 -2.3730206 -2.1304865 330.26999
-26.836527 -15.325913 -1.4411981 330.26999
-4.4519205 -2.5424209 -2.1414099 330.26999
-26.835882 -15.325545 -0.7174921 330.26999
-4.783771 -2.7319355 -2.1511526 330.26999
-26.75975 -15.282068 0 330.26999
-5.1767216 -2.9563432 -2.1697757 330.26999
-5.6550784 -3.2295253 -2.2004843 330.26999
-6.1839833 -3.5315745 -2.2221456 330.26999
-26.72575 -15.26265 2.1521268 330.26999
-6.8631725 -3.9194486 -2.2662904 330.26999
-7.6697793 -4.3800888 -2.3121858 330.26999
-8.7100182 -4.9741526 -2.3766048 330.26999
-9.9651136 -5.6909175 -2.43922 330.26999
-11.05269 -6.3120151 -2.3980899 330.26999
-12.514009 -7.0945086 -2.3633928 330.45001
-14.269217 -8.0895805 -2.3052633 330.45001
-15.886196 -9.0062876 -2.1355467 330.45001
-26.984482 -15.298186 -2.8939552 330.45001
-36.494736 -20.689791 -2.9335387 330.45001
-4.1611362 -2.3590536 -2.129673 330.45001
-26.954062 -15.28094 -1.4449247 330.45001
-4.4566751 -2.526602 -2.1398683 330.45001
-36.500942 -20.69331 -0.97415704 330.45001
-4.7955713 -2.7187312 -2.1526074 330.45001
-26.852865 -15.22357 0 330.45001
-5.1859837 -2.9400654 -2.1697757 330.45001
-26.892593 -15.246093 0.7177242 330.45001
-5.6651964 -3.2117434 -2.2004843 330.45001
-26.806334 -15.19719 1.4370055 330.45001
-6.2016912 -3.5158958 -2.2245286 330.45001
-6.872107 -3.8959715 -2.2651877 330.45001
-7.6919179 -4.360743 -2.3147182 330.45001
-8.734067 -4.9515638 -2.3789105 330.45001
-9.9863462 -5.6615129 -2.4400516 330.45001
-11.055367 -6.2675676 -2.394387 330.45001
-12.531564 -7.0554113 -2.3627443 330.62
-14.300059 -8.0510941 -2.3063767 330.62
-14.54711 -8.1901865 -1.952261 330.62
-27.362919 -15.40563 -2.9296257 330.62
-4.163341 -2.3440077 -2.1272326 330.62
-47.461563 -26.721394 -2.5400078 330.62
-4.4641519 -2.5133677 -2.1398683 330.62
-47.529964 -26.759903 -1.2663809 330.62
-4.8068638 -2.7063184 -2.1540625 330.62
-26.683556 -15.023141 0 330.62
-5.1963215 -2.9255874 -2.1704597 330.62
-47.273846 -26.615705 1.259557 330.62
-5.6730499 -3.1939907 -2.1998439 330.62
-6.2037773 -3.4927964 -2.2215497 330.62
-26.936705 -15.165668 2.1616137 330.62
-6.8886619 -3.8783941 -2.2668417 330.62
-7.7031364 -4.3369522 -2.3142118 330.62
-8.7453279 -4.923718 -2.3779881 330.62
-10.0031 -5.6318579 -2.4400516 330.62
-11.055076 -6.2241316 -2.3903136 330.62
-12.552443 -7.0181985 -2.3627443 330.79001
-14.322156 -8.0076628 -2.3060982 330.79001
-14.581749 -8.1528044 -1.9536548 330.79001
-4.1734672 -2.3334279 -2.1288595 330.79001
-4.4780326 -2.5037136 -2.1429515 330.79001
-4.8083682 -2.6884077 -2.1511526 330.79001
-27.183634 -15.198646 0 330.79001
-5.2049789 -2.9101567 -2.1704597 330.79001
-47.382275 -26.491913 1.2603462 330.79001
-5.6825013 -3.1771445 -2.1998439 330.79001
-6.2191129 -3.4771693 -2.2233372 330.79001
-26.732561 -14.946446 2.1416633 330.79001
-6.8984609 -3.8569999 -2.2662904 330.79001
-7.7159705 -4.3140779 -2.3142118 330.79001
-8.7615976 -4.8986983 -2.3784494 330.79001
-10.026597 -5.6059723 -2.441715 330.79001
-11.058055 -6.1826706 -2.3869808 330.79001
-12.569759 -6.9790077 -2.3620958 330.95999
-14.326805 -7.9545579 -2.3030365 330.95999
-27.591394 -15.31935 -2.9443028 330.95999
-29.59384 -16.431152 -2.3669767 330.95999
-4.1803722 -2.3210347 -2.1288595 330.95999
-29.623419 -16.447575 -1.5801098 330.95999
-4.4870553 -2.4913118 -2.1437225 330.95999
-4.8228388 -2.6777463 -2.1540625 330.95999
-48.291786 -26.812664 0 330.95999
-5.2152338 -2.8956127 -2.1711438 330.95999
-27.796394 -15.433171 0.7381497 330.95999
-5.6968727 -3.1630294 -2.2017646 330.95999
-47.076084 -26.13768 2.5110331 330.95999
-6.2310715 -3.4596281 -2.2239327 330.95999
-26.782022 -14.869969 2.1420817 330.95999
-6.9065127 -3.8346481 -2.2651877 330.95999
-7.73212 -4.2930431 -2.3152246 330.95999
-8.7846012 -4.8774042 -2.3807549 330.95999
-10.043185 -5.5761981 -2.441715 330.95999
-11.06604 -6.1441092 -2.3847589 330.95999
-12.585227 -6.9388232 -2.3611231 331.13
-14.298311 -7.883327 -2.2946861 331.13
-27.699505 -15.272031 -2.9509909 331.13
-4.1856403 -2.307739 -2.128046 331.13
-4.4911947 -2.4762056 -2.1421807 331.13
-4.8258681 -2.6607265 -2.15188 331.13
-5.2221565 -2.8792188 -2.1704597 331.13
-27.584673 -15.208717 0.73132569 331.13
-5.7062325 -3.1461127 -2.2017646 331.13
-6.2413087 -3.4411252 -2.2239327 331.13
-27.290771 -15.046677 2.1791923 331.13
-6.9262781 -3.8187807 -2.2679441 331.13
-7.7482123 -4.2719512 -2.3162377 331.13
-8.7990341 -4.8513184 -2.3807549 331.13
-10.064826 -5.5492086 -2.4429624 331.13
-11.065289 -6.1008105 -2.3806856 331.13
-12.611478 -6.9074435 -2.3624201 331.29001
-14.36717 -7.8690557 -2.3022015 331.29001
-14.741195 -8.0739126 -1.9655021 331.29001
-27.233801 -14.916249 -2.8969278 331.29001
-4.1920686 -2.2960415 -2.128046 331.29001
-29.614277 -16.220062 -1.574613 331.29001
-4.4916177 -2.460108 -2.1390975 331.29001
-4.8414493 -2.6517143 -2.1555173 331.29001
-27.306459 -14.956044 0 331.29001
-5.2318249 -2.8655274 -2.1711438 331.29001
-26.811586 -14.684998 0.70973969 331.29001
-5.7116723 -3.128345 -2.2004843 331.29001
-6.2492194 -3.4227655 -2.2233372 331.29001
-27.026459 -14.802686 2.1547775 331.29001
-6.9402876 -3.801271 -2.2690468 331.29001
-7.7550206 -4.247509 -2.3147182 331.29001
-8.8142538 -4.8276625 -2.381216 331.29001
-10.08543 -5.5239 -2.4442098 331.29001
-11.061597 -6.0585566 -2.3762419 331.29001
-12.625645 -6.8608732 -2.3607988 331.48001
-14.365343 -7.8062391 -2.2977479 331.48001
-16.637218 -9.0407934 -2.2142968 331.48001
-27.736288 -15.072114 -2.9450459 331.48001
-4.1996593 -2.2821274 -2.128046 331.48001
-4.5013728 -2.4460809 -2.1398683 331.48001
-4.8485789 -2.6347556 -2.1547899 331.48001
-27.099339 -14.725991 0 331.48001
-5.2412987 -2.8481622 -2.1711438 331.48001
-26.858379 -14.595052 0.70969325 331.48001
-5.7286744 -3.1130061 -2.2030451 331.48001
-6.2655683 -3.4047582 -2.2251244 331.48001
-6.9528546 -3.7782352 -2.2690468 331.48001
-7.7775631 -4.2263885 -2.3172507 331.48001
-8.8319244 -4.799336 -2.3816772 331.48001
-10.107131 -5.4922934 -2.4450414 331.48001
-11.067811 -6.0143347 -2.3732796 331.48001
-12.652893 -6.8271303 -2.3620958 331.64999
-14.355325 -7.7457128 -2.2924592 331.64999
-16.674459 -8.9970503 -2.2156906 331.64999
-28.013971 -15.115519 -2.9697552 331.64999
-4.2096281 -2.2713919 -2.129673 331.64999
-4.5102348 -2.4335907 -2.1406391 331.64999
-4.8580151 -2.6212425 -2.1555173 331.64999
-27.028503 -14.58379 0 331.64999
-5.2563419 -2.8361683 -2.1738801 331.64999
-26.866373 -14.496308 0.70876479 331.64999
-5.7345505 -3.0941956 -2.2017646 331.64999
-6.2790031 -3.3879662 -2.2263157 331.64999
-6.96911 -3.7603278 -2.2707005 331.64999
-7.7900691 -4.2032933 -2.3172507 331.64999
-8.851263 -4.7758827 -2.3830605 331.64999
-10.123382 -5.4622808 -2.4450414 331.64999
-11.064851 -5.9702697 -2.3688359 331.64999
-12.667874 -6.7867627 -2.3611231 331.82001
-14.416651 -7.7236624 -2.298583 331.82001
-16.790382 -8.9953794 -2.2275381 331.82001
-27.904228 -14.949577 -2.9534061 331.82001
-29.608501 -15.862635 -2.34884 331.82001
-4.2131276 -2.2571661 -2.128046 331.82001
-4.520689 -2.4219408 -2.1421807 331.82001
-62.657276 -33.568382 -1.6503339 331.82001
-4.867413 -2.6076968 -2.1562448 331.82001
-5.2647338 -2.82056 -2.1738801 331.82001
-54.141064 -29.005856 1.4260248 331.82001
-5.7453761 -3.0780621 -2.202405 331.82001
-6.2907104 -3.3702228 -2.2269115 331.82001
-6.9700689 -3.7341862 -2.2673929 331.82001
-7.8127389 -4.1856432 -2.3202899 331.82001
-8.8671103 -4.7505183 -2.3835216 331.82001
-10.142993 -5.4340677 -2.445873 331.82001
-11.072122 -5.9318447 -2.3666141 331.82001
-12.683906 -6.7441521 -2.3601506 332
-14.47407 -7.6959991 -2.3038716 332
-16.322193 -8.6786642 -2.1617968 332
-28.307983 -15.051621 -2.9911203 332
-4.2282643 -2.2482078 -2.1321135 332
-4.5250163 -2.4059939 -2.1406391 332
-4.8772264 -2.5932672 -2.1569724 332
-5.2702503 -2.8022418 -2.1725121 332
-5.756691 -3.0608869 -2.2030451 332
-6.3029532 -3.3513396 -2.2275074 332
-6.9885554 -3.7158809 -2.269598 332
-7.82585 -4.1610785 -2.3202899 332
-8.8854275 -4.7244654 -2.3844438 332
-10.163469 -5.4040127 -2.4467049 332
-11.071613 -5.8868814 -2.3625407 332
-12.710841 -6.7101741 -2.3614473 332.17001
-14.465314 -7.6363769 -2.2988613 332.17001
-16.999607 -8.9742546 -2.2479806 332.17001
-28.363083 -14.973142 -2.9922349 332.17001
-4.2333002 -2.2347996 -2.1313 332.17001
-4.5256071 -2.389111 -2.1375556 332.17001
-4.8799567 -2.5761755 -2.1547899 332.17001
-54.39024 -28.713127 0 332.17001
-5.2785416 -2.7865922 -2.1725121 332.17001
-54.18639 -28.605513 1.4225895 332.17001
-5.7674227 -3.0446775 -2.2036853 332.17001
-6.3111806 -3.3317323 -2.2269115 332.17001
-7.0029502 -3.6969242 -2.2707005 332.17001
-7.8347397 -4.1360335 -2.3192768 332.17001
-8.9028482 -4.6998982 -2.3853662 332.17001
-10.181189 -5.3747463 -2.4471207 332.17001
-11.071651 -5.84483 -2.3588376 332.17001
-12.730695 -6.672431 -2.3614473 332.34
-14.517729 -7.6090541 -2.3035932 332.34
-17.026159 -8.9237766 -2.2479806 332.34
-28.446188 -14.909259 -2.9963222 332.34
-4.2350574 -2.2196848 -2.1288595 332.34
-4.5424833 -2.3808131 -2.1421807 332.34
-4.8892288 -2.5625501 -2.1555173 332.34
-52.983646 -27.769869 0 332.34
-5.29178 -2.7735357 -2.1745641 332.34
-54.99358 -28.823317 1.4415296 332.34
-5.7764311 -3.0275519 -2.2036853 332.34
-6.3261113 -3.3156509 -2.2286987 332.34
-7.0121856 -3.6752374 -2.2701492 332.34
-7.8469768 -4.1127691 -2.3192768 332.34
-8.9167538 -4.6734624 -2.3853662 332.34
-10.195358 -5.3436065 -2.4467049 332.34
-11.073277 -5.8037424 -2.355505 332.34
-12.750436 -6.6346288 -2.3614473 332.51001
-14.57538 -7.5842295 -2.30916 332.51001
-17.077232 -8.8860569 -2.2512329 332.51001
-28.417871 -14.787105 -2.9887052 332.51001
-4.2416248 -2.2071092 -2.1288595 332.51001
-4.5429788 -2.3639174 -2.1390975 332.51001
-4.8951578 -2.5471721 -2.1547899 332.51001
-53.844673 -28.01782 0 332.51001
-5.2999859 -2.7578225 -2.1745641 332.51001
-5.7870693 -3.0112741 -2.2043257 332.51001
-6.3342276 -3.2959852 -2.2281032 332.51001
-7.0281758 -3.6570778 -2.2718031 332.51001
-7.857429 -4.0885758 -2.3187702 332.51001
-8.9340334 -4.6487818 -2.3862884 332.51001
-10.221581 -5.3187509 -2.4491997 332.51001
-11.071269 -5.7608824 -2.3514316 332.51001
-12.771819 -6.5976739 -2.3617716 332.67999
-14.54679 -7.5145898 -2.3010881 332.67999
-17.115877 -8.8417301 -2.2528589 332.67999
-28.482853 -14.71369 -2.9909346 332.67999
-4.2481546 -2.1945145 -2.1288595 332.67999
-4.5516124 -2.3512747 -2.1398683 332.67999
-4.9043493 -2.5334918 -2.1555173 332.67999
-53.27544 -27.521061 0 332.67999
-5.308145 -2.742085 -2.1745641 332.67999
-53.737171 -27.759583 1.404253 332.67999
-5.7993455 -2.9958296 -2.205606 332.67999
-6.3405867 -3.2754242 -2.2269115 332.67999
-7.0321631 -3.6326795 -2.269598 332.67999
-7.8815584 -4.0714602 -2.3223157 332.67999
-8.9495163 -4.623147 -2.3867495 332.67999
-10.233841 -5.2866039 -2.4483681 332.67999
-11.084821 -5.7262039 -2.3506911 332.67999
-12.790727 -6.5566177 -2.3614473 332.85999
-14.589713 -7.4787908 -2.3041499 332.85999
-28.58387 -14.652295 -2.9966938 332.85999
-4.2517762 -2.1794908 -2.1272326 332.85999
-4.5589767 -2.3369639 -2.1398683 332.85999
-54.459332 -27.916241 -1.4208256 332.85999
-4.9106264 -2.5172219 -2.1547899 332.85999
-53.471985 -27.41012 0 332.85999
-5.3200784 -2.7271101 -2.1759322 332.85999
-54.400612 -27.886141 1.4192936 332.85999
-5.8087287 -2.9775956 -2.205606 332.85999
-6.3593402 -3.2598431 -2.2298903 332.85999
-7.0469627 -3.6123233 -2.2707005 332.85999
-7.8977537 -4.0484447 -2.3233287 332.85999
-8.9674597 -4.5967836 -2.3876717 332.85999
-10.255621 -5.2571044 -2.4496155 332.85999
-11.083516 -5.6814895 -2.3466177 332.85999
-12.820678 -6.5240083 -2.3633928 333.03
-14.502399 -7.3797793 -2.2868924 333.03
-16.034727 -8.1595287 -2.1039538 333.03
-32.64854 -16.613735 -2.5615973 333.03
-4.266366 -2.1710091 -2.1313 333.03
-4.5675354 -2.3242638 -2.1406391 333.03
-20.664165 -10.515293 -0.53830475 333.03
-4.9197335 -2.5034857 -2.1555173 333.03
-55.663544 -28.325289 0 333.03
-5.3264713 -2.7104607 -2.1752481 333.03
-5.8175378 -2.9603477 -2.205606 333.03
-6.3638797 -3.2383626 -2.2281032 333.03
-7.0610766 -3.5931425 -2.2718031 333.03
-7.9131799 -4.0267487 -2.3243418 333.03
-8.9845285 -4.5719218 -2.3885939 333.03
-10.267687 -5.2248778 -2.4487839 333.03
-11.082808 -5.6396656 -2.3429146 333.03
-12.838217 -6.4850497 -2.3630686 333.20001
-14.490644 -7.3197508 -2.2816038 333.20001
-4.269527 -2.1566935 -2.129673 333.20001
-4.566175 -2.306541 -2.1367848 333.20001
-54.370602 -27.464567 -1.4142337 333.20001
-4.9321289 -2.4913976 -2.1576998 333.20001
-55.85445 -28.214113 0 333.20001
-5.3395228 -2.6971869 -2.1773002 333.20001
-5.8262954 -2.9430737 -2.205606 333.20001
-31.655964 -15.990578 1.653898 333.20001
-6.3734603 -3.2194664 -2.2281032 333.20001
-7.0734224 -3.5730429 -2.2723544 333.20001
-7.9302735 -4.0058694 -2.3258612 333.20001
-8.9963169 -4.5443668 -2.3881328 333.20001
-10.288383 -5.1970363 -2.4500313 333.20001
-11.099493 -5.6067572 -2.3429146 333.20001
-12.852109 -6.4442759 -2.3620958 333.37
-14.528233 -7.2847137 -2.2841089 333.37
-17.263729 -8.6563406 -2.2584341 333.37
-4.2726407 -2.1423781 -2.128046 333.37
-4.5795975 -2.2962916 -2.1398683 333.37
-55.674404 -27.916136 -1.445986 333.37
-4.9361682 -2.4750826 -2.1562448 333.37
-32.340225 -16.215963 0 333.37
-5.3491817 -2.6821749 -2.1779842 333.37
-32.022301 -16.056551 0.83168918 333.37
-5.8400836 -2.9283216 -2.2075267 333.37
-6.3881044 -3.203109 -2.2298903 333.37
-7.0891485 -3.554625 -2.2740083 333.37
-7.9438539 -3.9831893 -2.3263679 333.37
-9.0149794 -4.5202708 -2.3895161 333.37
-10.309004 -5.1691175 -2.4512789 333.37
-11.103781 -5.5676332 -2.3403225 333.37
-12.878241 -6.4096322 -2.3633928 333.54001
-14.549783 -7.2415757 -2.2841089 333.54001
-17.314236 -8.6174717 -2.2616863 333.54001
-4.2855215 -2.1329479 -2.1313 333.54001
-4.5880427 -2.2835159 -2.1406391 333.54001
-54.967594 -27.357935 -1.4255141 333.54001
-4.9434905 -2.4604259 -2.1562448 333.54001
-32.681839 -16.266085 0 333.54001
-5.3604817 -2.6679666 -2.1793523 333.54001
-32.159302 -16.006014 0.83401024 333.54001
-5.8487463 -2.9109809 -2.2075267 333.54001
-6.3975801 -3.1841412 -2.2298903 333.54001
-7.0927796 -3.530149 -2.2718031 333.54001
-7.9573693 -3.960464 -2.3268743 333.54001
-9.0300941 -4.4943705 -2.3899772 333.54001
-10.319041 -5.1358924 -2.4500313 333.54001
-11.12553 -5.5372901 -2.3414333 333.54001
-12.900083 -6.3700161 -2.3637171 333.72
-14.579564 -7.199338 -2.2852223 333.72
-17.332317 -8.5586376 -2.260525 333.72
-20.556408 -10.150682 -1.6031433 333.72
-4.2971158 -2.1219008 -2.1337404 333.72
-4.5951939 -2.2690909 -2.1406391 333.72
-4.9562068 -2.4473579 -2.1584272 333.72
-32.038776 -15.820637 0 333.72
-5.3620963 -2.6477845 -2.1766162 333.72
-32.092896 -15.84736 0.83099288 333.72
-5.8544645 -2.8909142 -2.2062464 333.72
-32.340767 -15.969759 1.6820344 333.72
-6.4075518 -3.1640267 -2.2298903 333.72
-7.1090064 -3.5104027 -2.2734568 333.72
-7.9732418 -3.9371591 -2.3278873 333.72
-9.0494041 -4.468564 -2.3913608 333.72
-10.343896 -5.1077795 -2.4521105 333.72
-11.135822 -5.4988303 -2.3399522 333.72
-12.918926 -6.3317127 -2.3637171 333.89001
-14.655992 -7.1830683 -2.2938511 333.89001
-17.398661 -8.5272818 -2.2658677 333.89001
-20.654512 -10.123012 -1.6084448 333.89001
-4.3001113 -2.1075335 -2.1321135 333.89001
-20.655563 -10.123527 -1.0727232 333.89001
-4.6019063 -2.2554467 -2.1406391 333.89001
-20.652691 -10.122119 -0.53398752 333.89001
-4.9634466 -2.4326417 -2.1584272 333.89001
-32.033497 -15.699981 0 333.89001
-5.3733039 -2.6335175 -2.1779842 333.89001
-31.949459 -15.658793 0.82607216 333.89001
-5.8681207 -2.8760326 -2.2081671 333.89001
-32.023834 -15.695247 1.6631215 333.89001
-6.4169116 -3.1450014 -2.2298903 333.89001
-7.1211171 -3.4901404 -2.2740083 333.89001
-7.9866257 -3.9143362 -2.3283939 333.89001
-9.0608749 -4.4408379 -2.3908994 333.89001
-10.359005 -5.0770664 -2.4521105 333.89001
-11.152088 -5.4657655 -2.3399522 333.89001
-12.940529 -6.2919588 -2.3640413 334.07001
-14.553805 -7.0763674 -2.2743669 334.07001
-17.40214 -8.4612875 -2.2628479 334.07001
-32.065514 -15.590931 -2.4932358 334.07001
-4.305068 -2.093215 -2.1313 334.07001
-20.875919 -10.150312 -1.0825057 334.07001
-4.6106291 -2.2417853 -2.1414099 334.07001
-32.086605 -15.601185 -0.82834685 334.07001
-4.969389 -2.4162219 -2.1576998 334.07001
-32.154606 -15.63425 0 334.07001
-5.3798604 -2.6158018 -2.1773002 334.07001
-32.190899 -15.651896 0.83103931 334.07001
-5.8788309 -2.8584118 -2.2088072 334.07001
-32.099937 -15.607667 1.664519 334.07001
-6.4370623 -3.1298356 -2.233465 334.07001
-7.1320462 -3.4677517 -2.2740083 334.07001
-8.0006237 -3.8900721 -2.3289003 334.07001
-9.0782824 -4.4140525 -2.3918219 334.07001
-10.376663 -5.0453529 -2.4525263 334.07001
-11.160367 -5.4264059 -2.3381007 334.07001
-12.95094 -6.2523651 -2.3627443 334.23001
-14.507518 -7.003839 -2.2640679 334.23001
-17.465055 -8.4316587 -2.2679586 334.23001
-4.3092513 -2.0803905 -2.1304865 334.23001
-4.6152091 -2.2280989 -2.1406391 334.23001
-32.05262 -15.474142 -0.82635069 334.23001
-4.9811502 -2.4047654 -2.1598823 334.23001
-32.154915 -15.523527 0 334.23001
-5.3888369 -2.6015854 -2.1779842 334.23001
-32.17506 -15.533254 0.82950735 334.23001
-5.8850837 -2.8411601 -2.2081671 334.23001
-32.262138 -15.575293 1.670668 334.23001
-6.4389 -3.1085277 -2.2310817 334.23001
-7.1486278 -3.451165 -2.2762132 334.23001
-8.0149403 -3.8693974 -2.3299134 334.23001
-9.0958309 -4.3912225 -2.3932052 334.23001
-10.394236 -5.0180573 -2.4533579 334.23001
-11.177246 -5.3960738 -2.3384709 334.23001
-12.974078 -6.2133527 -2.3633928 334.41
-14.26151 -6.8299103 -2.222316 334.41
-17.509375 -8.3853292 -2.2702816 334.41
-4.3207092 -2.0692098 -2.1329269 334.41
-4.6221862 -2.2135887 -2.1406391 334.41
-32.526661 -15.577186 -0.8373062 334.41
-4.9903607 -2.3899093 -2.1606097 334.41
-54.076595 -25.89756 0 334.41
-5.3952885 -2.5838313 -2.1773002 334.41
-32.256161 -15.447641 0.83034295 334.41
-5.8973985 -2.8242943 -2.2094474 334.41
-32.273071 -15.45574 1.6687115 334.41
-6.4486337 -3.0882838 -2.2310817 334.41
-7.1559668 -3.4270291 -2.2751107 334.41
-8.0253115 -3.843363 -2.3294067 334.41
-9.109581 -4.3626251 -2.3932052 334.41
-10.413478 -4.9870682 -2.4541895 334.41
-11.179962 -5.3541417 -2.3355086 334.41
-12.988892 -6.1731362 -2.3627443 334.57999
-14.22447 -6.7603607 -2.2134089 334.57999
-17.446264 -8.2915592 -2.2588987 334.57999
-21.42985 -10.18481 -2.2136147 334.57999
-4.3268299 -2.056381 -2.1329269 334.57999
-4.6270671 -2.1990726 -2.1398683 334.57999
-4.9940643 -2.3734927 -2.1591549 334.57999
-32.630287 -15.507959 0 334.57999
-5.4080234 -2.5702319 -2.1793523 334.57999
-54.696625 -25.99527 1.4060171 334.57999
-5.9057522 -2.8067842 -2.2094474 334.57999
-6.4594927 -3.0699563 -2.2316775 334.57999
-7.1695762 -3.4074326 -2.2762132 334.57999
-8.0401745 -3.8211956 -2.3304198 334.57999
-9.1260004 -4.3372483 -2.3941274 334.57999
-10.437063 -4.9603477 -2.4562688 334.57999
-11.2029 -5.3243213 -2.3369896 334.57999
-13.00251 -6.1351562 -2.3620958 334.73999
-14.31673 -6.7552633 -2.2248211 334.73999
-17.492704 -8.253828 -2.2619188 334.73999
-4.3292508 -2.0427308 -2.1313 334.73999
-4.636528 -2.1877179 -2.1414099 334.73999
-32.227062 -15.206145 -0.82732558 334.73999
-4.9989882 -2.3587425 -2.1584272 334.73999
-31.980709 -15.089906 0 334.73999
-5.4168792 -2.555922 -2.1800363 334.73999
-54.910049 -25.908978 1.4096379 334.73999
-5.9118538 -2.7894726 -2.2088072 334.73999
-6.4680405 -3.0519061 -2.2316775 334.73999
-7.1790633 -3.387398 -2.2762132 334.73999
-8.0490646 -3.7979028 -2.3299134 334.73999
-9.1398373 -4.3125772 -2.3945885 334.73999
-10.445567 -4.928678 -2.4550211 334.73999
-11.21417 -5.2913384 -2.3362491 334.73999
-13.020656 -6.09655 -2.3620958 334.91
-14.349267 -6.7186341 -2.2267697 334.91
-17.522514 -8.2044163 -2.2626157 334.91
-4.3419113 -2.0329759 -2.1345539 334.91
-4.6346416 -2.1700385 -2.1375556 334.91
-5.0076518 -2.3446898 -2.1591549 334.91
-32.751667 -15.335032 0 334.91
-5.4261408 -2.5406353 -2.1807203 334.91
-5.920104 -2.7719195 -2.2088072 334.91
-32.730587 -15.325162 1.6853883 334.91
-6.4787965 -3.0335112 -2.2322733 334.91
-7.1960468 -3.3693433 -2.2784183 334.91
-8.0673065 -3.7772858 -2.3319395 334.91
-9.1490679 -4.2837892 -2.3936663 334.91
-10.469003 -4.9018116 -2.4571004 334.91
-11.2227 -5.2547083 -2.3347678 334.91
-13.036164 -6.0539517 -2.3614473 335.09
-14.533765 -6.7494326 -2.252099 335.09
-17.513971 -8.1334305 -2.2582018 335.09
-4.3515906 -2.0208645 -2.1361809 335.09
-4.644784 -2.1570222 -2.1390975 335.09
-5.0149932 -2.3289464 -2.1591549 335.09
-5.4340959 -2.5235763 -2.1807203 335.09
-5.9305015 -2.7541053 -2.2094474 335.09
-36.679745 -17.033953 1.8859767 335.09
-6.4934893 -3.0155549 -2.2340605 335.09
-7.2031093 -3.3451002 -2.2773159 335.09
-8.0808878 -3.7527378 -2.3324459 335.09
-9.1642456 -4.2558451 -2.3941274 335.09
-10.480803 -4.86725 -2.4562688 335.09
-11.233805 -5.2169418 -2.333657 335.09
-13.058396 -6.0200033 -2.3624201 335.25
-14.59932 -6.7303791 -2.2593362 335.25
-17.579912 -8.1044502 -2.263777 335.25
-4.3456025 -2.00335 -2.1304865 335.25
-4.655817 -2.1463611 -2.1414099 335.25
-5.0164018 -2.3125927 -2.1569724 335.25
-5.4445353 -2.5099652 -2.1820886 335.25
-56.03368 -25.831881 1.4325238 335.25
-5.9433317 -2.7399135 -2.2113681 335.25
-36.801556 -16.96575 1.8897965 335.25
-6.5001512 -2.9966106 -2.233465 335.25
-7.2141681 -3.3257771 -2.2778671 335.25
-8.0913363 -3.7301571 -2.3324459 335.25
-9.1760941 -4.2302375 -2.3941274 335.25
-10.499683 -4.8404202 -2.4575162 335.25
-11.246545 -5.1847281 -2.3332868 335.25
-13.074697 -5.9750261 -2.3617716 335.44
-14.652182 -6.6959233 -2.2640679 335.44
-17.691607 -8.0849152 -2.2746952 335.44
-4.3538837 -1.9896879 -2.1313 335.44
-4.6679449 -2.1332114 -2.1437225 335.44
-5.032515 -2.2998168 -2.1606097 335.44
-37.74353 -17.248474 0 335.44
-5.4528289 -2.4918966 -2.1820886 335.44
-5.9541082 -2.7209771 -2.2120085 335.44
-6.5152617 -2.9774196 -2.2352521 335.44
-7.2286544 -3.3034339 -2.2789698 335.44
-8.1071806 -3.7049131 -2.3334589 335.44
-9.1971521 -4.2030206 -2.3959718 335.44
-10.522794 -4.8088279 -2.4591794 335.44
-11.269039 -5.1498556 -2.3343976 335.44
-13.09776 -5.9386516 -2.3627443 335.60999
-14.601637 -6.6205235 -2.2532125 335.60999
-17.145626 -7.7739925 -2.2015204 335.60999
-4.3564401 -1.975252 -2.129673 335.60999
-4.6708918 -2.1178277 -2.1421807 335.60999
-5.0410132 -2.2856443 -2.1613371 335.60999
-37.585068 -17.041433 0 335.60999
-5.4567752 -2.4741547 -2.1807203 335.60999
-5.9552526 -2.7001691 -2.2094474 335.60999
-36.898331 -16.730061 1.8893306 335.60999
-6.525806 -2.9588637 -2.2358479 335.60999
-7.2384243 -3.2819717 -2.2789698 335.60999
-8.1198997 -3.6816413 -2.3339653 335.60999
-9.2131271 -4.177321 -2.396894 335.60999
-10.533452 -4.7759695 -2.4583478 335.60999
-11.286059 -5.1172085 -2.3347678 335.60999
-13.121753 -5.8999023 -2.3637171 335.79001
-14.517596 -6.5275121 -2.2370684 335.79001
-15.341907 -6.8981452 -1.9671283 335.79001
-4.3659568 -1.9630547 -2.1313 335.79001
-4.6741557 -2.1016295 -2.1406391 335.79001
-5.0481691 -2.2697961 -2.1613371 335.79001
-5.4645209 -2.4569995 -2.1807203 335.79001
-36.335342 -16.337374 0.92495018 335.79001
-5.9671621 -2.6830008 -2.2107279 335.79001
-36.987152 -16.630444 1.891194 335.79001
-6.5281043 -2.935216 -2.233465 335.79001
-7.2486992 -3.2592154 -2.2789698 335.79001
-8.1296616 -3.6553204 -2.3334589 335.79001
-9.2315292 -4.1507506 -2.3982775 335.79001
-10.555541 -4.7460628 -2.4600112 335.79001
-11.294909 -5.0785031 -2.3332868 335.79001
-13.135595 -5.8593354 -2.3630686 335.95999
-14.451888 -6.4464884 -2.2239861 335.95999
-17.256289 -7.6974349 -2.209651 335.95999
-4.3750992 -1.9515806 -2.1329269 335.95999
-4.6854272 -2.0900073 -2.1429515 335.95999
-5.0548816 -2.2548079 -2.1613371 335.95999
-36.802605 -16.41637 0 335.95999
-5.4735031 -2.4415407 -2.1814046 335.95999
-5.9733663 -2.6645124 -2.2100878 335.95999
-36.512688 -16.28705 1.8644551 335.95999
-6.5437589 -2.9189448 -2.2358479 335.95999
-7.2618489 -3.23926 -2.2800722 335.95999
-8.1422386 -3.6319714 -2.3339653 335.95999
-9.2420273 -4.1225491 -2.3978164 335.95999
-10.571363 -4.7155204 -2.460427 335.95999
-11.308133 -5.0441675 -2.3329165 335.95999
-13.154499 -5.8265252 -2.3637171 336.10999
-14.354631 -6.3580999 -2.2064502 336.10999
-4.3852048 -1.9423398 -2.1353674 336.10999
-4.6925702 -2.0784812 -2.1437225 336.10999
-62.53941 -27.700594 -1.5880362 336.10999
-5.0624704 -2.2423213 -2.1620648 336.10999
-36.754021 -16.279467 0 336.10999
-5.4798765 -2.4272027 -2.1814046 336.10999
-5.9785891 -2.6480978 -2.2094474 336.10999
-6.5513783 -2.9018035 -2.2358479 336.10999
-7.2720623 -3.2210159 -2.2806234 336.10999
-8.1517191 -3.6106427 -2.3339653 336.10999
-9.2545681 -4.0991278 -2.3982775 336.10999
-10.583673 -4.6878281 -2.460427 336.10999
-11.3213 -5.0145459 -2.3329165 336.10999
-13.171143 -5.778986 -2.3630686 336.31
-14.403943 -6.3198905 -2.2106256 336.31
-38.498631 -16.891705 -2.9398167 336.31
-4.390285 -1.9262866 -2.1345539 336.31
-38.525131 -16.903332 -1.9619076 336.31
-4.7065568 -2.0650542 -2.1468058 336.31
-61.540802 -27.001713 -1.560276 336.31
-5.066855 -2.223139 -2.1606097 336.31
-36.739197 -16.119732 0 336.31
-5.4934788 -2.4103251 -2.1834567 336.31
-37.229156 -16.334707 0.94389015 336.31
-5.989531 -2.6279736 -2.2100878 336.31
-37.16217 -16.305317 1.8924983 336.31
-6.5614676 -2.8789172 -2.2358479 336.31
-7.2832613 -3.1956122 -2.2806234 336.31
-8.1642723 -3.5821657 -2.3339653 336.31
-9.2706022 -4.0675802 -2.3987386 336.31
-10.603555 -4.6524277 -2.4612586 336.31
-11.329736 -4.9710479 -2.3310649 336.31
-13.178183 -5.7382431 -2.3614473 336.47
-14.423351 -6.2804337 -2.2109039 336.47
-4.3889465 -1.9111015 -2.1313 336.47
-4.7055368 -2.0489559 -2.1437225 336.47
-37.127968 -16.166821 -0.94017643 336.47
-5.0781674 -2.2112124 -2.1627922 336.47
-36.851917 -16.046618 0 336.47
-5.5001879 -2.3949749 -2.1834567 336.47
-37.102303 -16.155645 0.93952656 336.47
-6.0003209 -2.6127503 -2.2113681 336.47
-37.227707 -16.210251 1.8935231 336.47
-6.5729823 -2.8621073 -2.2370393 336.47
-19.900253 -8.6652689 1.5177613 336.47
-7.295682 -3.1767962 -2.2817261 336.47
-8.1795664 -3.5616703 -2.335485 336.47
-9.2837086 -4.0424528 -2.3991997 336.47
-10.618299 -4.62358 -2.4616745 336.47
-11.356188 -4.9448829 -2.333657 336.47
-13.199768 -5.698379 -2.3620958 336.64999
-14.513926 -6.2657046 -2.2217593 336.64999
-20.781858 -8.9715891 -2.1118052 336.64999
-37.061371 -15.999502 -2.8227654 336.64999
-4.403316 -1.9009246 -2.1353674 336.64999
-37.13905 -16.033037 -1.8864424 336.64999
-4.7221165 -2.0385518 -2.1483476 336.64999
-37.180408 -16.050892 -0.94022286 336.64999
-5.0816684 -2.1937711 -2.1613371 336.64999
-37.111473 -16.021132 0 336.64999
-5.5059595 -2.3769388 -2.1827726 336.64999
-37.160217 -16.042175 0.93971223 336.64999
-6.0084996 -2.5938869 -2.2113681 336.64999
-36.973972 -15.961773 1.8780575 336.64999
-6.5784359 -2.8399301 -2.2358479 336.64999
-7.3038611 -3.1530983 -2.2811747 336.64999
-8.1924915 -3.5367227 -2.3359914 336.64999
-9.2999363 -4.0148101 -2.4001219 336.64999
-10.634567 -4.5909743 -2.4620903 336.64999
-11.359035 -4.903729 -2.3310649 336.64999
-13.214804 -5.6584125 -2.3617716 336.82001
-14.550658 -6.2304091 -2.2245429 336.82001
-17.910404 -7.6690097 -2.2784121 336.82001
-4.4072571 -1.887132 -2.1345539 336.82001
-4.7196617 -2.0208998 -2.1444933 336.82001
-62.570908 -26.792076 -1.5802838 336.82001
-5.0898676 -2.1794174 -2.1620648 336.82001
-36.934544 -15.814906 0 336.82001
-5.5164433 -2.3620715 -2.1841407 336.82001
-37.521957 -16.066431 0.94765031 336.82001
-6.017911 -2.5767937 -2.2120085 336.82001
-36.92934 -15.812679 1.8733991 336.82001
-6.5938535 -2.823405 -2.2382309 336.82001
-7.3167191 -3.1329272 -2.2822773 336.82001
-19.336586 -8.2796831 1.962435 336.82001
-8.2082844 -3.5146842 -2.3375108 336.82001
-9.3153858 -3.9887309 -2.4010441 336.82001
-10.651739 -4.5609407 -2.4629219 336.82001
-11.368114 -4.8676834 -2.3299539 336.82001
-13.235167 -5.6207213 -2.3624201 336.98999
-14.651114 -6.2220469 -2.2370684 336.98999
-17.958677 -7.6267056 -2.2816644 336.98999
-4.412837 -1.8740472 -2.1345539 336.98999
-55.785946 -23.691221 -2.8264029 336.98999
-4.72224 -2.0054448 -2.1429515 336.98999
-5.0980263 -2.1650341 -2.1627922 336.98999
-37.353161 -15.863171 0 336.98999
-5.5182376 -2.3434896 -2.1820886 336.98999
-6.0220418 -2.5574458 -2.2107279 336.98999
-37.0331 -15.727247 1.8762872 336.98999
-6.5951724 -2.8008432 -2.2358479 336.98999
-19.42165 -8.2480021 1.4754889 336.98999
-7.3277521 -3.1119556 -2.2828286 336.98999
-8.2151155 -3.4888017 -2.3364978 336.98999
-9.325388 -3.9603133 -2.400583 336.98999
-10.670627 -4.5316105 -2.4641693 336.98999
-11.391552 -4.8377738 -2.3318055 336.98999
-13.253605 -5.5821934 -2.3627443 337.16
-14.638481 -6.1654797 -2.2323365 337.16
-17.261759 -7.27036 -2.1903698 337.16
-4.4200621 -1.861655 -2.1353674 337.16
-55.822853 -23.511639 -2.8247259 337.16
-4.7298703 -1.992141 -2.1437225 337.16
-5.1095786 -2.1520677 -2.1649747 337.16
-37.683914 -15.871824 0 337.16
-5.5303626 -2.3292949 -2.1841407 337.16
-6.0330958 -2.5410376 -2.2120085 337.16
-37.09433 -15.623503 1.8770326 337.16
-6.6069727 -2.7827446 -2.2370393 337.16
-19.503036 -8.2143478 1.4798138 337.16
-7.3440404 -3.0931852 -2.2850337 337.16
-20.253435 -8.5304031 2.0503109 337.16
-8.2289963 -3.4659138 -2.3375108 337.16
-9.3406849 -3.9341378 -2.4015052 337.16
-10.684026 -4.4999304 -2.4641693 337.16
-11.409479 -4.805479 -2.332546 337.16
-13.261003 -5.5390415 -2.3611231 337.32999
-14.729811 -6.1525531 -2.2434704 337.32999
-17.233763 -7.1984391 -2.1840978 337.32999
-4.4255662 -1.8485323 -2.1353674 337.32999
-4.740869 -1.9802324 -2.146035 337.32999
-20.733917 -8.6604328 -0.52168584 337.32999
-5.1125031 -2.1354618 -2.1635196 337.32999
-5.5355153 -2.3121514 -2.1834567 337.32999
-37.244671 -15.556874 0.93711263 337.32999
-6.042357 -2.5238562 -2.2126486 337.32999
-37.160801 -15.521843 1.8780575 337.32999
-6.6187234 -2.764601 -2.2382309 337.32999
-20.265558 -8.4648018 1.5357585 337.32999
-7.3478637 -3.0691583 -2.2833798 337.32999
-21.245182 -8.8739843 2.1480331 337.32999
-8.2374582 -3.4407368 -2.3370044 337.32999
-9.3559074 -3.9079063 -2.4024274 337.32999
-10.699135 -4.4689641 -2.4645851 337.32999
-11.414618 -4.7678175 -2.3306947 337.32999
-13.280163 -5.4981084 -2.3614473 337.51001
-14.68868 -6.0812473 -2.2342849 337.51001
-17.148005 -7.0994301 -2.170392 337.51001
-4.4364157 -1.8367165 -2.1378078 337.51001
-4.7504768 -1.9667406 -2.1475766 337.51001
-20.703753 -8.5715427 -0.52024674 337.51001
-5.1226292 -2.1208153 -2.1649747 337.51001
-36.930134 -15.289412 0 337.51001
-5.5410151 -2.2940307 -2.1827726 337.51001
-6.0555081 -2.5070355 -2.2145693 337.51001
-6.6291399 -2.7445242 -2.2388265 337.51001
-7.3592458 -3.0467947 -2.283931 337.51001
-20.316206 -8.4110937 2.0514255 337.51001
-8.2500153 -3.4155812 -2.3375108 337.51001
-9.3663406 -3.8777502 -2.4019663 337.51001
-10.7077 -4.433085 -2.4633377 337.51001
-11.429541 -4.7319341 -2.3306947 337.51001
-13.295465 -5.4610019 -2.3614473 337.67001
-14.661636 -6.0221453 -2.2276046 337.67001
-16.274738 -6.6847138 -2.0574934 337.67001
-4.4398375 -1.8236264 -2.1369944 337.67001
-4.745708 -1.9492601 -2.1429515 337.67001
-20.635132 -8.475709 -0.51792568 337.67001
-5.1233621 -2.1043785 -2.1627922 337.67001
-5.5526152 -2.2806907 -2.1848247 337.67001
-6.0572276 -2.4879558 -2.2126486 337.67001
-20.329996 -8.3503771 1.0249286 337.67001
-6.629714 -2.7230999 -2.2364435 337.67001
-19.69903 -8.0912132 1.4891613 337.67001
-7.3748388 -3.0291536 -2.2861362 337.67001
-21.251415 -8.7288427 2.1433885 337.67001
-8.2631006 -3.3939998 -2.3385239 337.67001
-9.3807335 -3.8530581 -2.4028885 337.67001
-10.727276 -4.4061394 -2.4650011 337.67001
-11.439075 -4.6985049 -2.3299539 337.67001
-13.311609 -5.4215293 -2.3614473 337.84
-14.73997 -6.0032697 -2.2367902 337.84
-16.344173 -6.6566267 -2.0637655 337.84
-4.4486132 -1.8118235 -2.1386213 337.84
-4.7583075 -1.9379551 -2.146035 337.84
-5.1313086 -2.0898705 -2.1635196 337.84
-37.080559 -15.102106 0 337.84
-5.5576172 -2.2634966 -2.1841407 337.84
-6.0680923 -2.4714022 -2.2139292 337.84
-6.6483736 -2.7077382 -2.2400181 337.84
-7.3837938 -3.0072589 -2.2861362 337.84
-20.675993 -8.4208822 2.082823 337.84
-8.2749262 -3.3701975 -2.3390305 337.84
-9.3903217 -3.8244741 -2.4024274 337.84
-10.740302 -4.3742914 -2.4650011 337.84
-11.445683 -4.6615782 -2.3284729 337.84
-13.326746 -5.3789444 -2.3611231 338.01999
-14.711006 -5.9376597 -2.229553 338.01999
-16.142115 -6.5152841 -2.0356572 338.01999
-4.452589 -1.797155 -2.1378078 338.01999
-4.7609491 -1.9216155 -2.1444933 338.01999
-20.684668 -8.3487511 -0.51787925 338.01999
-5.1395764 -2.0744371 -2.164247 338.01999
-36.858898 -14.876998 0 338.01999
-5.5664434 -2.2467291 -2.1848247 338.01999
-6.0775838 -2.4530358 -2.2145693 338.01999
-20.891947 -8.4324131 1.0506426 338.01999
-6.649766 -2.68398 -2.2376351 338.01999
-19.879446 -8.0237465 1.4990666 338.01999
-7.3949876 -2.9847667 -2.2866876 338.01999
-8.283679 -3.3434603 -2.3385239 338.01999
-9.4059 -3.7964115 -2.4033496 338.01999
-10.770318 -4.3471184 -2.4687433 338.01999
-11.469385 -4.6292758 -2.3303242 338.01999
-13.344479 -5.3401127 -2.3614473 338.19
-14.930823 -5.9749265 -2.2601712 338.19
-16.176128 -6.4732652 -2.0375156 338.19
-4.4528127 -1.7818996 -2.1353674 338.19
-4.7683434 -1.9081666 -2.1452641 338.19
-5.1508975 -2.061255 -2.1664295 338.19
-5.5713401 -2.2295051 -2.1841407 338.19
-6.0848351 -2.4349923 -2.2145693 338.19
-20.497684 -8.2026386 1.0295869 338.19
-6.6612449 -2.6656566 -2.2388265 338.19
-19.880938 -7.955833 1.4973924 338.19
-7.4020262 -2.9620979 -2.2861362 338.19
-20.185345 -8.0776491 2.0283883 338.19
-8.2953587 -3.3195863 -2.3390305 338.19
-21.491327 -8.6002684 2.7070081 338.19
-9.4153156 -3.7677639 -2.4028885 338.19
-10.784985 -4.3158698 -2.4691591 338.19
-19.889376 -7.9592094 3.5196364 338.19
-11.479421 -4.5937648 -2.3295836 338.19
-13.353836 -5.3006425 -2.3604746 338.35001
-14.590331 -5.7914543 -2.206172 338.35001
-16.317846 -6.4771705 -2.0530798 338.35001
-4.4543748 -1.7681098 -2.1337404 338.35001
-4.7753687 -1.8955244 -2.146035 338.35001
-5.1497073 -2.0441136 -2.1635196 338.35001
-41.55035 -16.492907 0 338.35001
-5.5845318 -2.2167118 -2.1868768 338.35001
-41.589333 -16.508379 1.0388688 338.35001
-6.0898499 -2.4172919 -2.2139292 338.35001
-20.477802 -8.1284142 1.027444 338.35001
-6.668663 -2.6470447 -2.2388265 338.35001
-20.537275 -8.1520214 1.5451059 338.35001
-7.4156299 -2.9435439 -2.2877901 338.35001
-8.3063946 -3.2971222 -2.3395369 338.35001
-20.095432 -7.9766374 2.5283685 338.35001
-9.4312267 -3.7436106 -2.4042721 338.35001
-10.806087 -4.2893443 -2.4712384 338.35001
-19.959217 -7.9225678 3.5280666 338.35001
-11.49403 -4.5624156 -2.3299539 338.35001
-19.975719 -7.9291182 4.0492764 338.35001
-13.367667 -5.2548866 -2.3598263 338.54001
-14.974416 -5.8865066 -2.2612846 338.54001
-16.27268 -6.3968596 -2.0447168 338.54001
-4.4602137 -1.7533289 -2.1337404 338.54001
-4.778193 -1.878328 -2.1444933 338.54001
-5.1651268 -2.0304332 -2.1671569 338.54001
-41.831898 -16.444298 0 338.54001
-5.5883536 -2.1968055 -2.1855087 338.54001
-41.628963 -16.364521 1.0384973 338.54001
-6.099596 -2.3977771 -2.2145693 338.54001
-40.841949 -16.055143 2.0465031 338.54001
-6.6756272 -2.6242175 -2.2382309 338.54001
-19.76948 -7.7714663 1.4853944 338.54001
-7.4235611 -2.9182334 -2.2872388 338.54001
-19.709827 -7.7480168 1.9758115 338.54001
-8.3208838 -3.2709749 -2.3405499 338.54001
-9.4435892 -3.7123151 -2.4042721 338.54001
-20.233156 -7.9537396 3.0554063 338.54001
-10.832995 -4.2584963 -2.4741492 338.54001
-20.554762 -8.080164 3.6285813 338.54001
-11.518243 -4.5278702 -2.3318055 338.54001
-13.387806 -5.2196875 -2.3607988 338.70001
-15.234368 -5.9396319 -2.2980263 338.70001
-4.4650927 -1.7408668 -2.1337404 338.70001
-4.7902975 -1.8676589 -2.1475766 338.70001
-5.1655693 -2.0139713 -2.1649747 338.70001
-37.124168 -14.474109 0 338.70001
-5.5979686 -2.1825566 -2.1868768 338.70001
-6.1097989 -2.3821111 -2.2158499 338.70001
-19.750887 -7.7005486 0.98859346 338.70001
-6.6847086 -2.6062589 -2.2388265 338.70001
-19.895201 -7.7568145 1.4932071 338.70001
-7.4334726 -2.8981898 -2.2877901 338.70001
-19.428968 -7.5750384 1.9455287 338.70001
-8.3299856 -3.2477257 -2.3405499 338.70001
-20.736031 -8.0846405 2.6027048 338.70001
-9.4539194 -3.6859291 -2.4042721 338.70001
-20.240526 -7.8914518 3.0531795 338.70001
-10.8412 -4.2268071 -2.4733174 338.70001
-21.239189 -8.2808142 3.7453082 338.70001
-11.516192 -4.4899759 -2.3288431 338.70001
-13.401359 -5.1738415 -2.3601506 338.89001
-15.237352 -5.8826609 -2.295521 338.89001
-18.765028 -7.2445846 -2.352284 338.89001
-4.4725451 -1.7267085 -2.1345539 338.89001
-41.818954 -16.144978 -2.0904779 338.89001
-4.7912993 -1.8497695 -2.1452641 338.89001
-41.737476 -16.113522 -1.0387294 338.89001
-5.1722198 -1.9968307 -2.1649747 338.89001
-41.838284 -16.152439 0 338.89001
-5.6034222 -2.1633043 -2.1861928 338.89001
-41.800896 -16.138006 1.0403078 338.89001
-6.1141295 -2.3604722 -2.2145693 338.89001
-6.6950955 -2.584765 -2.2394223 338.89001
-20.047377 -7.7396593 1.502694 338.89001
-7.4502163 -2.8762932 -2.2899952 338.89001
-20.791536 -8.0269556 2.079293 338.89001
-8.3443203 -3.2214785 -2.341563 338.89001
-19.358036 -7.4735265 2.4266205 338.89001
-9.467906 -3.6552594 -2.4047332 338.89001
-20.257347 -7.8207216 3.0517879 338.89001
-10.853332 -4.1901288 -2.4729016 338.89001
-21.15975 -8.1691113 3.7265022 338.89001
-11.531018 -4.4517622 -2.3288431 338.89001
-13.423127 -5.1392202 -2.3614473 339.04999
-15.246323 -5.8372545 -2.2944078 339.04999
-18.829708 -7.2092009 -2.3578591 339.04999
-4.4790559 -1.7148653 -2.1353674 339.04999
-41.876938 -16.033134 -2.09113 339.04999
-4.7981696 -1.8370422 -2.146035 339.04999
-41.716957 -15.971884 -1.0371047 339.04999
-5.1795154 -1.9830455 -2.1657021 339.04999
-41.898167 -16.041264 0 339.04999
-5.6111965 -2.1483202 -2.1868768 339.04999
-41.823391 -16.012634 1.0397507 339.04999
-6.1189275 -2.3427117 -2.2139292 339.04999
-19.810617 -7.5847549 0.98924565 339.04999
-6.7040701 -2.5667412 -2.2400181 339.04999
-7.4528332 -2.853415 -2.2883413 339.04999
-8.3514767 -3.1974723 -2.3410563 339.04999
-9.4835281 -3.6308932 -2.4061165 339.04999
-20.299452 -7.7719116 3.0548496 339.04999
-10.859509 -4.1577058 -2.4716542 339.04999
-20.225924 -7.7437596 3.5582211 339.04999
-11.550747 -4.4223552 -2.3303242 339.04999
-13.424444 -5.0914259 -2.3588536 339.23001
-15.223845 -5.7738767 -2.2882841 339.23001
-17.49453 -6.6350684 -2.1880469 339.23001
-4.4878383 -1.7020814 -2.1369944 339.23001
-4.809094 -1.8239226 -2.1483476 339.23001
-41.705235 -15.817349 -1.0355728 339.23001
-5.1892037 -1.9680851 -2.1671569 339.23001
-40.828213 -15.484725 0 339.23001
-5.617918 -2.1306815 -2.1868768 339.23001
-6.1298003 -2.3248208 -2.2152095 339.23001
-19.85116 -7.5288568 0.99008417 339.23001
-6.7103157 -2.5449901 -2.2394223 339.23001
-20.057508 -7.6071177 1.5000432 339.23001
-7.4635582 -2.8306689 -2.2888925 339.23001
-21.175814 -8.0312519 2.11292 339.23001
-8.3614807 -3.1712196 -2.3410563 339.23001
-9.4930687 -3.6003919 -2.4056554 339.23001
-10.870688 -4.1228752 -2.4712384 339.23001
-19.978893 -7.577302 3.5105577 339.23001
-11.555395 -4.3825607 -2.3284729 339.23001
-13.433949 -5.0494895 -2.3578808 339.39999
-15.153776 -5.69593 -2.2752018 339.39999
-4.4928684 -1.6887583 -2.1369944 339.39999
-4.8075747 -1.8070484 -2.1452641 339.39999
-5.188045 -1.9500579 -2.164247 339.39999
-41.368214 -15.54929 0 339.39999
-5.6242151 -2.1140034 -2.1868768 339.39999
-21.896021 -8.2301731 0.54308617 339.39999
-6.1384449 -2.3072898 -2.2158499 339.39999
-20.26239 -7.6161313 1.0094628 339.39999
-6.7214117 -2.5264125 -2.2406139 339.39999
-7.4791226 -2.8112173 -2.2910976 339.39999
-20.860296 -7.8408704 2.0791073 339.39999
-8.3744755 -3.1477582 -2.3420694 339.39999
-9.5055313 -3.5728943 -2.4061165 339.39999
-20.455929 -7.6888785 3.0712719 339.39999
-10.882874 -4.0906034 -2.4712384 339.39999
-20.088114 -7.5506253 3.5257969 339.39999
-11.573867 -4.3503304 -2.3295836 339.39999
-21.118488 -7.9379182 4.2507219 339.39999
-13.450722 -5.0102968 -2.3582051 339.57001
-15.155763 -5.6454124 -2.272975 339.57001
-19.002329 -7.0782304 -2.3713326 339.57001
-4.4961472 -1.6747824 -2.1361809 339.57001
-4.8163738 -1.7940645 -2.1468058 339.57001
-58.929543 -21.95083 -1.4600054 339.57001
-5.2007914 -1.9372573 -2.1671569 339.57001
-5.6322241 -2.0979629 -2.1875608 339.57001
-20.636864 -7.6870828 0.51128739 339.57001
-6.1488152 -2.2903893 -2.2171302 339.57001
-22.192633 -8.2665958 1.1043999 339.57001
-6.728878 -2.5064585 -2.2406139 339.57001
-19.866722 -7.4002113 1.4824646 339.57001
-7.4802241 -2.7863297 -2.2888925 339.57001
-20.872272 -7.7747712 2.0779927 339.57001
-8.3855906 -3.1235721 -2.342576 339.57001
-21.427881 -7.9817309 2.6740215 339.57001
-9.5179138 -3.5453544 -2.4065776 339.57001
-10.889463 -4.0562468 -2.469991 339.57001
-11.584882 -4.3152847 -2.3292134 339.57001
-20.93751 -7.7990713 4.2096181 339.57001
-13.458989 -4.9652834 -2.3569081 339.75
-15.08795 -5.5662384 -2.2601712 339.75
-19.046835 -7.0267487 -2.3741202 339.75
-4.5031004 -1.6612815 -2.1369944 339.75
-47.312233 -17.454405 -2.3517177 339.75
-4.8202548 -1.7782859 -2.146035 339.75
-41.723259 -15.392523 -1.032509 339.75
-5.2103472 -1.9221985 -2.168612 339.75
-5.6387868 -2.0802584 -2.1875608 339.75
-20.651531 -7.6187525 0.51105529 339.75
-6.1542025 -2.2704051 -2.21649 339.75
-20.895206 -7.7086482 1.038624 339.75
-6.7367191 -2.485307 -2.2406139 339.75
-7.499763 -2.7668085 -2.2922003 339.75
-20.186653 -7.4472494 2.0073948 339.75
-8.3935471 -3.0965431 -2.3420694 339.75
-9.5326567 -3.5167828 -2.4074998 339.75
-10.894811 -4.0193081 -2.4683275 339.75
-11.591005 -4.2761478 -2.3277321 339.75
-13.492198 -4.9321036 -2.3601506 339.92001
-15.082076 -5.5132875 -2.2568309 339.92001
-19.091854 -6.9790711 -2.3771403 339.92001
-4.5080099 -1.6479132 -2.1369944 339.92001
-4.82551 -1.7639761 -2.146035 339.92001
-5.2125282 -1.9054515 -2.1671569 339.92001
-43.076118 -15.746572 0 339.92001
-5.6431694 -2.0628734 -2.1868768 339.92001
-6.1626916 -2.2527859 -2.2171302 339.92001
-41.944801 -15.333017 2.0826519 339.92001
-6.751236 -2.4679296 -2.2429969 339.92001
-19.686695 -7.196516 1.465723 339.92001
-7.5043278 -2.7432241 -2.2910976 339.92001
-20.234844 -7.3968935 2.0099957 339.92001
-8.4045153 -3.0722897 -2.342576 339.92001
-9.5467052 -3.4898198 -2.408422 339.92001
-20.586254 -7.5253515 3.0804574 339.92001
-10.912201 -3.9889798 -2.4695752 339.92001
-11.603642 -4.2417378 -2.3277321 339.92001
-13.484506 -4.883985 -2.3562596 340.09
-15.081609 -5.4624434 -2.2543259 340.09
