# .PCD v0.7 - Point Cloud Data file format
VERSION 0.7
FIELDS x y z intensity
SIZE 4 4 4 4
TYPE F F F F
COUNT 1 1 1 1
WIDTH 1206
HEIGHT 1
VIEWPOINT 0 0 0 1 0 0 0
POINTS 1206
DATA ascii
19.01128 2.2064056 -1.7855688 173.38
24.644003 2.8601263 -1.7348435 173.38
4.6153135 0.53564268 -2.0686626 173.38
35.195259 4.0846806 -1.6523142 173.38
4.9092441 0.56975555 -2.0643253 173.38
5.2686024 0.61146188 -2.07113 173.38
5.6472354 0.6554051 -2.069222 173.38
25.764078 2.9901197 0.60218084 173.38
6.092432 0.70707363 -2.0724373 173.38
25.471167 2.956125 1.1957966 173.38
6.5675116 0.76221031 -2.0630805 173.38
30.734154 3.5669353 2.1635668 173.38
7.05827 0.8191666 -2.0375113 173.38
7.5434608 0.87547672 -1.9880239 173.38
8.2545118 0.95799971 -1.9689761 173.38
9.0555534 1.0509667 -1.937737 173.38
10.015378 1.1623617 -1.8996605 173.38
11.269932 1.2760772 -1.8634132 173.53999
12.955088 1.4668847 -1.832353 173.53999
15.370374 1.7403638 -1.808931 173.53999
19.0609 2.1582365 -1.789656 173.53999
24.653877 2.7915208 -1.734983 173.53999
4.6276841 0.52398562 -2.0735433 173.53999
35.216454 3.987505 -1.6527799 173.53999
4.916317 0.55666709 -2.0666378 173.53999
5.2665873 0.5963276 -2.069675 173.53999
5.6471758 0.63942111 -2.0685377 173.53999
25.235901 2.8574224 0.589647 173.53999
6.0943828 0.69005764 -2.0724373 173.53999
31.462545 3.5624559 1.4766015 173.53999
6.5658202 0.74343783 -2.0618889 173.53999
7.0414271 0.79729003 -2.0319986 173.53999
7.5362635 0.85331959 -1.9854914 173.53999
8.2590885 0.93516397 -1.9694372 173.53999
9.0603962 1.0258949 -1.9381528 173.53999
10.006867 1.1330624 -1.8974386 173.53999
11.269745 1.2422005 -1.8627647 173.71001
12.96332 1.4288738 -1.8329097 173.71001
15.365597 1.6936632 -1.8077694 173.71001
19.031591 2.0977452 -1.7863119 173.71001
24.640236 2.7159545 -1.7334484 173.71001
4.6237702 0.50965214 -2.0711031 173.71001
35.208271 3.8808095 -1.6518483 173.71001
4.9197817 0.54227984 -2.0674088 173.71001
5.268333 0.58069873 -2.069675 173.71001
5.6490483 0.62266278 -2.0685377 173.71001
25.444998 2.8046589 0.59433562 173.71001
6.0982866 0.67217982 -2.0730777 173.71001
24.659691 2.7180989 1.1569459 173.71001
6.5717926 0.72437173 -2.0630805 173.71001
31.1052 3.4285512 2.1882606 173.71001
7.0342069 0.77534103 -2.0292423 173.71001
7.536839 0.83074337 -1.9849849 173.71001
8.2502213 0.90937543 -1.9666705 173.71001
9.0556231 0.99815029 -1.9364895 173.71001
10.012139 1.1035818 -1.897809 173.71001
11.26399 1.2037733 -1.8611435 173.89999
12.964048 1.385457 -1.832353 173.89999
15.38693 1.6443886 -1.8096279 173.89999
18.97706 2.0280626 -1.7805526 173.89999
24.623318 2.6314735 -1.7316347 173.89999
4.6236181 0.49412224 -2.0702896 173.89999
35.234852 3.7655194 -1.6525005 173.89999
4.9270577 0.52655059 -2.0697212 173.89999
5.2702298 0.56322509 -2.069675 173.89999
5.6548195 0.60432589 -2.069906 173.89999
25.497896 2.7249391 0.59535688 173.89999
6.096714 0.65155077 -2.0717971 173.89999
25.546608 2.7301447 1.1981257 173.89999
6.5551748 0.70054609 -2.0571229 173.89999
7.0252695 0.7507847 -2.0259345 173.89999
7.531857 0.80492336 -1.9829588 173.89999
8.255126 0.88221848 -1.9671316 173.89999
9.0627728 0.96853107 -1.9373212 173.89999
10.015743 1.0703743 -1.897809 173.89999
11.277122 1.1733348 -1.8627647 174.06
12.999385 1.3525286 -1.8368065 174.06
15.430979 1.6055253 -1.814274 174.06
18.98661 1.975473 -1.7809242 174.06
24.662321 2.5660055 -1.7338669 174.06
4.6322489 0.48196507 -2.0735433 174.06
35.137928 3.655946 -1.6474695 174.06
4.9303446 0.51298058 -2.070492 174.06
5.2699289 0.54831284 -2.0689476 174.06
5.6527467 0.58814329 -2.0685377 174.06
25.4716 2.6502075 0.59456772 174.06
6.1041636 0.63511127 -2.0737178 174.06
25.011654 2.6023521 1.1726912 174.06
6.5760951 0.68421364 -2.0630805 174.06
7.0216022 0.73056668 -2.0242808 174.06
7.5302267 0.78348684 -1.9819459 174.06
8.245944 0.85795403 -1.9643649 174.06
9.0576591 0.94240946 -1.9356579 174.06
10.012829 1.0417906 -1.8966981 174.06
11.282717 1.1380991 -1.863089 174.24001
12.993717 1.3106894 -1.8354149 174.24001
15.451757 1.5586344 -1.8161323 174.24001
18.996687 1.9162149 -1.7812958 174.24001
24.713932 2.4929192 -1.7369362 174.24001
4.6319222 0.46722671 -2.0727298 174.24001
35.119423 3.5425317 -1.6460719 174.24001
4.9264235 0.49693331 -2.0681796 174.24001
44.575722 4.496398 -1.0401685 174.24001
5.2697721 0.53156722 -2.0682201 174.24001
5.6545663 0.57038182 -2.0685377 174.24001
25.406193 2.5627482 0.59285009 174.24001
6.1004729 0.61536086 -2.0717971 174.24001
24.763287 2.4978979 1.1606727 174.24001
6.5839109 0.66412574 -2.0648677 174.24001
26.260288 2.6489019 1.8456168 174.24001
7.0104728 0.7071535 -2.0204217 174.24001
7.526876 0.75924361 -1.9804263 174.24001
8.252471 0.83243507 -1.9652871 174.24001
9.0566826 0.91355669 -1.9348261 174.24001
10.021919 1.0109211 -1.897809 174.24001
11.280344 1.1020721 -1.8621162 174.42
12.991858 1.2692842 -1.8345798 174.42
15.472395 1.5116289 -1.8179908 174.42
18.828203 1.8394862 -1.7649468 174.42
24.548887 2.3983881 -1.7247986 174.42
4.627912 0.45213982 -2.0702896 174.42
35.110493 3.4302409 -1.6451403 174.42
4.9206133 0.48073629 -2.0650961 174.42
44.561768 4.3536158 -1.0395186 174.42
5.2714162 0.51500916 -2.0682201 174.42
44.537949 4.3512883 0 174.42
5.65446 0.55243194 -2.0678537 174.42
27.000137 2.6378715 0.62984812 174.42
6.102376 0.59619266 -2.0717971 174.42
24.699432 2.4130962 1.1573187 174.42
6.9992661 0.68381745 -2.0165629 174.42
7.5253725 0.73521721 -1.9794133 174.42
8.2337399 0.80442357 -1.9602149 174.42
9.0575609 0.88490963 -1.9344103 174.42
10.021133 0.97904915 -1.8970684 174.42
11.295353 1.0697142 -1.8640617 174.59
12.99951 1.2311046 -1.8351365 174.59
18.849438 1.7851158 -1.766433 174.59
24.681028 2.3373904 -1.7335879 174.59
4.6201386 0.43754527 -2.0662222 174.59
35.116539 3.3256743 -1.644954 174.59
4.9201808 0.46596044 -2.0643253 174.59
5.2766304 0.49971762 -2.069675 174.59
5.656074 0.5356524 -2.0678537 174.59
24.700792 2.339262 0.57604551 174.59
6.1041183 0.57808399 -2.0717971 174.59
24.593113 2.3290644 1.1520082 174.59
6.5631356 0.62155473 -2.0571229 174.59
6.9916945 0.66214091 -2.0138066 174.59
7.5294471 0.71306819 -1.9799198 174.59
8.247715 0.78109097 -1.9629816 174.59
9.0562515 0.85766256 -1.9335787 174.59
10.02595 0.94949687 -1.8974386 174.59
11.294726 1.0338638 -1.8634132 174.77
12.999369 1.1898984 -1.8345798 174.77
19.041361 1.7429527 -1.7838967 174.77
24.69421 2.2603867 -1.7340064 174.77
4.6287684 0.42369473 -2.0694761 174.77
35.100952 3.2129686 -1.6437428 174.77
4.9216204 0.45050097 -2.0643253 174.77
5.2707534 0.48245886 -2.0667651 174.77
5.653986 0.51753807 -2.0664856 174.77
24.962885 2.2849798 0.58198744 174.77
6.1059041 0.55890447 -2.0717971 174.77
24.699785 2.2608969 1.1566665 174.77
6.5707598 0.60145509 -2.0589101 174.77
6.9841676 0.63929641 -2.0110502 174.77
7.5200896 0.68835211 -1.9768808 174.77
8.2384996 0.75411183 -1.9602149 174.77
9.0589008 0.8292073 -1.9335787 174.77
10.019098 0.917099 -1.8955872 174.77
11.291673 1.0017958 -1.8624405 174.92999
12.982913 1.1518425 -1.8317964 174.92999
15.493152 1.3745505 -1.8189199 174.92999
19.09376 1.6939961 -1.7883556 174.92999
24.885248 2.2078161 -1.7469811 174.92999
4.6317534 0.41092858 -2.0702896 174.92999
35.179436 3.1211152 -1.6470037 174.92999
4.9228592 0.43675545 -2.0643253 174.92999
5.2795029 0.46839684 -2.069675 174.92999
5.6628971 0.50241154 -2.069222 174.92999
25.098625 2.226747 0.58500487 174.92999
6.1112161 0.54218632 -2.0730777 174.92999
26.548754 2.3554022 1.242939 174.92999
6.5914311 0.58479095 -2.0648677 174.92999
6.9725204 0.61860114 -2.0071912 174.92999
7.5219827 0.6673494 -1.9768808 174.92999
8.2425117 0.73127466 -1.960676 174.92999
9.0533867 0.80321538 -1.9319154 174.92999
10.025536 0.88946426 -1.8963277 174.92999
11.310494 0.96766293 -1.8650345 175.11
13.00028 1.1122316 -1.8337448 175.11
15.511248 1.3270559 -1.820546 175.11
18.852959 1.6129541 -1.7653183 175.11
25.007357 2.1394901 -1.7550728 175.11
4.6330214 0.39637551 -2.0702896 175.11
35.133331 3.0058122 -1.644395 175.11
4.9260459 0.42144501 -2.0650961 175.11
55.741295 4.7689147 -1.298876 175.11
5.2753797 0.45133209 -2.0674925 175.11
55.778236 4.7720752 0 175.11
5.6681924 0.48493898 -2.07059 175.11
24.920223 2.1320355 0.58068764 175.11
6.1147771 0.52314627 -2.0737178 175.11
26.414692 2.2598939 1.2363242 175.11
6.5951381 0.56424326 -2.0654635 175.11
6.9610205 0.59554613 -2.0033324 175.11
7.5124755 0.64272553 -1.9738418 175.11
8.2311954 0.70421523 -1.9574481 175.11
9.0617132 0.77526969 -1.9331629 175.11
10.026322 0.85779625 -1.8959575 175.11
11.311512 0.93196321 -1.8647102 175.28999
13.007658 1.0717099 -1.8343015 175.28999
15.513361 1.2781564 -1.8203137 175.28999
25.06963 2.0655038 -1.7589792 175.28999
4.6397066 0.38226858 -2.0727298 175.28999
35.106762 2.8924701 -1.642718 175.28999
4.9273453 0.40596732 -2.0650961 175.28999
5.2823415 0.43521571 -2.069675 175.28999
5.6584496 0.46620354 -2.0664856 175.28999
24.821186 2.0450344 0.57822728 175.28999
6.114502 0.50377798 -2.0730777 175.28999
26.650637 2.1957641 1.2470384 175.28999
6.5949755 0.54336452 -2.0648677 175.28999
6.9628572 0.57367456 -2.0033324 175.28999
7.516386 0.61928016 -1.9743483 175.28999
8.2372465 0.67867231 -1.9583703 175.28999
9.0524054 0.74583387 -1.930668 175.28999
10.019174 0.82548654 -1.8941059 175.28999
11.302423 0.89745992 -1.8627647 175.46001
12.975244 1.0302888 -1.8292912 175.46001
15.550749 1.2347947 -1.8242629 175.46001
25.083603 1.9917434 -1.7595373 175.46001
4.638999 0.36835602 -2.0719163 175.46001
35.151039 2.7911401 -1.644395 175.46001
4.9266887 0.39119977 -2.0643253 175.46001
5.2836099 0.41954079 -2.069675 175.46001
5.6654286 0.44985884 -2.0685377 175.46001
24.847076 1.9729621 0.57869154 175.46001
6.1084146 0.48503378 -2.0705166 175.46001
26.935852 2.1388199 1.2600816 175.46001
6.5965586 0.52379447 -2.0648677 175.46001
6.9587793 0.55255634 -2.0016785 175.46001
7.5143328 0.59666961 -1.9733353 175.46001
8.2334032 0.65376681 -1.956987 175.46001
9.0584793 0.71928132 -1.9314996 175.46001
10.025497 0.79606658 -1.8948466 175.46001
11.31094 0.86437219 -1.8637375 175.63
12.997991 0.99329513 -1.8320746 175.63
15.554344 1.1886494 -1.8242629 175.63
18.940287 1.4474002 -1.7721924 175.63
25.06951 1.9157901 -1.7581421 175.63
4.6346064 0.35417256 -2.0694761 175.63
35.135262 2.6850061 -1.6432769 175.63
4.9370279 0.37728339 -2.0681796 175.63
5.281116 0.40357828 -2.0682201 175.63
37.572449 2.871254 0 175.63
5.6648645 0.43290401 -2.0678537 175.63
24.828896 1.8974026 0.57813448 175.63
6.1192727 0.46762949 -2.0737178 175.63
25.370375 1.938782 1.186573 175.63
6.5923724 0.5037834 -2.0630805 175.63
6.9508033 0.53117436 -1.9989221 175.63
26.312683 2.0107923 2.4620078 175.63
7.5102825 0.57392925 -1.9718158 175.63
8.2372475 0.62948328 -1.9574481 175.63
9.0508204 0.69165581 -1.9294205 175.63
10.016057 0.76541835 -1.8926247 175.63
11.321472 0.82941037 -1.8650345 175.81
13.022775 0.95404768 -1.8351365 175.81
15.561964 1.1400685 -1.8247274 175.81
18.807705 1.3778512 -1.7593733 175.81
25.083363 1.8376056 -1.7587003 175.81
4.6375184 0.3397443 -2.0702896 175.81
35.237171 2.5814729 -1.6476558 175.81
4.9345078 0.36150175 -2.0666378 175.81
37.517319 2.7485166 -0.87337577 175.81
5.2842159 0.38712132 -2.0689476 175.81
37.617188 2.7558329 0 175.81
5.6699452 0.41537985 -2.069222 175.81
24.830746 1.8190989 0.57804161 175.81
6.1301603 0.44909516 -2.0769191 175.81
25.364386 1.8581934 1.1860141 175.81
6.5958271 0.48320988 -2.0636761 175.81
6.9620247 0.51003748 -2.0016785 175.81
7.510119 0.55019087 -1.9713093 175.81
8.2333622 0.60317558 -1.9560648 175.81
9.0412426 0.66236085 -1.9269255 175.81
10.024292 0.73437905 -1.8937356 175.81
11.319807 0.79751426 -1.864386 175.97
12.9839 0.91475457 -1.8292912 175.97
15.551216 1.0956297 -1.8231014 175.97
18.906826 1.3320425 -1.7682909 175.97
25.096357 1.7681135 -1.7592583 175.97
4.6384487 0.3267926 -2.0702896 175.97
35.531216 2.5032804 -1.6610718 175.97
4.9299755 0.34733152 -2.0643253 175.97
37.554768 2.6458457 -0.87407207 175.97
5.2889929 0.37262538 -2.0704024 175.97
5.6729579 0.39967686 -2.069906 175.97
27.3568 1.9273683 0.63671851 175.97
6.1635218 0.43423852 -2.0878029 175.97
25.267839 1.7801948 1.1812625 175.97
6.6009598 0.46505734 -2.0648677 175.97
31.337608 2.2078283 2.1967709 175.97
6.936573 0.48870233 -1.9939606 175.97
7.498116 0.5282647 -1.9677638 175.97
8.2291899 0.57977104 -1.9546814 175.97
9.0469599 0.63738537 -1.9277571 175.97
10.022383 0.70610684 -1.892995 175.97
11.328031 0.76432282 -1.8653586 176.14
12.986557 0.8762266 -1.8292912 176.14
15.548452 1.0490823 -1.8224045 176.14
18.829235 1.2704427 -1.7606738 176.14
25.077606 1.6920317 -1.7575841 176.14
4.6375751 0.31290561 -2.0694761 176.14
35.61224 2.4028225 -1.664519 176.14
4.9383492 0.33319941 -2.0674088 176.14
5.2826405 0.35642934 -2.0674925 176.14
5.6703687 0.38259009 -2.0685377 176.14
24.842806 1.6761893 0.57808805 176.14
6.1893587 0.41760731 -2.0961261 176.14
25.444433 1.7167822 1.1892749 176.14
6.5927858 0.44482726 -2.0618889 176.14
6.9207292 0.46695417 -1.9889991 176.14
7.503511 0.50627553 -1.9687768 176.14
8.225049 0.554959 -1.9532981 176.14
9.0546665 0.61093479 -1.9290047 176.14
10.01659 0.67583752 -1.8915138 176.14
11.31856 0.72797102 -1.8634132 176.32001
12.995174 0.83580524 -1.8301263 176.32001
15.573478 1.0016328 -1.8249598 176.32001
18.845058 1.2120497 -1.7617885 176.32001
25.088772 1.613624 -1.7580026 176.32001
4.6458287 0.29880381 -2.0727298 176.32001
35.653507 2.2931116 -1.6661029 176.32001
4.933847 0.31732816 -2.0650961 176.32001
5.285593 0.33995128 -2.0682201 176.32001
5.6752934 0.36501548 -2.069906 176.32001
6.2152214 0.3997418 -2.104449 176.32001
26.950964 1.7333939 1.2594296 176.32001
6.5884352 0.42374563 -2.0601017 176.32001
6.9164062 0.4448396 -1.9873453 176.32001
7.4934797 0.48195499 -1.9657377 176.32001
8.222868 0.52886677 -1.9523758 176.32001
9.0487318 0.58198351 -1.9273413 176.32001
10.014741 0.6441139 -1.8907732 176.32001
11.322761 0.69252968 -1.8637375 176.5
13.003667 0.79533833 -1.8309613 176.5
15.560685 0.95173228 -1.8231014 176.5
18.618206 1.1387383 -1.7402375 176.5
25.087742 1.5344321 -1.7575841 176.5
4.6430969 0.28398398 -2.0711031 176.5
35.54089 2.1737738 -1.6605128 176.5
4.9348192 0.30182648 -2.0650961 176.5
5.2884946 0.32345819 -2.0689476 176.5
5.6726604 0.34695479 -2.0685377 176.5
25.826765 1.5796326 0.6007418 176.5
6.1426888 0.37570295 -2.0794799 176.5
6.5611491 0.40129706 -2.0511656 176.5
29.906946 1.8291873 2.0952055 176.5
6.9158506 0.42299154 -1.9867941 176.5
7.494957 0.45841119 -1.9657377 176.5
8.2186613 0.50267482 -1.9509925 176.5
9.0524683 0.55367267 -1.9277571 176.5
10.008868 0.61216861 -1.889292 176.5
11.322795 0.65881675 -1.8634132 176.67
13.035627 0.75847787 -1.8351365 176.67
15.53766 0.90405864 -1.8200815 176.67
18.772591 1.092283 -1.7543571 176.67
25.090193 1.4598727 -1.7574446 176.67
4.6420951 0.27010027 -2.0702896 176.67
35.485352 2.0647149 -1.6576246 176.67
4.9393778 0.28739768 -2.0666378 176.67
5.2857113 0.30754906 -2.0674925 176.67
5.6717887 0.33001298 -2.0678537 176.67
25.84531 1.5038092 0.60106671 176.67
6.1513429 0.35791585 -2.0820408 176.67
26.897228 1.565015 1.2564481 176.67
6.543251 0.38071901 -2.045208 176.67
29.573643 1.7207422 2.0714881 176.67
6.9247522 0.40291667 -1.9889991 176.67
7.4885578 0.4357217 -1.9637117 176.67
8.2084599 0.47760916 -1.9482257 176.67
9.0443068 0.52624291 -1.9256781 176.67
10.008678 0.5823549 -1.8889216 176.67
11.320759 0.62500089 -1.8627647 176.84
13.020022 0.71881455 -1.8326313 176.84
15.538291 0.85784405 -1.8198491 176.84
18.938791 1.0455803 -1.7695913 176.84
25.068518 1.3839926 -1.755631 176.84
4.6428761 0.25632572 -2.0702896 176.84
35.497307 1.9597493 -1.6579041 176.84
4.9457369 0.2730462 -2.0689504 176.84
5.2866006 0.29186472 -2.0674925 176.84
5.6727428 0.31318304 -2.0678537 176.84
30.523281 1.6851413 0.70973969 176.84
6.1807556 0.34122959 -2.0916443 176.84
25.477472 1.4065703 1.1899271 176.84
6.5233822 0.36014545 -2.0386548 176.84
31.602587 1.7447281 2.2132335 176.84
6.9028821 0.38109705 -1.9823838 176.84
7.487886 0.41339415 -1.9632052 176.84
8.2156696 0.45357394 -1.9496092 176.84
9.0458279 0.49940562 -1.9256781 176.84
10.01625 0.55298102 -1.8900325 176.84
11.31468 0.59099704 -1.8614677 177.00999
13.006275 0.67935377 -1.8304046 177.00999
15.55267 0.81235904 -1.8212429 177.00999
18.949764 0.98979867 -1.7703345 177.00999
25.068529 1.3093987 -1.7553519 177.00999
4.6436162 0.24254893 -2.0702896 177.00999
35.461067 1.8522298 -1.6559477 177.00999
4.9428396 0.25817817 -2.0674088 177.00999
59.309147 3.0978808 -1.3788605 177.00999
5.2948852 0.27656651 -2.0704024 177.00999
5.6717706 0.29625228 -2.0671697 177.00999
30.683891 1.6027046 0.71336055 177.00999
6.2139082 0.32456961 -2.1025283 177.00999
25.40971 1.3272195 1.186573 177.00999
6.5034494 0.33969319 -2.0321014 177.00999
6.9212618 0.36151665 -1.9873453 177.00999
7.4890795 0.39117536 -1.9632052 177.00999
8.1994886 0.42828196 -1.945459 177.00999
9.0394554 0.47215578 -1.9240148 177.00999
10.008033 0.52274722 -1.8881811 177.00999
11.316383 0.55742317 -1.8614677 177.17999
13.067578 0.64368361 -1.838755 177.17999
15.525251 0.76474386 -1.8177584 177.17999
18.988419 0.93533278 -1.7736787 177.17999
25.06234 1.2345223 -1.7546543 177.17999
4.6443152 0.22877 -2.0702896 177.17999
35.209 1.7343273 -1.6439291 177.17999
4.9362106 0.24314819 -2.0643253 177.17999
59.068447 2.9095974 -1.3730577 177.17999
5.2882395 0.26048845 -2.0674925 177.17999
5.683887 0.27997729 -2.071274 177.17999
26.015438 1.2814702 0.60473406 177.17999
6.2167363 0.30622441 -2.1031687 177.17999
26.977936 1.328881 1.2596159 177.17999
6.4872665 0.31955022 -2.0267398 177.17999
6.9203839 0.34088472 -1.9867941 177.17999
7.4747477 0.3681916 -1.9591532 177.17999
8.2104416 0.40443048 -1.9477646 177.17999
9.0330009 0.44494814 -1.9223515 177.17999
10.013465 0.49324393 -1.8889216 177.17999
11.318079 0.521869 -1.8614677 177.36
13.07745 0.60299242 -1.8398684 177.36
15.436296 0.71175724 -1.8070725 177.36
19.062876 0.8789764 -1.7803668 177.36
25.07008 1.1559645 -1.7549334 177.36
4.6468363 0.2142625 -2.0711031 177.36
34.944855 1.6112838 -1.6313516 177.36
4.9498549 0.22823448 -2.0697212 177.36
5.2853098 0.24370207 -2.0660377 177.36
5.6828613 0.26203293 -2.07059 177.36
30.816944 1.4209486 0.71623868 177.36
6.1457434 0.2833761 -2.0788398 177.36
29.312965 1.3516011 1.3684348 177.36
6.4672594 0.29820099 -2.0201864 177.36
6.9214206 0.31914204 -1.9867941 177.36
7.4777999 0.34479633 -1.9596597 177.36
8.1980639 0.3780072 -1.9445368 177.36
9.0382624 0.4167482 -1.9231831 177.36
10.003185 0.46124017 -1.8866998 177.36
11.31152 0.49189365 -1.8601708 177.50999
13.092834 0.56935602 -1.8418168 177.50999
15.408339 0.67004824 -1.803588 177.50999
19.152649 0.83287358 -1.7885413 177.50999
25.071028 1.0902407 -1.7547939 177.50999
4.645556 0.20201701 -2.0702896 177.50999
35.004841 1.5222232 -1.6339602 177.50999
4.9430604 0.21495432 -2.0666378 177.50999
5.2952356 0.23026904 -2.069675 177.50999
5.687283 0.24731764 -2.0719581 177.50999
30.85252 1.3416551 0.71698141 177.50999
6.1294274 0.26654476 -2.0730777 177.50999
6.443222 0.28019044 -2.0124419 177.50999
31.202248 1.3568634 2.1839356 177.50999
6.910708 0.30051959 -1.9834864 177.50999
7.4670792 0.324714 -1.9566207 177.50999
8.2068024 0.35688165 -1.9463813 177.50999
9.0334587 0.39282972 -1.9219357 177.50999
10.008286 0.43522111 -1.8874404 177.50999
11.324921 0.4548558 -1.8621162 177.7
13.090693 0.52577651 -1.8412601 177.7
15.462082 0.62102139 -1.8096279 177.7
19.155306 0.76935655 -1.7885413 177.7
25.06653 1.0067759 -1.7542357 177.7
4.6462002 0.18661068 -2.0702896 177.7
34.99173 1.405413 -1.6331217 177.7
4.9474339 0.19870947 -2.0681796 177.7
5.2922473 0.21255861 -2.0682201 177.7
5.6843162 0.22830571 -2.07059 177.7
30.944706 1.2428677 0.719024 177.7
6.1359572 0.24644549 -2.0749984 177.7
6.4269466 0.25813285 -2.0070801 177.7
6.9097457 0.27752405 -1.9829352 177.7
7.4700484 0.30002812 -1.9571272 177.7
8.1904392 0.32896203 -1.9422312 177.7
9.0327578 0.36279303 -1.9215199 177.7
10.001819 0.40171453 -1.8859593 177.7
11.310443 0.42066532 -1.8595223 177.87
13.084278 0.48663893 -1.8401468 177.87
15.43011 0.57388663 -1.8056787 177.87
19.161484 0.71266633 -1.7889129 177.87
25.043489 0.93143368 -1.7524221 177.87
4.644908 0.17275642 -2.0694761 177.87
34.913891 1.29854 -1.6293019 177.87
4.9480019 0.1840293 -2.0681796 177.87
5.2872696 0.19664755 -2.0660377 177.87
5.6793342 0.21122947 -2.0685377 177.87
30.846354 1.1472576 0.71665651 177.87
6.1404481 0.22837953 -2.0762787 177.87
29.273924 1.0887748 1.3661056 177.87
6.4086051 0.238353 -2.0011225 177.87
6.9066963 0.25687832 -1.9818326 177.87
7.4670386 0.27771893 -1.9561142 177.87
8.1913795 0.3046591 -1.9422312 177.87
9.0357494 0.33606344 -1.9219357 177.87
10.012787 0.37240207 -1.8878107 177.87
11.307696 0.38696977 -1.8588738 178.03999
13.081705 0.44767955 -1.8395901 178.03999
15.392038 0.52674335 -1.8010328 178.03999
19.201328 0.65710407 -1.7924428 178.03999
25.062094 0.85767007 -1.7535383 178.03999
4.650878 0.15916143 -2.0719163 178.03999
30.75655 1.0525446 -1.4351422 178.03999
4.9466815 0.16928437 -2.0674088 178.03999
30.903576 1.0575761 -0.71790987 178.03999
5.2859678 0.18089534 -2.06531 178.03999
5.6818142 0.19444193 -2.069222 178.03999
30.406002 1.0405482 0.70635092 178.03999
6.1354179 0.20996507 -2.074358 178.03999
30.461044 1.0424318 1.4213535 178.03999
6.3863869 0.21855368 -1.9939735 178.03999
30.507601 1.0440251 2.1345482 178.03999
6.8958998 0.23599012 -1.9785249 178.03999
7.4581614 0.25523174 -1.9535817 178.03999
8.1864128 0.28015378 -1.9408479 178.03999
9.0308409 0.30905166 -1.9206882 178.03999
10.004026 0.34235582 -1.8859593 178.03999
11.308856 0.35144374 -1.8588738 178.22
13.085027 0.40664154 -1.8398684 178.22
15.359864 0.47733635 -1.7970836 178.22
19.219221 0.59727299 -1.7939291 178.22
25.034752 0.77800149 -1.7514455 178.22
4.6422238 0.14426574 -2.0678492 178.22
30.809628 0.95746642 -1.4374714 178.22
4.9490337 0.15380043 -2.0681796 178.22
30.792831 0.95694453 -0.71526384 178.22
5.288372 0.16434599 -2.0660377 178.22
30.737162 0.95521444 0 178.22
5.6842756 0.17664944 -2.069906 178.22
30.497055 0.94775265 0.70839345 178.22
6.1436229 0.1909245 -2.0769191 178.22
29.268047 0.90955895 1.3655466 178.22
6.3755922 0.19813339 -1.990399 178.22
30.267443 0.94061702 2.1175275 178.22
6.890842 0.21414573 -1.9768711 178.22
7.4608603 0.2318601 -1.9540882 178.22
8.187252 0.25443408 -1.9408479 178.22
9.0298119 0.28061819 -1.9202724 178.22
10.007017 0.31098667 -1.8863295 178.22
11.309905 0.31591424 -1.8588738 178.39999
13.092179 0.36569768 -1.8407035 178.39999
15.389088 0.42985612 -1.8003358 178.39999
19.234936 0.53728038 -1.7952296 178.39999
25.019123 0.69884741 -1.7501899 178.39999
4.64996 0.12988514 -2.0711031 178.39999
34.812572 0.97240323 -1.6240846 178.39999
4.9513373 0.13830337 -2.0689504 178.39999
5.2870002 0.14767928 -2.06531 178.39999
5.6866813 0.15884338 -2.07059 178.39999
6.1385102 0.17146412 -2.0749984 178.39999
29.158926 0.81448251 1.3603293 178.39999
6.353282 0.17746323 -1.98325 178.39999
6.8914809 0.19249649 -1.9768711 178.39999
7.4634857 0.20847404 -1.9545947 178.39999
8.1821747 0.22854884 -1.9394644 178.39999
9.0326042 0.25230348 -1.9206882 178.39999
10.007945 0.27954721 -1.8863295 178.39999
11.306847 0.28225723 -1.8582253 178.57001
13.103106 0.32709798 -1.8420951 178.57001
15.396253 0.3843427 -1.8010328 178.57001
19.234455 0.48015723 -1.7950437 178.57001
24.999147 0.62406349 -1.7486553 178.57001
4.6484981 0.11604228 -2.0702896 178.57001
34.835278 0.86960667 -1.6250162 178.57001
4.951726 0.12361187 -2.0689504 178.57001
5.2892776 0.1320383 -2.0660377 178.57001
5.6833696 0.14187619 -2.069222 178.57001
30.654186 0.7652325 0.71192151 178.57001
6.1333094 0.15310821 -2.0730777 178.57001
29.167206 0.7281124 1.3606087 178.57001
6.3366027 0.1581831 -1.9778883 178.57001
6.8843341 0.17185633 -1.974666 178.57001
7.4660058 0.18637682 -1.9551011 178.57001
8.176981 0.20412517 -1.9380811 178.57001
9.0254908 0.22530685 -1.9190249 178.57001
10.004801 0.24975376 -1.8855889 178.57001
11.31351 0.25081274 -1.8591981 178.73
13.100008 0.29041818 -1.8415384 178.73
15.434999 0.34218332 -1.8054465 178.73
19.231739 0.42635441 -1.7946721 178.73
24.982841 0.55385238 -1.7473997 178.73
4.650631 0.10310128 -2.0711031 178.73
34.735706 0.77006674 -1.6202648 178.73
4.9502068 0.10974268 -2.0681796 178.73
5.2896256 0.11726736 -2.0660377 178.73
5.683744 0.1260047 -2.069222 178.73
30.630219 0.67905086 0.71131802 178.73
6.1261358 0.13581222 -2.0705166 178.73
29.814264 0.66096175 1.3907017 178.73
6.3064799 0.13981032 -1.9683564 178.73
6.8809428 0.15254578 -1.9735634 178.73
7.4626284 0.16544135 -1.9540882 178.73
8.1755733 0.18124683 -1.93762 178.73
9.0202169 0.199972 -1.9177774 178.73
10.011353 0.22194482 -1.8866998 178.73
11.312231 0.21720593 -1.8588738 178.89999
13.094872 0.25143439 -1.8407035 178.89999
15.455808 0.29676667 -1.8077694 178.89999
19.23292 0.36929092 -1.7946721 178.89999
24.954453 0.47914997 -1.745307 178.89999
4.643609 0.089161851 -2.0678492 178.89999
34.759811 0.66742247 -1.6212896 178.89999
4.9486651 0.095019229 -2.0674088 178.89999
5.2992635 0.10175105 -2.069675 178.89999
5.6859717 0.10917623 -2.069906 178.89999
30.560131 0.58678448 0.70964682 178.89999
6.1246176 0.11759866 -2.0698764 178.89999
29.766159 0.57153946 1.3883724 178.89999
6.2992315 0.12095143 -1.9659733 178.89999
6.8736768 0.13198133 -1.9713584 178.89999
7.4630866 0.14329858 -1.9540882 178.89999
8.1663456 0.15680185 -1.9353144 178.89999
9.0149031 0.17309497 -1.91653 178.89999
10.004108 0.19208869 -1.8852186 178.89999
11.30891 0.18160312 -1.8582253 179.08
13.091637 0.21023086 -1.8401468 179.08
15.460636 0.24827322 -1.8082341 179.08
19.222038 0.30867535 -1.7935575 179.08
24.951845 0.40068695 -1.7450279 179.08
4.6456933 0.07460244 -2.0686626 179.08
34.743755 0.55792946 -1.6204511 179.08
4.947094 0.079442464 -2.0666378 179.08
38.832527 0.62358862 -0.90169293 179.08
5.2883801 0.084922977 -2.06531 179.08
38.810997 0.62324286 0 179.08
5.6862864 0.091312714 -2.069906 179.08
30.307924 0.48669705 0.70375127 179.08
6.1154842 0.098204948 -2.0666752 179.08
29.955578 0.48103893 1.3971301 179.08
6.2728553 0.10073207 -1.9576328 179.08
6.8740573 0.11038642 -1.9713584 179.08
7.4654346 0.119883 -1.9545947 179.08
8.172636 0.13123953 -1.9366978 179.08
9.0154018 0.14477302 -1.91653 179.08
10.010557 0.16075364 -1.8863295 179.08
11.317319 0.14617625 -1.8595223 179.25999
13.092233 0.1691013 -1.8401468 179.25999
15.40771 0.19900836 -1.8019619 179.25999
19.222912 0.24828611 -1.7935575 179.25999
24.915077 0.321807 -1.7423772 179.25999
4.6459045 0.060007222 -2.0686626 179.25999
34.717373 0.44841492 -1.6191467 179.25999
4.9565458 0.064019516 -2.070492 179.25999
54.930614 0.70949233 -1.2754332 179.25999
5.2923465 0.068356767 -2.0667651 179.25999
5.6903038 0.073496848 -2.071274 179.25999
6.1119733 0.078943193 -2.0653949 179.25999
29.431557 0.38014254 1.3726273 179.25999
6.2635951 0.080901563 -1.9546541 179.25999
6.8705254 0.088740773 -1.9702559 179.25999
7.4599705 0.096354127 -1.9530752 179.25999
8.1632786 0.10543817 -1.9343922 179.25999
9.0118999 0.11639909 -1.9156983 179.25999
10.009048 0.12927841 -1.8859593 179.25999
11.303869 0.11443195 -1.8572526 179.42
13.088693 0.13250019 -1.8395901 179.42
15.364506 0.15553881 -1.7968513 179.42
19.209593 0.19446361 -1.792257 179.42
24.925854 0.25233078 -1.7430748 179.42
4.6533623 0.047107175 -2.0719163 179.42
34.684528 0.35112032 -1.6175629 179.42
4.9530149 0.050140634 -2.0689504 179.42
54.838413 0.55514324 -1.2732513 179.42
5.2906542 0.053558644 -2.0660377 179.42
5.6829696 0.057530154 -2.0685377 179.42
29.006697 0.29364219 0.67348439 179.42
6.1083803 0.061836697 -2.0641143 179.42
24.372263 0.24672665 1.1366357 179.42
6.2389784 0.063158773 -1.9469093 179.42
6.8592119 0.069437556 -1.9669482 179.42
7.4544063 0.075462855 -1.9515557 179.42
8.1674328 0.082681008 -1.9353144 179.42
9.0141468 0.091252506 -1.9161141 179.42
10.00544 0.10128762 -1.8852186 179.42
11.304186 0.076946341 -1.8572526 179.61
13.091041 0.089109264 -1.8398684 179.61
15.339113 0.10441165 -1.7938313 179.61
19.234028 0.1309239 -1.7944864 179.61
24.886652 0.16940068 -1.7402846 179.61
4.6461844 0.031626064 -2.0686626 179.61
34.651539 0.23586918 -1.6159791 179.61
4.9513083 0.033703007 -2.0681796 179.61
54.875942 0.37353444 -1.274087 179.61
5.2982545 0.036064632 -2.0689476 179.61
5.6831293 0.038684431 -2.0685377 179.61
29.123476 0.19824028 0.67617685 179.61
6.1047626 0.041554444 -2.0628338 179.61
23.296143 0.15857425 1.0864186 179.61
6.2257895 0.042378258 -1.9427391 179.61
22.492554 0.15310432 1.5728689 179.61
6.8459473 0.046599604 -1.9630892 179.61
7.4507461 0.050716404 -1.9505427 179.61
8.1540394 0.055503644 -1.9320866 179.61
9.0065746 0.061306756 -1.9144509 179.61
10.009651 0.068134584 -1.8859593 179.61
11.318172 0.045434296 -1.8595223 179.77
13.09718 0.052575734 -1.8407035 179.77
15.373115 0.061711971 -1.7977805 179.77
19.228344 0.077187933 -1.7939291 179.77
24.897003 0.099943511 -1.7409821 179.77
4.6407733 0.018629359 -2.0662222 179.77
34.580139 0.13881433 -1.6126251 179.77
4.9495378 0.019868825 -2.0674088 179.77
54.720814 0.2196646 -1.2704661 179.77
5.3001976 0.02127647 -2.069675 179.77
5.686974 0.022829099 -2.069906 179.77
23.205559 0.093153588 0.53876895 179.77
6.1029601 0.024498984 -2.0621936 179.77
23.096712 0.092716642 1.0771019 179.77
6.2010641 0.0248928 -1.9349943 179.77
31.049929 0.12464307 2.1712401 179.77
6.8479733 0.027489673 -1.9636406 179.77
7.4527931 0.02991759 -1.9510492 179.77
8.1561089 0.032740895 -1.9325477 179.77
9.0047541 0.036147594 -1.9140351 179.77
9.9980097 0.040134799 -1.8837374 179.77
11.304444 0.0098649906 -1.8572526 179.95
13.091339 0.011424351 -1.8398684 179.95
15.468583 0.013498888 -1.808931 179.95
19.232473 0.016783504 -1.7943007 179.95
4.6462903 0.0040546544 -2.0686626 179.95
34.592392 0.030187566 -1.6131841 179.95
4.9514213 0.0043209312 -2.0681796 179.95
5.2909231 0.0046172026 -2.0660377 179.95
5.6926556 0.0049677803 -2.0719581 179.95
29.098148 0.025392931 0.67557341 179.95
6.0992174 0.0053225728 -2.0609131 179.95
23.210766 0.020255219 1.0824125 179.95
6.1915655 0.0054031615 -1.9320155 179.95
22.744452 0.019848283 1.5904475 179.95
6.8288007 0.0059592542 -1.9581277 179.95
7.4509158 0.0065021524 -1.9505427 179.95
8.1503334 0.0071125091 -1.9311644 179.95
8.9989548 0.0078530712 -1.9127876 179.95
10.005948 0.0087318392 -1.8852186 179.95
11.306401 -0.021706758 -1.8575768 180.11
13.0933 -0.025137363 -1.8401468 180.11
19.194611 -0.036851052 -1.7907708 180.11
24.589909 -0.047209293 -1.7194971 180.11
4.6408024 -0.0089097116 -2.0662222 180.11
34.568367 -0.066366583 -1.612066 180.11
4.9477229 -0.0094989575 -2.0666378 180.11
53.903374 -0.10348718 -1.2514796 180.11
5.2946415 -0.010164994 -2.0674925 180.11
5.6870093 -0.010918288 -2.069906 180.11
29.499996 -0.056635994 0.6849041 180.11
6.1029978 -0.011716929 -2.0621936 180.11
24.972815 -0.047944419 1.1645857 180.11
6.1801009 -0.011864957 -1.928441 180.11
22.137901 -0.04250177 1.5480356 180.11
6.8326354 -0.013117734 -1.9592303 180.11
7.4528399 -0.014308442 -1.9510492 180.11
8.1444826 -0.015636304 -1.929781 180.11
9.0008974 -0.017280504 -1.9132034 180.11
10.000037 -0.019198718 -1.8841077 180.11
11.312198 -0.057256665 -1.8585496 180.28999
13.095138 -0.066281013 -1.8404251 180.28999
19.196392 -0.0971625 -1.7909565 180.28999
24.424046 -0.12362226 -1.7079175 180.28999
4.6425786 -0.023498403 -2.0670357 180.28999
34.567989 -0.17496581 -1.612066 180.28999
4.9513597 -0.025061296 -2.0681796 180.28999
53.656853 -0.27158406 -1.2457697 180.28999
5.3001723 -0.026826812 -2.069675 180.28999
5.683188 -0.028765446 -2.0685377 180.28999
29.507669 -0.14935301 0.68508983 180.28999
6.0953522 -0.030851614 -2.0596328 180.28999
23.502157 -0.11895612 1.0960149 180.28999
6.1609416 -0.031183593 -1.9224836 180.28999
22.155613 -0.1121406 1.5492913 180.28999
6.8210258 -0.034524608 -1.9559227 180.28999
7.4469538 -0.037692741 -1.9495296 180.28999
8.1424475 -0.041212983 -1.9293199 180.28999
8.9949303 -0.04552782 -1.911956 180.28999
9.994031 -0.050584771 -1.8829968 180.28999
11.308015 -0.092762262 -1.8579011 180.47
13.106748 -0.10751768 -1.8420951 180.47
15.579307 -0.12780066 -1.8219398 180.47
19.182053 -0.15735482 -1.789656 180.47
24.311813 -0.19943543 -1.7001048 180.47
4.6516171 -0.03815829 -2.0711031 180.47
34.537304 -0.28331748 -1.6106685 180.47
4.9512563 -0.040616304 -2.0681796 180.47
53.399811 -0.43805102 -1.2398278 180.47
5.2944732 -0.043431789 -2.0674925 180.47
5.6830697 -0.046619538 -2.0685377 180.47
23.830776 -0.19548938 0.55329889 180.47
6.0952253 -0.050000541 -2.0596328 180.47
22.60667 -0.18544775 1.0542761 180.47
6.1493583 -0.05044461 -1.9189091 180.47
22.224979 -0.18231665 1.5541742 180.47
6.8247285 -0.055984829 -1.9570252 180.47
7.4429288 -0.06105607 -1.9485166 180.47
8.1383858 -0.066761062 -1.9283977 180.47
8.9947424 -0.073785953 -1.911956 180.47
9.9977541 -0.08201389 -1.8837374 180.47
11.307712 -0.1243398 -1.8579011 180.63
13.092533 -0.14396572 -1.8401468 180.63
15.725879 -0.17292203 -1.8391302 180.63
19.191494 -0.21103001 -1.7905849 180.63
24.315151 -0.26736984 -1.7003838 180.63
4.6569734 -0.051208157 -2.0735433 180.63
34.526386 -0.37965277 -1.6102027 180.63
4.9529691 -0.054462932 -2.0689504 180.63
53.112476 -0.58402568 -1.2331895 180.63
5.2980566 -0.058257524 -2.0689476 180.63
5.6847968 -0.062510125 -2.069222 180.63
23.694181 -0.26054165 0.55014223 180.63
6.0912724 -0.066979736 -2.0583522 180.63
25.029284 -0.27522245 1.1672875 180.63
6.143466 -0.067553662 -1.9171219 180.63
22.206429 -0.24418227 1.5529187 180.63
6.8091664 -0.074873708 -1.952615 180.63
7.4233828 -0.081627645 -1.9434516 180.63
8.1401138 -0.089508832 -1.9288588 180.63
8.9847202 -0.098796144 -1.9098768 180.63
9.9974861 -0.10993253 -1.8837374 180.63
11.311212 -0.15991914 -1.8585496 180.81
13.072212 -0.18481636 -1.8373632 180.81
15.72923 -0.22238156 -1.8395947 180.81
19.198702 -0.27143332 -1.7913281 180.81
23.789526 -0.33633891 -1.6636919 180.81
4.6458278 -0.065683223 -2.0686626 180.81
34.459103 -0.48718655 -1.6071283 180.81
4.9509282 -0.069996759 -2.0681796 180.81
52.840477 -0.74706441 -1.2269226 180.81
5.3015733 -0.074954219 -2.0704024 180.81
5.6920891 -0.080475375 -2.0719581 180.81
23.715239 -0.33528861 0.55065286 180.81
6.0758753 -0.085901387 -2.0532303 180.81
24.522896 -0.34670737 1.1437163 180.81
6.1374965 -0.086772591 -1.9153346 180.81
22.105804 -0.31253427 1.545943 180.81
6.7896743 -0.095993154 -1.9471023 180.81
7.425024 -0.1049758 -1.9439582 180.81
8.1261711 -0.11488868 -1.9256309 180.81
8.9863224 -0.1270496 -1.9102926 180.81
9.9872646 -0.14120103 -1.8818859 180.81
11.302794 -0.19334441 -1.8572526 180.98
13.095369 -0.22400802 -1.8407035 180.98
15.742404 -0.26928791 -1.8412209 180.98
19.193829 -0.32832763 -1.7909565 180.98
23.62285 -0.40409002 -1.6521124 180.98
4.6456127 -0.079467364 -2.0686626 180.98
24.092289 -0.41212016 -1.1236855 180.98
4.9433179 -0.084559873 -2.0650961 180.98
23.984028 -0.41026825 -0.55691981 180.98
5.2994647 -0.090652086 -2.069675 180.98
5.684309 -0.097235188 -2.069222 180.98
23.748125 -0.40623292 0.55144203 180.98
6.0604382 -0.10366921 -2.0481086 180.98
22.843828 -0.39076412 1.0654562 180.98
6.1200318 -0.10468862 -1.9099729 180.98
21.979107 -0.37597227 1.5371536 180.98
6.7835927 -0.11603943 -1.9454484 180.98
7.4246798 -0.1270058 -1.9439582 180.98
8.1277399 -0.13903226 -1.926092 180.98
8.9819937 -0.15364504 -1.909461 180.98
9.9907322 -0.17090042 -1.8826265 180.98
11.30809 -0.2269984 -1.8582253 181.14999
13.112469 -0.26321948 -1.8432086 181.14999
15.741536 -0.31599531 -1.8412209 181.14999
19.196753 -0.38535526 -1.7913281 181.14999
23.765169 -0.47706157 -1.6621573 181.14999
4.6471829 -0.093287468 -2.0694761 181.14999
24.110933 -0.48400247 -1.1246171 181.14999
4.9485807 -0.099337719 -2.0674088 181.14999
23.998697 -0.48174942 -0.55729115 181.14999
5.2973099 -0.10633811 -2.0689476 181.14999
23.92518 -0.48027363 0 181.14999
5.6896324 -0.11421358 -2.071274 181.14999
23.648861 -0.47472683 0.54916739 181.14999
6.050632 -0.12146027 -2.0449073 181.14999
23.022337 -0.46214998 1.0738411 181.14999
6.1330557 -0.12311485 -1.9141431 181.14999
21.971909 -0.44106373 1.5367351 181.14999
6.806284 -0.13662922 -1.9520638 181.14999
7.3933201 -0.14841338 -1.9358541 181.14999
8.1195087 -0.16299087 -1.9242476 181.14999
8.9795418 -0.18025517 -1.9090451 181.14999
9.9862509 -0.20046383 -1.8818859 181.14999
11.311358 -0.25866586 -1.8588738 181.31
13.115643 -0.29992586 -1.8437653 181.31
15.730662 -0.35972562 -1.8400594 181.31
19.203566 -0.43914324 -1.7920712 181.31
23.743797 -0.54296839 -1.6607621 181.31
4.6487312 -0.10630624 -2.0702896 181.31
34.385632 -0.78632367 -1.6039605 181.31
4.9445939 -0.11307197 -2.0658669 181.31
5.2988548 -0.12117314 -2.069675 181.31
23.913748 -0.54685473 0 181.31
5.6855335 -0.13001563 -2.069906 181.31
23.76738 -0.54350764 0.55195272 181.31
6.0313263 -0.13792315 -2.0385051 181.31
23.006975 -0.52611887 1.073189 181.31
6.1231446 -0.14002283 -1.9111644 181.31
22.046387 -0.50415236 1.5420367 181.31
6.7943439 -0.15537168 -1.9487561 181.31
7.3909421 -0.16901457 -1.9353476 181.31
8.1248589 -0.18579763 -1.9256309 181.31
8.9633579 -0.20497225 -1.9057186 181.31
9.9797583 -0.22821508 -1.880775 181.31
11.308466 -0.29612261 -1.8585496 181.5
13.120516 -0.3435728 -1.8446003 181.5
15.729383 -0.41188839 -1.8400594 181.5
19.16617 -0.50188386 -1.788727 181.5
23.771784 -0.62248605 -1.6628548 181.5
4.6465263 -0.12167358 -2.0694761 181.5
34.338898 -0.89919567 -1.6019108 181.5
4.9368124 -0.12927498 -2.0627837 181.5
5.2965617 -0.13869534 -2.0689476 181.5
5.685071 -0.14886883 -2.069906 181.5
23.719475 -0.62111634 0.55088502 181.5
6.0156832 -0.15752621 -2.0333831 181.5
24.500965 -0.64158034 1.1429709 181.5
6.1226468 -0.16032715 -1.9111644 181.5
22.000717 -0.57610905 1.5389674 181.5
6.7861037 -0.17770039 -1.946551 181.5
7.3787365 -0.19321901 -1.9323086 181.5
8.1105795 -0.212383 -1.9224031 181.5
8.9587173 -0.23459227 -1.904887 181.5
9.9887695 -0.26156515 -1.8826265 181.5
11.303592 -0.32955912 -1.8579011 181.67
13.113499 -0.38232741 -1.8437653 181.67
15.751919 -0.45925122 -1.842847 181.67
19.168579 -0.55886477 -1.7890986 181.67
23.799746 -0.69388765 -1.6649475 181.67
4.6461449 -0.13545954 -2.0694761 181.67
34.35405 -1.0016011 -1.6027493 181.67
4.9456306 -0.14419112 -2.0666378 181.67
51.524216 -1.5022017 -1.1967486 181.67
5.2998509 -0.15451851 -2.0704024 181.67
5.6827254 -0.16568132 -2.069222 181.67
23.679554 -0.69038343 0.55000299 181.67
6.0000377 -0.17493263 -2.0282612 181.67
22.843456 -0.6660068 1.0657356 181.67
6.1297774 -0.17871523 -1.9135474 181.67
22.108595 -0.64458174 1.5466405 181.67
6.7663298 -0.19727407 -1.9410383 181.67
7.3819985 -0.21522406 -1.9333216 181.67
8.1060228 -0.23633318 -1.9214809 181.67
8.954071 -0.26105821 -1.9040552 181.67
9.9800911 -0.29097211 -1.8811452 181.67
11.316309 -0.3655147 -1.8601708 181.85001
13.108274 -0.42339486 -1.8432086 181.85001
15.748413 -0.50867087 -1.8426147 181.85001
19.196583 -0.62004608 -1.7918854 181.85001
23.976915 -0.77445 -1.6775037 181.85001
4.6475224 -0.15011413 -2.0702896 181.85001
34.306805 -1.1081035 -1.6006997 181.85001
4.9451532 -0.15972754 -2.0666378 181.85001
51.497261 -1.663352 -1.1962379 181.85001
5.2956157 -0.1710474 -2.0689476 181.85001
5.6821771 -0.18353328 -2.069222 181.85001
23.663279 -0.7643196 0.54967803 181.85001
5.9862022 -0.19335322 -2.0237796 181.85001
22.85523 -0.73821974 1.0663878 181.85001
6.1196446 -0.19766341 -1.9105686 181.85001
6.7522259 -0.21809566 -1.9371793 181.85001
23.103571 -0.74624109 2.1565793 181.85001
7.3793521 -0.23835172 -1.9328151 181.85001
8.1013508 -0.26167214 -1.9205587 181.85001
8.955162 -0.28925008 -1.904471 181.85001
9.9810925 -0.32238746 -1.8815156 181.85001
11.309258 -0.39888051 -1.8591981 182.02
13.103002 -0.46214634 -1.8426518 182.02
15.742865 -0.555255 -1.8421501 182.02
19.20262 -0.67728144 -1.7926285 182.02
24.532801 -0.86527842 -1.7165673 182.02
4.6470571 -0.16390292 -2.0702896 182.02
34.299374 -1.209748 -1.6005133 182.02
4.9483461 -0.17452948 -2.0681796 182.02
51.250313 -1.8076122 -1.1906209 182.02
5.2969465 -0.18682471 -2.069675 182.02
5.687242 -0.20059054 -2.071274 182.02
23.642923 -0.83389217 0.54926026 182.02
5.9666662 -0.2104459 -2.0173774 182.02
23.164406 -0.81701475 1.0809219 182.02
6.1171236 -0.21575257 -1.9099729 182.02
6.7515492 -0.23812893 -1.9371793 182.02
7.3786125 -0.26024562 -1.9328151 182.02
8.0966492 -0.28557095 -1.9196364 182.02
8.9444885 -0.31547448 -1.902392 182.02
9.9761639 -0.35186195 -1.880775 182.02
11.31394 -0.43266019 -1.8601708 182.19
13.079803 -0.50018913 -1.8395901 182.19
15.747103 -0.60219026 -1.842847 182.19
19.204504 -0.73440593 -1.7930001 182.19
24.791298 -0.94805229 -1.7348435 182.19
4.6465502 -0.17769028 -2.0702896 182.19
34.249718 -1.309755 -1.5983706 182.19
4.9422741 -0.18899916 -2.0658669 182.19
50.915054 -1.9470596 -1.1829613 182.19
5.2926455 -0.20239784 -2.0682201 182.19
23.948496 -0.91582245 0 182.19
5.6809878 -0.21724857 -2.069222 182.19
5.9489751 -0.22749676 -2.011615 182.19
23.237741 -0.88864231 1.0844622 182.19
6.1202722 -0.23404737 -1.9111644 182.19
6.750813 -0.25816008 -1.9371793 182.19
7.3662076 -0.28169361 -1.9297761 182.19
8.0957661 -0.3095929 -1.9196364 182.19
8.9396038 -0.34186238 -1.9015603 182.19
9.9613276 -0.38093448 -1.8781829 182.19
11.308663 -0.46606484 -1.8595223 182.36
13.078261 -0.53899544 -1.8395901 182.36
15.743261 -0.64882833 -1.8426147 182.36
19.20821 -0.79162949 -1.7935575 182.36
4.6478281 -0.19155131 -2.0711031 182.36
34.299576 -1.4135911 -1.600886 182.36
4.9380035 -0.20351034 -2.0643253 182.36
50.587414 -2.0848632 -1.1754875 182.36
5.2957444 -0.21825394 -2.069675 182.36
5.6784406 -0.23402603 -2.0685377 182.36
5.9369149 -0.24467856 -2.0077736 182.36
23.183104 -0.95544714 1.0820398 182.36
6.1195507 -0.25220552 -1.9111644 182.36
21.842077 -0.90017927 1.5286434 182.36
6.7346501 -0.27755567 -1.9327692 182.36
7.35954 -0.30330929 -1.9282565 182.36
8.0831451 -0.33313128 -1.9168696 182.36
8.9346409 -0.36822405 -1.9007287 182.36
9.9738998 -0.41105515 -1.880775 182.36
11.305259 -0.49952909 -1.8591981 182.53
13.080562 -0.57797182 -1.8401468 182.53
15.725391 -0.69483507 -1.8407563 182.53
19.201797 -0.84844202 -1.7931859 182.53
24.841043 -1.0976152 -1.7387499 182.53
4.6527152 -0.20558278 -2.0735433 182.53
34.295231 -1.5153537 -1.600886 182.53
4.9410653 -0.21832371 -2.0658669 182.53
50.369267 -2.2255938 -1.1705668 182.53
5.2913513 -0.23380128 -2.0682201 182.53
5.6758437 -0.2507903 -2.0678537 182.53
25.378393 -1.1213583 0.58978629 182.53
5.9210196 -0.26162353 -2.0026519 182.53
6.1130533 -0.27010864 -1.9093771 182.53
25.195831 -1.1132916 1.7635832 182.53
6.7414794 -0.297876 -1.9349742 182.53
7.3682718 -0.32557118 -1.930789 182.53
8.0782328 -0.35694116 -1.9159474 182.53
8.9295998 -0.39455932 -1.899897 182.53
9.9687099 -0.44047293 -1.8800343 182.53
11.301756 -0.53297728 -1.8588738 182.7
13.080768 -0.61687332 -1.8404251 182.7
15.733182 -0.74195802 -1.8419178 182.7
19.195217 -0.90522349 -1.7928144 182.7
24.801805 -1.1696235 -1.7362386 182.7
4.6484346 -0.2192146 -2.0719163 182.7
34.270626 -1.6161617 -1.5999544 182.7
4.9403958 -0.23298316 -2.0658669 182.7
50.056866 -2.3606217 -1.1634643 182.7
5.2906342 -0.24949998 -2.0682201 182.7
5.6844611 -0.26807237 -2.071274 182.7
23.152023 -1.0918217 0.53811908 182.7
5.9069691 -0.27856559 -1.9981703 182.7
22.901632 -1.0800135 1.0691828 182.7
6.1179461 -0.28851503 -1.9111644 182.7
21.812435 -1.0286484 1.5269692 182.7
6.7309642 -0.31742421 -1.9322178 182.7
7.3479471 -0.34652039 -1.925724 182.7
8.0849133 -0.38127485 -1.917792 182.7
8.9225273 -0.42077574 -1.8986496 182.7
9.9693222 -0.47014129 -1.8804047 182.7
11.30988 -0.56897587 -1.8604951 182.88
13.072831 -0.65766615 -1.8395901 182.88
15.730773 -0.79138154 -1.8419178 182.88
19.152502 -0.96352142 -1.7890986 182.88
24.786053 -1.2469332 -1.7354015 182.88
4.6440735 -0.23363338 -2.0702896 182.88
34.231461 -1.7221115 -1.5983706 182.88
4.9341102 -0.24822453 -2.0635545 182.88
49.697742 -2.5001869 -1.1552941 182.88
5.2916851 -0.26621336 -2.0689476 182.88
5.6742058 -0.28545713 -2.0678537 182.88
23.07659 -1.1609339 0.53644788 182.88
5.8890333 -0.29626465 -1.9924082 182.88
22.838266 -1.1489443 1.0663878 182.88
6.1208234 -0.30792552 -1.9123559 182.88
23.53071 -1.1837796 1.6475084 182.88
6.7184129 -0.33798897 -1.9289103 182.88
7.3429575 -0.36940846 -1.924711 182.88
8.0836763 -0.40667242 -1.917792 182.88
8.9211617 -0.44880456 -1.8986496 182.88
9.9619074 -0.50116223 -1.8792938 182.88
11.302125 -0.60418802 -1.8595223 183.06
13.094433 -0.700001 -1.8429302 183.06
15.716308 -0.84016097 -1.840524 183.06
19.151369 -1.0237923 -1.7892845 183.06
24.772053 -1.3242621 -1.734704 183.06
4.6396675 -0.24802692 -2.0686626 183.06
34.187977 -1.8276178 -1.5966004 183.06
4.9388347 -0.26401979 -2.0658669 183.06
49.503956 -2.646378 -1.1509769 183.06
5.2926831 -0.28293577 -2.069675 183.06
24.36521 -1.3025132 0 183.06
5.6770344 -0.30348241 -2.069222 183.06
23.448191 -1.2534913 0.54517514 183.06
5.8748293 -0.3140561 -1.9879265 183.06
6.1064801 -0.32643968 -1.9081856 183.06
23.568712 -1.2599342 1.6504382 183.06
6.7211576 -0.35929903 -1.9300128 183.06
7.3436928 -0.39257848 -1.9252175 183.06
8.0726414 -0.43154657 -1.9154863 183.06
8.9118938 -0.47641122 -1.8969862 183.06
9.9622459 -0.53256088 -1.8796641 183.06
11.308275 -0.63619053 -1.8608192 183.22
13.058811 -0.73467362 -1.8381983 183.22
15.7258 -0.88471532 -1.8419178 183.22
19.118612 -1.0755911 -1.7864977 183.22
24.772242 -1.3936577 -1.734983 183.22
4.6444292 -0.26129022 -2.0711031 183.22
34.114922 -1.919266 -1.5934327 183.22
4.9343929 -0.27760324 -2.0643253 183.22
49.133045 -2.7641683 -1.1425282 183.22
5.2900124 -0.29760996 -2.0689476 183.22
5.6686592 -0.31891221 -2.0664856 183.22
23.853842 -1.3419895 0.55469155 183.22
5.8606868 -0.32971546 -1.9834448 183.22
22.545807 -1.268401 1.0530649 183.22
6.105545 -0.3434909 -1.9081856 183.22
23.696573 -1.3331418 1.659646 183.22
6.708611 -0.3774187 -1.9267051 183.22
16.502131 -0.9283908 1.5420061 183.22
7.3290458 -0.41232362 -1.921672 183.22
8.073348 -0.45419723 -1.9159474 183.22
8.9144354 -0.50151581 -1.897818 183.22
9.9685688 -0.56082016 -1.8811452 183.22
11.310044 -0.67392141 -1.8614677 183.41
13.014786 -0.7755003 -1.832353 183.41
15.712865 -0.93626833 -1.8407563 183.41
19.099039 -1.1380372 -1.7850114 183.41
24.741592 -1.474255 -1.7331693 183.41
4.6453609 -0.27679893 -2.0719163 183.41
34.158226 -2.0353553 -1.5957619 183.41
4.9352875 -0.29407451 -2.0650961 183.41
48.684505 -2.9009197 -1.1323154 183.41
5.2908559 -0.31526145 -2.069675 183.41
5.6731987 -0.33804375 -2.0685377 183.41
5.8463216 -0.3483595 -1.9789633 183.41
15.409891 -0.91821527 0.71990025 183.41
6.1005607 -0.36350861 -1.9069941 183.41
23.638248 -1.408511 1.6558791 183.41
6.7073226 -0.39966318 -1.9267051 183.41
16.562571 -0.98689902 1.5479512 183.41
7.3334322 -0.43697059 -1.9231915 183.41
8.0620842 -0.48038813 -1.9136418 183.41
8.9088173 -0.53084165 -1.8969862 183.41
9.9666548 -0.59387404 -1.8811452 183.41
11.292483 -0.70254833 -1.8588738 183.56
13.006781 -0.80920124 -1.8315181 183.56
15.698464 -0.97666115 -1.8393625 183.56
19.060219 -1.1858087 -1.7816674 183.56
24.707779 -1.5371649 -1.7310766 183.56
4.6391501 -0.28861916 -2.0694761 183.56
34.108913 -2.1220453 -1.5937122 183.56
4.9326587 -0.30687946 -2.0643253 183.56
48.117977 -2.9936023 -1.1193173 183.56
5.2881532 -0.32899609 -2.0689476 183.56
5.6760454 -0.35312837 -2.069906 183.56
5.8321519 -0.36284032 -1.9744816 183.56
15.419398 -0.95929939 0.72045928 183.56
6.0938716 -0.37912291 -1.9052069 183.56
23.355701 -1.453047 1.6363474 183.56
6.7024155 -0.41698277 -1.9256026 183.56
16.51223 -1.0272887 1.5434924 183.56
7.3245387 -0.4556874 -1.9211655 183.56
8.0666256 -0.50185549 -1.9150252 183.56
8.9054441 -0.55404156 -1.8965704 183.56
9.9591808 -0.61959851 -1.8800343 183.56
11.288122 -0.73986256 -1.8585496 183.75
12.984262 -0.85103351 -1.8287345 183.75
15.699103 -1.0289736 -1.8398271 183.75
19.0224 -1.246794 -1.778509 183.75
24.696573 -1.618699 -1.7306581 183.75
4.636344 -0.30388206 -2.0686626 183.75
34.079758 -2.2337055 -1.5926874 183.75
4.935297 -0.32347646 -2.0658669 183.75
47.82048 -3.1343198 -1.1126326 183.75
5.2833147 -0.34628674 -2.0674925 183.75
5.6748433 -0.3719489 -2.069906 183.75
